# .PCD v.7 - Point Cloud Data file format
FIELDS x y z rgb imX imY
SIZE 4 4 4 4 4 4
TYPE F F F F F F
COUNT 1 1 1 1 1 1
WIDTH 853
HEIGHT 1
VIEWPOINT 0 0 0 1 0 0 0
POINTS 853
DATA ascii
-0.0133604 0.76200002 0.01202436 1.3728103e-38 310 231
-0.01202436 0.76200002 0.01202436 1.2621756e-38 311 231
-0.01068832 0.76200002 0.01202436 1.0413014e-38 312 231
-0.0093522798 0.76200002 0.01202436 1.0043871e-38 313 231
-0.0080162399 0.76200002 0.01202436 1.2157524e-38 314 231
-0.0066801999 0.76200002 0.01202436 1.3171317e-38 315 231
-0.0053441599 0.76200002 0.01202436 1.5189172e-38 316 231
-0.0040081199 0.76200002 0.01202436 1.5189172e-38 317 231
-0.00267208 0.76200002 0.01202436 1.5371401e-38 318 231
-0.0013395466 0.764 0.01205592 1.5094455e-38 319 231
0 0.76200002 0.01202436 1.4631669e-38 320 231
0.00133604 0.76200002 0.01202436 1.4723865e-38 321 231
0.00267208 0.76200002 0.01202436 1.4632032e-38 322 231
0.0040081199 0.76200002 0.01202436 1.4355804e-38 323 231
0.0053441599 0.76200002 0.01202436 1.4263252e-38 324 231
0.0066801999 0.76200002 0.01202436 1.4171057e-38 325 231
0.0080162399 0.76200002 0.01202436 1.4172126e-38 326 231
0.0094013726 0.76599997 0.012087479 1.4172126e-38 327 231
0.010744425 0.76599997 0.012087479 1.417176e-38 328 231
0.01210326 0.76700002 0.01210326 1.4079565e-38 329 231
0.013448066 0.76700002 0.01210326 1.3803704e-38 330 231
0.014792874 0.76700002 0.01210326 1.3711508e-38 331 231
0.016179759 0.76899999 0.012134819 1.3527855e-38 332 231
0.017528072 0.76899999 0.012134819 1.3527855e-38 333 231
-0.042069476 0.77399999 0.01085664 1.3912495e-38 289 232
-0.040712398 0.77399999 0.01085664 1.5747345e-38 290 232
-0.039355319 0.77399999 0.01085664 1.5747345e-38 291 232
-0.037949149 0.773 0.010842613 1.6481298e-38 292 232
-0.036499143 0.77100003 0.01081456 1.6573495e-38 293 232
-0.03514732 0.77100003 0.01081456 1.6849361e-38 294 232
-0.033707831 0.76899999 0.010786506 1.6941557e-38 295 232
-0.032359518 0.76899999 0.010786506 1.7124872e-38 296 232
-0.030930554 0.76700002 0.010758453 1.7032676e-38 297 232
-0.029585747 0.76700002 0.010758453 1.7215642e-38 298 232
-0.028204117 0.76599997 0.010744425 1.7123447e-38 299 232
-0.026861066 0.76599997 0.010744425 1.7216367e-38 300 232
-0.025451386 0.764 0.010716373 1.7216367e-38 301 232
-0.024111839 0.764 0.010716373 1.7400032e-38 302 232
-0.02271268 0.76200002 0.01068832 1.7400032e-38 303 232
-0.02137664 0.76200002 0.01068832 1.7215645e-38 304 232
-0.0200406 0.76200002 0.01068832 1.712345e-38 305 232
-0.01870456 0.76200002 0.01068832 1.6663563e-38 306 232
-0.01736852 0.76200002 0.01068832 1.6110389e-38 307 232
-0.01603248 0.76200002 0.01068832 1.3256663e-38 308 232
-0.014677152 0.76099998 0.010674292 1.3072272e-38 309 232
-0.013342866 0.76099998 0.010674292 1.1972408e-38 310 232
-0.012008579 0.76099998 0.010674292 1.1234843e-38 311 232
-0.010674292 0.76099998 0.010674292 1.114194e-38 312 232
-0.0093522798 0.76200002 0.01068832 1.114194e-38 313 232
-0.0080162399 0.76200002 0.01068832 1.2981168e-38 314 232
-0.0066801999 0.76200002 0.01068832 1.4271907e-38 315 232
-0.0053441599 0.76200002 0.01068832 1.546467e-38 316 232
-0.0040081199 0.76200002 0.01068832 1.5372115e-38 317 232
-0.00267208 0.76200002 0.01068832 1.5280271e-38 318 232
-0.00133604 0.76200002 0.01068832 1.5004045e-38 319 232
0 0.76200002 0.01068832 1.4820367e-38 320 232
0.00133604 0.76200002 0.01068832 1.4451943e-38 321 232
0.00267208 0.76200002 0.01068832 1.4450868e-38 322 232
0.0040081199 0.76200002 0.01068832 1.4174281e-38 323 232
0.0053441599 0.76200002 0.01068832 1.4171054e-38 324 232
0.0066801999 0.76200002 0.01068832 1.4078858e-38 325 232
0.0080162399 0.76200002 0.01068832 1.417141e-38 326 232
0.0093522798 0.76200002 0.01068832 1.417141e-38 327 232
0.010716373 0.764 0.010716373 1.4079927e-38 328 232
0.012087479 0.76599997 0.010744425 1.3803701e-38 329 232
0.013448066 0.76700002 0.010758453 1.3894817e-38 330 232
0.014792874 0.76700002 0.010758453 1.3618589e-38 331 232
0.01613768 0.76700002 0.010758453 1.3618606e-38 332 232
0.017528072 0.76899999 0.010786506 1.3618606e-38 333 232
-0.043426558 0.77399999 0.0094995592 1.5477287e-38 288 233
-0.042069476 0.77399999 0.0094995592 1.4278744e-38 289 233
-0.0406598 0.773 0.0094872871 1.6022493e-38 290 233
-0.039304473 0.773 0.0094872871 1.5930297e-38 291 233
-0.037850961 0.77100003 0.0094627403 1.6388754e-38 292 233
-0.036404461 0.76899999 0.0094381925 1.648095e-38 293 233
-0.035056144 0.76899999 0.0094381925 1.6389115e-38 294 233
-0.033620168 0.76700002 0.0094136465 1.6389115e-38 295 233
-0.03227536 0.76700002 0.0094136465 1.6939419e-38 296 233
-0.030890226 0.76599997 0.0094013726 1.7031973e-38 297 233
-0.029547172 0.76599997 0.0094013726 1.703162e-38 298 233
-0.028204117 0.76599997 0.0094013726 1.7123815e-38 299 233
-0.026861066 0.76599997 0.0094013726 1.6941222e-38 300 233
-0.025451386 0.764 0.0093768267 1.6849026e-38 301 233
-0.02404872 0.76200002 0.0093522798 1.7123815e-38 302 233
-0.022682872 0.76099998 0.0093400059 1.703162e-38 303 233
-0.021348584 0.76099998 0.0093400059 1.6939071e-38 304 233
-0.0200406 0.76200002 0.0093522798 1.675504e-38 305 233
-0.01870456 0.76200002 0.0093522798 1.63859e-38 306 233
-0.017345725 0.76099998 0.0093400059 1.6293346e-38 307 233
-0.016011439 0.76099998 0.0093400059 1.4452293e-38 308 233
-0.014677152 0.76099998 0.0093400059 1.3529978e-38 309 233
-0.013342866 0.76099998 0.0093400059 1.2423999e-38 310 233
-0.012008579 0.76099998 0.0093400059 1.2516555e-38 311 233
-0.010674292 0.76099998 0.0093400059 1.2426549e-38 312 233
-0.0093522798 0.76200002 0.0093522798 1.2794972e-38 313 233
-0.0080162399 0.76200002 0.0093522798 1.3442496e-38 314 233
-0.0066801999 0.76200002 0.0093522798 1.4180061e-38 315 233
-0.0053441599 0.76200002 0.0093522798 1.5647263e-38 316 233
-0.0040081199 0.76200002 0.0093522798 1.5647263e-38 317 233
-0.00267208 0.76200002 0.0093522798 1.5280271e-38 318 233
-0.00133604 0.76200002 0.0093522798 1.5004045e-38 319 233
0 0.76200002 0.0093522798 1.5004748e-38 320 233
0.00133604 0.76200002 0.0093522798 1.4819998e-38 321 233
0.00267208 0.76200002 0.0093522798 1.4727438e-38 322 233
0.0040028598 0.76099998 0.0093400059 1.4358297e-38 323 233
0.0053371461 0.76099998 0.0093400059 1.4447268e-38 324 233
0.0066801999 0.76200002 0.0093522798 1.4262877e-38 325 233
0.0080162399 0.76200002 0.0093522798 1.4171763e-38 326 233
0.0093522798 0.76200002 0.0093522798 1.4171763e-38 327 233
0.010716373 0.764 0.0093768267 1.426323e-38 328 233
0.01205592 0.764 0.0093768267 1.3894447e-38 329 233
0.013395466 0.764 0.0093768267 1.398557e-38 330 233
0.014773586 0.76599997 0.0094013726 1.380118e-38 331 233
0.01613768 0.76700002 0.0094136465 1.3250545e-38 332 233
0.017482487 0.76700002 0.0094136465 1.3434938e-38 333 233
0.018827293 0.76700002 0.0094136465 1.2976146e-38 334 233
-0.043426558 0.77399999 0.0081424797 1.538257e-38 288 234
-0.042069476 0.77399999 0.0081424797 1.4829397e-38 289 234
-0.0406598 0.773 0.0081319595 1.6205805e-38 290 234
-0.039304473 0.773 0.0081319595 1.5837024e-38 291 234
-0.037850961 0.77100003 0.0081109209 1.6387307e-38 292 234
-0.036404461 0.76899999 0.0080898795 1.6387307e-38 293 234
-0.035056144 0.76899999 0.0080898795 1.6570982e-38 294 234
-0.033620168 0.76700002 0.00806884 1.6478428e-38 295 234
-0.03227536 0.76700002 0.00806884 1.684614e-38 296 234
-0.030890226 0.76599997 0.0080583189 1.684614e-38 297 234
-0.029547172 0.76599997 0.0080583189 1.7122013e-38 298 234
-0.028204117 0.76599997 0.0080583189 1.721421e-38 299 234
-0.026790932 0.764 0.0080372803 1.694015e-38 300 234
-0.025451386 0.764 0.0080372803 1.6847954e-38 301 234
-0.024017159 0.76099998 0.0080057196 1.6938349e-38 302 234
-0.022682872 0.76099998 0.0080057196 1.6938349e-38 303 234
-0.021348584 0.76099998 0.0080057196 1.6753954e-38 304 234
-0.020014299 0.76099998 0.0080057196 1.6477727e-38 305 234
-0.018680012 0.76099998 0.0080057196 1.6202935e-38 306 234
-0.017345725 0.76099998 0.0080057196 1.5557566e-38 307 234
-0.016011439 0.76099998 0.0080057196 1.518806e-38 308 234
-0.014677152 0.76099998 0.0080057196 1.500331e-38 309 234
-0.013342866 0.76099998 0.0080057196 1.4084246e-38 310 234
-0.012008579 0.76099998 0.0080057196 1.3992051e-38 311 234
-0.010674292 0.76099998 0.0080057196 1.3165181e-38 312 234
-0.0093400059 0.76099998 0.0080057196 1.3349931e-38 313 234
-0.0080057196 0.76099998 0.0080057196 1.4360853e-38 314 234
-0.0066714329 0.76099998 0.0080057196 1.5006222e-38 315 234
-0.0053371461 0.76099998 0.0080057196 1.5189174e-38 316 234
-0.0040081199 0.76200002 0.0080162399 1.4820392e-38 317 234
-0.00267208 0.76200002 0.0080162399 1.5093739e-38 318 234
-0.0013342865 0.76099998 0.0080057196 1.5093739e-38 319 234
0 0.76099998 0.0080057196 1.5094808e-38 320 234
0.0013342865 0.76099998 0.0080057196 1.5094808e-38 321 234
0.0026685731 0.76099998 0.0080057196 1.4727099e-38 322 234
0.0040028598 0.76099998 0.0080057196 1.4358675e-38 323 234
0.0053371461 0.76099998 0.0080057196 1.4356154e-38 324 234
0.0066714329 0.76099998 0.0080057196 1.4263959e-38 325 234
0.0080057196 0.76099998 0.0080057196 1.4355072e-38 326 234
0.0093522798 0.76200002 0.0080162399 1.4262877e-38 327 234
0.01068832 0.76200002 0.0080162399 1.4354354e-38 328 234
0.01205592 0.764 0.0080372803 1.4077765e-38 329 234
0.013395466 0.764 0.0080372803 1.3709706e-38 330 234
0.014773586 0.76599997 0.0080583189 1.361751e-38 331 234
0.01613768 0.76700002 0.00806884 1.3250179e-38 332 234
0.017482487 0.76700002 0.00806884 1.3157984e-38 333 234
0.018827293 0.76700002 0.00806884 1.3250558e-38 334 234
0.020172099 0.76700002 0.00806884 1.3435309e-38 335 234
-0.043370452 0.773 0.0067766332 1.5472598e-38 288 235
-0.042015124 0.773 0.0067766332 1.5288207e-38 289 235
-0.0406598 0.773 0.0067766332 1.6203654e-38 290 235
-0.039101087 0.76899999 0.0067415666 1.6111459e-38 291 235
-0.037654586 0.76700002 0.006724033 1.6294402e-38 292 235
-0.036309779 0.76700002 0.006724033 1.611037e-38 293 235
-0.034964975 0.76700002 0.006724033 1.6293329e-38 294 235
-0.033620168 0.76700002 0.006724033 1.6385885e-38 295 235
-0.032233275 0.76599997 0.0067152665 1.647773e-38 296 235
-0.030890226 0.76599997 0.0067152665 1.6753957e-38 297 235
-0.029470026 0.764 0.006697733 1.6662843e-38 298 235
-0.028056841 0.76200002 0.0066801999 1.6939071e-38 299 235
-0.0267208 0.76200002 0.0066801999 1.6847601e-38 300 235
-0.025351444 0.76099998 0.0066714329 1.6755406e-38 301 235
-0.024017159 0.76099998 0.0066714329 1.6662487e-38 302 235
-0.02262326 0.759 0.0066538998 1.6570291e-38 303 235
-0.02129248 0.759 0.0066538998 1.6478093e-38 304 235
-0.0199617 0.759 0.0066538998 1.6293702e-38 305 235
-0.01863092 0.759 0.0066538998 1.6018191e-38 306 235
-0.017300138 0.759 0.0066538998 1.5649408e-38 307 235
-0.015969358 0.759 0.0066538998 1.5647959e-38 308 235
-0.014638579 0.759 0.0066538998 1.5463568e-38 309 235
-0.0133078 0.759 0.0066538998 1.5095865e-38 310 235
-0.01197702 0.759 0.0066538998 1.500331e-38 311 235
-0.01064624 0.759 0.0066538998 1.4267921e-38 312 235
-0.0093400059 0.76099998 0.0066714329 1.4267921e-38 313 235
-0.0080057196 0.76099998 0.0066714329 1.4360137e-38 314 235
-0.0066714329 0.76099998 0.0066714329 1.4636363e-38 315 235
-0.0053371461 0.76099998 0.0066714329 1.4636369e-38 316 235
-0.0040028598 0.76099998 0.0066714329 1.4359784e-38 317 235
-0.0026685731 0.76099998 0.0066714329 1.3989559e-38 318 235
-0.0013342865 0.76099998 0.0066714329 1.3989559e-38 319 235
0 0.76099998 0.0066714329 1.4083543e-38 320 235
0.0013342865 0.76099998 0.0066714329 1.3807316e-38 321 235
0.0026685731 0.76099998 0.0066714329 1.4172503e-38 322 235
0.0040028598 0.76099998 0.0066714329 1.398811e-38 323 235
0.0053371461 0.76099998 0.0066714329 1.407958e-38 324 235
0.0066714329 0.76099998 0.0066714329 1.3803353e-38 325 235
0.0080057196 0.76099998 0.0066714329 1.4079211e-38 326 235
0.0093400059 0.76099998 0.0066714329 1.3987016e-38 327 235
0.01068832 0.76200002 0.0066801999 1.3895173e-38 328 235
0.01205592 0.764 0.006697733 1.3618586e-38 329 235
0.013395466 0.764 0.006697733 1.361751e-38 330 235
0.014735013 0.764 0.006697733 1.3433479e-38 331 235
0.016116638 0.76599997 0.0067152665 1.32491e-38 332 235
0.017482487 0.76700002 0.006724033 1.3341296e-38 333 235
0.018827293 0.76700002 0.006724033 1.288393e-38 334 235
0.020172099 0.76700002 0.006724033 1.2976486e-38 335 235
0.021573013 0.76899999 0.0067415666 1.2056375e-38 336 235
-0.044725779 0.773 0.0054213065 1.2534981e-38 287 236
-0.043258239 0.77100003 0.0054072798 1.5378235e-38 288 236
-0.04190642 0.77100003 0.0054072798 1.5286039e-38 289 236
-0.0404494 0.76899999 0.0053932532 1.6110384e-38 290 236
-0.038999394 0.76700002 0.0053792265 1.6018188e-38 291 236
-0.037605491 0.76599997 0.0053722127 1.6201486e-38 292 236
-0.036262438 0.76599997 0.0053722127 1.6201486e-38 293 236
-0.034964975 0.76700002 0.0053792265 1.629261e-38 294 236
-0.033576332 0.76599997 0.0053722127 1.6477e-38 295 236
-0.032233275 0.76599997 0.0053722127 1.6385176e-38 296 236
-0.030809574 0.764 0.0053581866 1.647773e-38 297 236
-0.029392879 0.76200002 0.0053441599 1.6386623e-38 298 236
-0.028056841 0.76200002 0.0053441599 1.666321e-38 299 236
-0.026685731 0.76099998 0.0053371461 1.6479542e-38 300 236
-0.025351444 0.76099998 0.0053371461 1.6387345e-38 301 236
-0.023954039 0.759 0.0053231199 1.647774e-38 302 236
-0.02262326 0.759 0.0053231199 1.6385544e-38 303 236
-0.02129248 0.759 0.0053231199 1.6293346e-38 304 236
-0.0199617 0.759 0.0053231199 1.6109315e-38 305 236
-0.01863092 0.759 0.0053231199 1.5925644e-38 306 236
-0.017254554 0.75700003 0.0053090933 1.5649058e-38 307 236
-0.015927281 0.75700003 0.0053090933 1.5465033e-38 308 236
-0.014600007 0.75700003 0.0053090933 1.5188806e-38 309 236
-0.013272733 0.75700003 0.0053090933 1.500406e-38 310 236
-0.01194546 0.75700003 0.0053090933 1.4911864e-38 311 236
-0.010618187 0.75700003 0.0053090933 1.4543452e-38 312 236
-0.00931546 0.759 0.0053231199 1.4267225e-38 313 236
-0.0079846792 0.759 0.0053231199 1.4266869e-38 314 236
-0.0066538998 0.759 0.0053231199 1.44509e-38 315 236
-0.0053231199 0.759 0.0053231199 1.4542383e-38 316 236
-0.0039923396 0.759 0.0053231199 1.4265436e-38 317 236
-0.0026685731 0.76099998 0.0053371461 1.3434959e-38 318 236
-0.0013342865 0.76099998 0.0053371461 1.3527154e-38 319 236
0 0.759 0.0053231199 1.3437473e-38 320 236
0.00133078 0.759 0.0053231199 1.306905e-38 321 236
0.00266156 0.759 0.0053231199 1.3524631e-38 322 236
0.0039923396 0.759 0.0053231199 1.3432435e-38 323 236
0.0053371461 0.76099998 0.0053371461 1.3617535e-38 324 236
0.0066714329 0.76099998 0.0053371461 1.3617535e-38 325 236
0.0080057196 0.76099998 0.0053371461 1.3526403e-38 326 236
0.0093400059 0.76099998 0.0053371461 1.3618958e-38 327 236
0.010674292 0.76099998 0.0053371461 1.3710785e-38 328 236
0.01202436 0.76200002 0.0053441599 1.3526394e-38 329 236
0.0133604 0.76200002 0.0053441599 1.3341646e-38 330 236
0.014735013 0.764 0.0053581866 1.3249451e-38 331 236
0.016116638 0.76599997 0.0053722127 1.3064711e-38 332 236
0.017482487 0.76700002 0.0053792265 1.32491e-38 333 236
0.018827293 0.76700002 0.0053792265 1.2882489e-38 334 236
0.020172099 0.76700002 0.0053792265 1.3250911e-38 335 236
0.021573013 0.76899999 0.0053932532 1.2976161e-38 336 236
-0.046081103 0.773 0.0040659797 1.5298319e-38 286 237
-0.044725779 0.773 0.0040659797 1.2624645e-38 287 237
-0.043258239 0.77100003 0.0040554604 1.5743775e-38 288 237
-0.04190642 0.77100003 0.0040554604 1.5651579e-38 289 237
-0.0404494 0.76899999 0.0040449398 1.6017468e-38 290 237
-0.038999394 0.76700002 0.00403442 1.5925272e-38 291 237
-0.037605491 0.76599997 0.0040291594 1.6108572e-38 292 237
-0.036262438 0.76599997 0.0040291594 1.6108572e-38 293 237
-0.034919381 0.76599997 0.0040291594 1.6291534e-38 294 237
-0.033576332 0.76599997 0.0040291594 1.6475925e-38 295 237
-0.032233275 0.76599997 0.0040291594 1.6292986e-38 296 237
-0.030688593 0.76099998 0.0040028598 1.6292986e-38 297 237
-0.029354304 0.76099998 0.0040028598 1.6109683e-38 298 237
-0.028020019 0.76099998 0.0040028598 1.6109683e-38 299 237
-0.026685731 0.76099998 0.0040028598 1.6110405e-38 300 237
-0.025284819 0.759 0.0039923396 1.6110405e-38 301 237
-0.023954039 0.759 0.0039923396 1.601749e-38 302 237
-0.022563647 0.75700003 0.0039818203 1.5924934e-38 303 237
-0.021236373 0.75700003 0.0039818203 1.6107884e-38 304 237
-0.019909101 0.75700003 0.0039818203 1.6200079e-38 305 237
-0.018581826 0.75700003 0.0039818203 1.5741256e-38 306 237
-0.017254554 0.75700003 0.0039818203 1.5649061e-38 307 237
-0.015927281 0.75700003 0.0039818203 1.5281723e-38 308 237
-0.014600007 0.75700003 0.0039818203 1.4728549e-38 309 237
-0.013272733 0.75700003 0.0039818203 1.4633126e-38 310 237
-0.01194546 0.75700003 0.0039818203 1.4540931e-38 311 237
-0.010618187 0.75700003 0.0039818203 1.3989209e-38 312 237
-0.0092909131 0.75700003 0.0039818203 1.3897013e-38 313 237
-0.0079636406 0.75700003 0.0039818203 1.3989572e-38 314 237
-0.0066363667 0.75700003 0.0039818203 1.4082126e-38 315 237
-0.0053090933 0.75700003 0.0039818203 1.4082839e-38 316 237
-0.0039923396 0.759 0.0039923396 1.3714417e-38 317 237
-0.00266156 0.759 0.0039923396 1.3895933e-38 318 237
-0.00133078 0.759 0.0039923396 1.3619347e-38 319 237
0 0.759 0.0039923396 1.3159448e-38 320 237
0.00133078 0.759 0.0039923396 1.2514079e-38 321 237
0.00266156 0.759 0.0039923396 1.140845e-38 322 237
0.0039923396 0.759 0.0039923396 1.1869428e-38 323 237
0.0053371461 0.76099998 0.0040028598 1.2605191e-38 324 237
0.0066714329 0.76099998 0.0040028598 1.242116e-38 325 237
0.0080057196 0.76099998 0.0040028598 1.3065079e-38 326 237
0.0093400059 0.76099998 0.0040028598 1.3157275e-38 327 237
0.010674292 0.76099998 0.0040028598 1.3434564e-38 328 237
0.01202436 0.76200002 0.0040081199 1.3250533e-38 329 237
0.0133604 0.76200002 0.0040081199 1.3249095e-38 330 237
0.014735013 0.764 0.0040186401 1.3065062e-38 331 237
0.016116638 0.76599997 0.0040291594 1.2972516e-38 332 237
0.017459691 0.76599997 0.0040291594 1.3064713e-38 333 237
0.018827293 0.76700002 0.00403442 1.2789218e-38 334 237
0.020172099 0.76700002 0.00403442 1.3157999e-38 335 237
0.021573013 0.76899999 0.0040449398 1.2701004e-38 336 237
0.022921326 0.76899999 0.0040449398 1.3161982e-38 337 237
-0.047436431 0.773 0.0027106532 1.4016978e-38 285 238
-0.046081103 0.773 0.0027106532 1.4649709e-38 286 238
-0.044610061 0.77100003 0.0027036399 1.3174579e-38 287 238
-0.043258239 0.77100003 0.0027036399 1.5651579e-38 288 238
-0.04190642 0.77100003 0.0027036399 1.5467186e-38 289 238
-0.0404494 0.76899999 0.0026966266 1.5557569e-38 290 238
-0.038999394 0.76700002 0.0026896133 1.5557569e-38 291 238
-0.037605491 0.76599997 0.0026861064 1.5832711e-38 292 238
-0.036262438 0.76599997 0.0026861064 1.5924906e-38 293 238
-0.034919381 0.76599997 0.0026861064 1.6108222e-38 294 238
-0.033488665 0.764 0.0026790933 1.6292613e-38 295 238
-0.032149121 0.764 0.0026790933 1.5924922e-38 296 238
-0.030688593 0.76099998 0.0026685731 1.5832726e-38 297 238
-0.029354304 0.76099998 0.0026685731 1.528172e-38 298 238
-0.028020019 0.76099998 0.0026685731 1.528172e-38 299 238
-0.026615599 0.759 0.00266156 1.5741269e-38 300 238
-0.025284819 0.759 0.00266156 1.5556878e-38 301 238
-0.02389092 0.75700003 0.0026545466 1.5556528e-38 302 238
-0.022563647 0.75700003 0.0026545466 1.5464332e-38 303 238
-0.021236373 0.75700003 0.0026545466 1.5464329e-38 304 238
-0.019909101 0.75700003 0.0026545466 1.5649079e-38 305 238
-0.018581826 0.75700003 0.0026545466 1.5098058e-38 306 238
-0.017254554 0.75700003 0.0026545466 1.5098058e-38 307 238
-0.015885198 0.755 0.0026475333 1.5188455e-38 308 238
-0.014561433 0.755 0.0026475333 1.4819313e-38 309 238
-0.013237666 0.755 0.0026475333 1.4633129e-38 310 238
-0.011913899 0.755 0.0026475333 1.4448738e-38 311 238
-0.010618187 0.75700003 0.0026545466 1.3804464e-38 312 238
-0.0092909131 0.75700003 0.0026545466 1.3527517e-38 313 238
-0.0079636406 0.75700003 0.0026545466 1.3346726e-38 314 238
-0.0066363667 0.75700003 0.0026545466 1.3438922e-38 315 238
-0.0053090933 0.75700003 0.0026545466 1.3714061e-38 316 238
-0.0039923396 0.759 0.00266156 1.3437473e-38 317 238
-0.00266156 0.759 0.00266156 1.3343837e-38 318 238
-0.00133078 0.759 0.00266156 1.3159445e-38 319 238
0 0.759 0.00266156 1.2882498e-38 320 238
0.00133078 0.759 0.00266156 1.2237129e-38 321 238
0.00266156 0.759 0.00266156 1.1500648e-38 322 238
0.0039923396 0.759 0.00266156 1.1592846e-38 323 238
0.0053371461 0.76099998 0.0026685731 1.1409543e-38 324 238
0.0066714329 0.76099998 0.0026685731 1.1409543e-38 325 238
0.0080057196 0.76099998 0.0026685731 1.2237132e-38 326 238
0.0093400059 0.76099998 0.0026685731 1.2421523e-38 327 238
0.010674292 0.76099998 0.0026685731 1.2789568e-38 328 238
0.01202436 0.76200002 0.00267208 1.2789568e-38 329 238
0.0133604 0.76200002 0.00267208 1.2697371e-38 330 238
0.01469644 0.76200002 0.00267208 1.2697371e-38 331 238
0.016074561 0.764 0.0026790933 1.2605897e-38 332 238
0.017414106 0.764 0.0026790933 1.2421508e-38 333 238
0.018753653 0.764 0.0026790933 1.2604469e-38 334 238
0.020145798 0.76599997 0.0026861064 1.2789221e-38 335 238
0.021488851 0.76599997 0.0026861064 1.22411e-38 336 238
0.022831906 0.76599997 0.0026861064 1.2517688e-38 337 238
0.024269639 0.76899999 0.0026966266 1.1603326e-38 338 238
-0.04885488 0.77399999 0.0013570799 1.7518602e-38 284 239
-0.047436431 0.773 0.0013553266 1.336944e-38 285 239
-0.046081103 0.773 0.0013553266 1.4463504e-38 286 239
-0.044610061 0.77100003 0.00135182 1.3357157e-38 287 239
-0.043258239 0.77100003 0.00135182 1.5557578e-38 288 239
-0.04190642 0.77100003 0.00135182 1.5465383e-38 289 239
-0.0404494 0.76899999 0.0013483133 1.5464647e-38 290 239
-0.038999394 0.76700002 0.0013448066 1.564868e-38 291 239
-0.037605491 0.76599997 0.0013430532 1.5924178e-38 292 239
-0.036262438 0.76599997 0.0013430532 1.6016373e-38 293 239
-0.034919381 0.76599997 0.0013430532 1.592526e-38 294 239
-0.033357166 0.76099998 0.0013342865 1.5833064e-38 295 239
-0.032022879 0.76099998 0.0013342865 1.5739809e-38 296 239
-0.030688593 0.76099998 0.0013342865 1.5463221e-38 297 239
-0.029354304 0.76099998 0.0013342865 1.3901303e-38 298 239
-0.028020019 0.76099998 0.0013342865 1.3901303e-38 299 239
-0.026615599 0.759 0.00133078 1.5095181e-38 300 239
-0.025284819 0.759 0.00133078 1.5095181e-38 301 239
-0.02389092 0.75700003 0.0013272733 1.4818597e-38 302 239
-0.022563647 0.75700003 0.0013272733 1.4449814e-38 303 239
-0.021236373 0.75700003 0.0013272733 1.4449817e-38 304 239
-0.019909101 0.75700003 0.0013272733 1.4910436e-38 305 239
-0.018581826 0.75700003 0.0013272733 1.5461811e-38 306 239
-0.017254554 0.75700003 0.0013272733 1.5646204e-38 307 239
-0.015885198 0.755 0.0013237667 1.5186653e-38 308 239
-0.014561433 0.755 0.0013237667 1.5186653e-38 309 239
-0.013237666 0.755 0.0013237667 1.4452685e-38 310 239
-0.011913899 0.755 0.0013237667 1.4268294e-38 311 239
-0.010590133 0.755 0.0013237667 1.3621853e-38 312 239
-0.0092909131 0.75700003 0.0013272733 1.3621853e-38 313 239
-0.0079636406 0.75700003 0.0013272733 1.3345627e-38 314 239
-0.0066363667 0.75700003 0.0013272733 1.3437823e-38 315 239
-0.0053090933 0.75700003 0.0013272733 1.3710814e-38 316 239
-0.0039818203 0.75700003 0.0013272733 1.334239e-38 317 239
-0.00266156 0.759 0.00133078 1.3432785e-38 318 239
-0.00133078 0.759 0.00133078 1.334059e-38 319 239
0 0.759 0.00133078 1.2973237e-38 320 239
0.00133078 0.759 0.00133078 1.2512258e-38 321 239
0.00266156 0.759 0.00133078 1.1502071e-38 322 239
0.0039923396 0.759 0.00133078 1.113329e-38 323 239
0.0053371461 0.76099998 0.0013342865 1.1498848e-38 324 239
0.0066714329 0.76099998 0.0013342865 1.1591043e-38 325 239
0.0080057196 0.76099998 0.0013342865 1.1960175e-38 326 239
0.0093400059 0.76099998 0.0013342865 1.2144568e-38 327 239
0.010674292 0.76099998 0.0013342865 1.278705e-38 328 239
0.01202436 0.76200002 0.00133604 1.278705e-38 329 239
0.0133604 0.76200002 0.00133604 1.2695574e-38 330 239
0.01469644 0.76200002 0.00133604 1.2695574e-38 331 239
0.01603248 0.76200002 0.00133604 1.2512261e-38 332 239
0.01736852 0.76200002 0.00133604 1.2604457e-38 333 239
0.018753653 0.764 0.0013395466 1.2695223e-38 334 239
0.020145798 0.76599997 0.0013430532 1.2879614e-38 335 239
0.021488851 0.76599997 0.0013430532 1.2055631e-38 336 239
0.022831906 0.76599997 0.0013430532 1.2516609e-38 337 239
0.024206521 0.76700002 0.0013448066 1.1877396e-38 338 239
0.025751207 0.773 0.0013553266 1.6487536e-38 339 239
-0.04885488 0.77399999 -0 1.7332037e-38 284 240
-0.047436431 0.773 -0 1.3091037e-38 285 240
-0.046081103 0.773 -0 1.4276573e-38 286 240
-0.044725779 0.773 -0 1.3539008e-38 287 240
-0.043258239 0.77100003 -0 1.5283496e-38 288 240
-0.04190642 0.77100003 -0 1.500691e-38 289 240
-0.040344197 0.76700002 -0 1.5280975e-38 290 240
-0.038948543 0.76599997 -0 1.537317e-38 291 240
-0.037507307 0.764 -0 1.5464651e-38 292 240
-0.036073081 0.76200002 -0 1.5648683e-38 293 240
-0.034737039 0.76200002 -0 1.5648685e-38 294 240
-0.033357166 0.76099998 -0 1.5648685e-38 295 240
-0.032022879 0.76099998 -0 1.5646896e-38 296 240
-0.030688593 0.76099998 -0 1.5462146e-38 297 240
-0.029354304 0.76099998 -0 1.5184505e-38 298 240
-0.028020019 0.76099998 -0 1.4907918e-38 299 240
-0.026615599 0.759 -0 1.4267588e-38 300 240
-0.025284819 0.759 -0 1.4267588e-38 301 240
-0.02389092 0.75700003 -0 1.4450537e-38 302 240
-0.022563647 0.75700003 -0 1.4265786e-38 303 240
-0.021236373 0.75700003 -0 1.454023e-38 304 240
-0.019909101 0.75700003 -0 1.4816818e-38 305 240
-0.018581826 0.75700003 -0 1.4634944e-38 306 240
-0.017208965 0.755 -0 1.4634944e-38 307 240
-0.015885198 0.755 -0 1.4635645e-38 308 240
-0.014561433 0.755 -0 1.4635645e-38 309 240
-0.013237666 0.755 -0 1.4361206e-38 310 240
-0.011913899 0.755 -0 1.3900586e-38 311 240
-0.010590133 0.755 -0 1.3805168e-38 312 240
-0.0092909131 0.75700003 -0 1.3528221e-38 313 240
-0.0079636406 0.75700003 -0 1.2976502e-38 314 240
-0.0066363667 0.75700003 -0 1.279175e-38 315 240
-0.0053090933 0.75700003 -0 1.2974346e-38 316 240
-0.0039818203 0.75700003 -0 1.269812e-38 317 240
-0.00266156 0.759 -0 1.2788868e-38 318 240
-0.00133078 0.759 -0 1.2696671e-38 319 240
0 0.759 -0 1.2329315e-38 320 240
0.00133078 0.759 -0 1.2052369e-38 321 240
0.00266156 0.759 -0 1.1592113e-38 322 240
0.0039923396 0.759 -0 1.1315886e-38 323 240
0.0053371461 0.76099998 -0 1.1040388e-38 324 240
0.0066714329 0.76099998 -0 1.1040388e-38 325 240
0.0080057196 0.76099998 -0 1.1408097e-38 326 240
0.0093400059 0.76099998 -0 1.1315901e-38 327 240
0.010674292 0.76099998 -0 1.168361e-38 328 240
0.01202436 0.76200002 -0 1.168361e-38 329 240
0.0133604 0.76200002 -0 1.1683608e-38 330 240
0.01469644 0.76200002 -0 1.1683608e-38 331 240
0.01603248 0.76200002 -0 1.1776161e-38 332 240
0.01736852 0.76200002 -0 1.1868356e-38 333 240
0.01870456 0.76200002 -0 1.1868006e-38 334 240
0.020145798 0.76599997 -0 1.2052397e-38 335 240
0.021488851 0.76599997 -0 1.1503909e-38 336 240
0.022772292 0.764 -0 1.187269e-38 337 240
0.024111839 0.764 -0 1.1232748e-38 338 240
0.025551327 0.76700002 -0 1.5658138e-38 339 240
-0.047436431 0.773 -0.0013553266 1.3182883e-38 285 241
-0.046081103 0.773 -0.0013553266 1.4643203e-38 286 241
-0.044725779 0.773 -0.0013553266 1.3813803e-38 287 241
-0.043258239 0.77100003 -0.00135182 1.5189506e-38 288 241
-0.04190642 0.77100003 -0.00135182 1.5097309e-38 289 241
-0.040344197 0.76700002 -0.0013448066 1.5188057e-38 290 241
-0.038948543 0.76599997 -0.0013430532 1.5188057e-38 291 241
-0.037507307 0.764 -0.0013395466 1.5371726e-38 292 241
-0.036073081 0.76200002 -0.00133604 1.5463921e-38 293 241
-0.034737039 0.76200002 -0.00133604 1.5738713e-38 294 241
-0.033357166 0.76099998 -0.0013342865 1.5738713e-38 295 241
-0.032022879 0.76099998 -0.0013342865 1.5646167e-38 296 241
-0.030688593 0.76099998 -0.0013342865 1.5369582e-38 297 241
-0.029354304 0.76099998 -0.0013342865 1.4816776e-38 298 241
-0.028020019 0.76099998 -0.0013342865 1.4816776e-38 299 241
-0.026615599 0.759 -0.00133078 1.4173925e-38 300 241
-0.025284819 0.759 -0.00133078 1.4173925e-38 301 241
-0.02389092 0.75700003 -0.0013272733 1.4449792e-38 302 241
-0.022563647 0.75700003 -0.0013272733 1.4449792e-38 303 241
-0.021236373 0.75700003 -0.0013272733 1.4358325e-38 304 241
-0.019909101 0.75700003 -0.0013272733 1.4634552e-38 305 241
-0.018581826 0.75700003 -0.0013272733 1.4726746e-38 306 241
-0.017208965 0.755 -0.0013237667 1.4450518e-38 307 241
-0.015885198 0.755 -0.0013237667 1.4540915e-38 308 241
-0.014561433 0.755 -0.0013237667 1.444872e-38 309 241
-0.013237666 0.755 -0.0013237667 1.4081029e-38 310 241
-0.011913899 0.755 -0.0013237667 1.3896636e-38 311 241
-0.010590133 0.755 -0.0013237667 1.3434234e-38 312 241
-0.0092663663 0.755 -0.0013237667 1.3342037e-38 313 241
-0.0079425992 0.755 -0.0013237667 1.3156571e-38 314 241
-0.0066363667 0.75700003 -0.0013272733 1.2879983e-38 315 241
-0.0053090933 0.75700003 -0.0013272733 1.2787066e-38 316 241
-0.0039818203 0.75700003 -0.0013272733 1.2787066e-38 317 241
-0.00266156 0.759 -0.00133078 1.2511908e-38 318 241
-0.00133078 0.759 -0.00133078 1.2419712e-38 319 241
0 0.759 -0.00133078 1.2327514e-38 320 241
0.00133078 0.759 -0.00133078 1.195909e-38 321 241
0.00266156 0.759 -0.00133078 1.1315883e-38 322 241
0.0039923396 0.759 -0.00133078 1.113149e-38 323 241
0.0053371461 0.76099998 -0.0013342865 1.1131858e-38 324 241
0.0066714329 0.76099998 -0.0013342865 1.1131858e-38 325 241
0.0080057196 0.76099998 -0.0013342865 1.1315533e-38 326 241
0.0093400059 0.76099998 -0.0013342865 1.1315533e-38 327 241
0.010674292 0.76099998 -0.0013342865 1.1405933e-38 328 241
0.01202436 0.76200002 -0.00133604 1.1405933e-38 329 241
0.0133604 0.76200002 -0.00133604 1.1314452e-38 330 241
0.01469644 0.76200002 -0.00133604 1.1314452e-38 331 241
0.01603248 0.76200002 -0.00133604 1.1497049e-38 332 241
0.01736852 0.76200002 -0.00133604 1.1773637e-38 333 241
0.01870456 0.76200002 -0.00133604 1.1497423e-38 334 241
0.020093199 0.764 -0.0013395466 1.1774008e-38 335 241
0.021488851 0.76599997 -0.0013430532 1.1317363e-38 336 241
0.022772292 0.764 -0.0013395466 1.1594308e-38 337 241
0.024111839 0.764 -0.0013395466 1.0680293e-38 338 241
0.025551327 0.76700002 -0.0013448066 1.4829457e-38 339 241
-0.047436431 0.773 -0.0027106532 1.3181084e-38 285 242
-0.046081103 0.773 -0.0027106532 1.4366273e-38 286 242
-0.044725779 0.773 -0.0027106532 1.4181522e-38 287 242
-0.043370452 0.773 -0.0027106532 1.4913294e-38 288 242
-0.041797712 0.76899999 -0.0026966266 1.4728902e-38 289 242
-0.040344197 0.76700002 -0.0026896133 1.4820717e-38 290 242
-0.038948543 0.76599997 -0.0026861064 1.4820717e-38 291 242
-0.037507307 0.764 -0.0026790933 1.500331e-38 292 242
-0.036073081 0.76200002 -0.00267208 1.500331e-38 293 242
-0.034737039 0.76200002 -0.00267208 1.5094437e-38 294 242
-0.033357166 0.76099998 -0.0026685731 1.5094437e-38 295 242
-0.032022879 0.76099998 -0.0026685731 1.5002241e-38 296 242
-0.030688593 0.76099998 -0.0026685731 1.4910044e-38 297 242
-0.029354304 0.76099998 -0.0026685731 1.4817851e-38 298 242
-0.028020019 0.76099998 -0.0026685731 1.3803701e-38 299 242
-0.026685731 0.76099998 -0.0026685731 1.2335406e-38 300 242
-0.025284819 0.759 -0.00266156 1.2611994e-38 301 242
-0.023954039 0.759 -0.00266156 1.3989179e-38 302 242
-0.022563647 0.75700003 -0.0026545466 1.4358322e-38 303 242
-0.021236373 0.75700003 -0.0026545466 1.4083177e-38 304 242
-0.019909101 0.75700003 -0.0026545466 1.4083177e-38 305 242
-0.018581826 0.75700003 -0.0026545466 1.4356893e-38 306 242
-0.017208965 0.755 -0.0026475333 1.398811e-38 307 242
-0.015885198 0.755 -0.0026475333 1.3711167e-38 308 242
-0.014561433 0.755 -0.0026475333 1.3527136e-38 309 242
-0.013237666 0.755 -0.0026475333 1.3250558e-38 310 242
-0.011913899 0.755 -0.0026475333 1.3066527e-38 311 242
-0.010590133 0.755 -0.0026475333 1.3156574e-38 312 242
-0.0092663663 0.755 -0.0026475333 1.2972183e-38 313 242
-0.0079425992 0.755 -0.0026475333 1.2971463e-38 314 242
-0.0066188332 0.755 -0.0026475333 1.2694517e-38 315 242
-0.0053090933 0.75700003 -0.0026545466 1.2419006e-38 316 242
-0.0039818203 0.75700003 -0.0026545466 1.2419006e-38 317 242
-0.0026545466 0.75700003 -0.0026545466 1.1868707e-38 318 242
-0.00133078 0.759 -0.00266156 1.1776509e-38 319 242
0 0.759 -0.00266156 1.1684308e-38 320 242
0.00133078 0.759 -0.00266156 1.1408082e-38 321 242
0.00266156 0.759 -0.00266156 1.1223687e-38 322 242
0.0039923396 0.759 -0.00266156 1.113149e-38 323 242
0.0053231199 0.759 -0.00266156 1.0948545e-38 324 242
0.0066714329 0.76099998 -0.0026685731 1.1040741e-38 325 242
0.0080057196 0.76099998 -0.0026685731 1.1224059e-38 326 242
0.0093400059 0.76099998 -0.0026685731 1.1131504e-38 327 242
0.010674292 0.76099998 -0.0026685731 1.0762728e-38 328 242
0.012008579 0.76099998 -0.0026685731 1.0670532e-38 329 242
0.013342866 0.76099998 -0.0026685731 1.0303191e-38 330 242
0.01469644 0.76200002 -0.00267208 1.0303191e-38 331 242
0.01603248 0.76200002 -0.00267208 1.011881e-38 332 242
0.01736852 0.76200002 -0.00267208 1.0395037e-38 333 242
0.01870456 0.76200002 -0.00267208 1.0303214e-38 334 242
0.020093199 0.764 -0.0026790933 1.0579801e-38 335 242
0.021488851 0.76599997 -0.0026861064 1.0122788e-38 336 242
0.022831906 0.76599997 -0.0026861064 1.0214984e-38 337 242
0.024174958 0.76599997 -0.0026861064 9.4835522e-39 338 242
0.025551327 0.76700002 -0.0026896133 1.354016e-38 339 242
-0.048791755 0.773 -0.0040659797 1.6776712e-38 284 243
-0.047436431 0.773 -0.0040659797 1.28123e-38 285 243
-0.046081103 0.773 -0.0040659797 1.4181875e-38 286 243
-0.044725779 0.773 -0.0040659797 1.4181875e-38 287 243
-0.043258239 0.77100003 -0.0040554604 1.4821095e-38 288 243
-0.041689005 0.76700002 -0.00403442 1.4636704e-38 289 243
-0.040344197 0.76700002 -0.00403442 1.4544486e-38 290 243
-0.038948543 0.76599997 -0.0040291594 1.445229e-38 291 243
-0.037507307 0.764 -0.0040186401 1.4634884e-38 292 243
-0.036167759 0.764 -0.0040186401 1.4634884e-38 293 243
-0.034737039 0.76200002 -0.0040081199 1.4817848e-38 294 243
-0.033357166 0.76099998 -0.0040028598 1.4817848e-38 295 243
-0.032022879 0.76099998 -0.0040028598 1.4725653e-38 296 243
-0.030688593 0.76099998 -0.0040028598 1.4725653e-38 297 243
-0.029354304 0.76099998 -0.0040028598 1.4539836e-38 298 243
-0.028020019 0.76099998 -0.0040028598 1.2972869e-38 299 243
-0.026615599 0.759 -0.0039923396 1.0950343e-38 300 243
-0.025284819 0.759 -0.0039923396 1.1871939e-38 301 243
-0.023954039 0.759 -0.0039923396 1.3067601e-38 302 243
-0.022563647 0.75700003 -0.0039818203 1.3805168e-38 303 243
-0.021236373 0.75700003 -0.0039818203 1.3805162e-38 304 243
-0.019909101 0.75700003 -0.0039818203 1.362077e-38 305 243
-0.018581826 0.75700003 -0.0039818203 1.3526783e-38 306 243
-0.017208965 0.755 -0.0039712996 1.3434587e-38 307 243
-0.015885198 0.755 -0.0039712996 1.3066883e-38 308 243
-0.014561433 0.755 -0.0039712996 1.2974328e-38 309 243
-0.013237666 0.755 -0.0039712996 1.2881417e-38 310 243
-0.011913899 0.755 -0.0039712996 1.2789221e-38 311 243
-0.010590133 0.755 -0.0039712996 1.287998e-38 312 243
-0.0092663663 0.755 -0.0039712996 1.2603753e-38 313 243
-0.0079425992 0.755 -0.0039712996 1.269487e-38 314 243
-0.0066188332 0.755 -0.0039712996 1.2602674e-38 315 243
-0.0053090933 0.75700003 -0.0039818203 1.2143496e-38 316 243
-0.0039818203 0.75700003 -0.0039818203 1.2051299e-38 317 243
-0.0026545466 0.75700003 -0.0039818203 1.1776507e-38 318 243
-0.00133078 0.759 -0.0039923396 1.1592115e-38 319 243
0 0.759 -0.0039923396 1.1316605e-38 320 243
0.00133078 0.759 -0.0039923396 1.1224409e-38 321 243
0.00266156 0.759 -0.0039923396 1.1131137e-38 322 243
0.0039923396 0.759 -0.0039923396 1.1038942e-38 323 243
0.0053231199 0.759 -0.0039923396 1.0855992e-38 324 243
0.0066714329 0.76099998 -0.0040028598 1.0855992e-38 325 243
0.0080057196 0.76099998 -0.0040028598 1.0855997e-38 326 243
0.0093400059 0.76099998 -0.0040028598 1.0579768e-38 327 243
0.010674292 0.76099998 -0.0040028598 1.0395021e-38 328 243
0.012008579 0.76099998 -0.0040028598 1.0302826e-38 329 243
0.013342866 0.76099998 -0.0040028598 9.9340458e-39 330 243
0.01469644 0.76200002 -0.0040081199 9.8418502e-39 331 243
0.01603248 0.76200002 -0.0040081199 1.0024812e-38 332 243
0.01736852 0.76200002 -0.0040081199 1.0209203e-38 333 243
0.018753653 0.764 -0.0040186401 1.0026977e-38 334 243
0.020093199 0.764 -0.0040186401 1.0211368e-38 335 243
0.021488851 0.76599997 -0.0040291594 9.8454768e-39 336 243
0.022831906 0.76599997 -0.0040291594 9.7532797e-39 337 243
0.024174958 0.76599997 -0.0040291594 9.1140494e-39 338 243
0.025617953 0.76899999 -0.0040449398 1.2985907e-38 339 243
-0.048791755 0.773 -0.0054213065 1.6777068e-38 284 244
-0.047436431 0.773 -0.0054213065 1.2627905e-38 285 244
-0.046081103 0.773 -0.0054213065 1.4457384e-38 286 244
-0.044725779 0.773 -0.0054213065 1.4457384e-38 287 244
-0.043258239 0.77100003 -0.0054072798 1.4546306e-38 288 244
-0.041689005 0.76700002 -0.0053792265 1.4361556e-38 289 244
-0.040344197 0.76700002 -0.0053792265 1.4452293e-38 290 244
-0.038948543 0.76599997 -0.0053722127 1.4360097e-38 291 244
-0.037507307 0.764 -0.0053581866 1.4542691e-38 292 244
-0.036167759 0.764 -0.0053581866 1.4542691e-38 293 244
-0.034737039 0.76200002 -0.0053441599 1.4542338e-38 294 244
-0.033357166 0.76099998 -0.0053371461 1.4450142e-38 295 244
-0.032022879 0.76099998 -0.0053371461 1.444942e-38 296 244
-0.030688593 0.76099998 -0.0053371461 1.4265028e-38 297 244
-0.029354304 0.76099998 -0.0053371461 1.3896265e-38 298 244
-0.027946379 0.759 -0.0053231199 1.251333e-38 299 244
-0.026615599 0.759 -0.0053231199 1.076488e-38 300 244
-0.025284819 0.759 -0.0053231199 1.1318052e-38 301 244
-0.023954039 0.759 -0.0053231199 1.2053098e-38 302 244
-0.022563647 0.75700003 -0.0053090933 1.2882498e-38 303 244
-0.021236373 0.75700003 -0.0053090933 1.3433507e-38 304 244
-0.019909101 0.75700003 -0.0053090933 1.3433507e-38 305 244
-0.018581826 0.75700003 -0.0053090933 1.3156924e-38 306 244
-0.017208965 0.755 -0.0052950666 1.3064729e-38 307 244
-0.015885198 0.755 -0.0052950666 1.2972533e-38 308 244
-0.014561433 0.755 -0.0052950666 1.2972533e-38 309 244
-0.013237666 0.755 -0.0052950666 1.2605544e-38 310 244
-0.011913899 0.755 -0.0052950666 1.2421513e-38 311 244
-0.010590133 0.755 -0.0052950666 1.2604107e-38 312 244
-0.0092663663 0.755 -0.0052950666 1.2419357e-38 313 244
-0.0079425992 0.755 -0.0052950666 1.2327167e-38 314 244
-0.0066188332 0.755 -0.0052950666 1.2142415e-38 315 244
-0.0053090933 0.75700003 -0.0053090933 1.1959106e-38 316 244
-0.0039818203 0.75700003 -0.0053090933 1.1959106e-38 317 244
-0.00266156 0.759 -0.0053231199 1.1591762e-38 318 244
-0.00133078 0.759 -0.0053231199 1.1315536e-38 319 244
0 0.759 -0.0053231199 1.0948192e-38 320 244
0.00133078 0.759 -0.0053231199 1.0855997e-38 321 244
0.00266156 0.759 -0.0053231199 1.0488292e-38 322 244
0.0039923396 0.759 -0.0053231199 1.0488292e-38 323 244
0.0053231199 0.759 -0.0053231199 1.0395737e-38 324 244
0.0066538998 0.759 -0.0053231199 1.0395737e-38 325 244
0.0079846792 0.759 -0.0053231199 1.011916e-38 326 244
0.0093400059 0.76099998 -0.0053371461 1.0026965e-38 327 244
0.010674292 0.76099998 -0.0053371461 9.8422159e-39 328 244
0.012008579 0.76099998 -0.0053371461 9.6578247e-39 329 244
0.013342866 0.76099998 -0.0053371461 9.3819609e-39 330 244
0.014677152 0.76099998 -0.0053371461 9.3819609e-39 331 244
0.01603248 0.76200002 -0.0053441599 9.3819637e-39 332 244
0.01736852 0.76200002 -0.0053441599 9.7507462e-39 333 244
0.018753653 0.764 -0.0053581866 9.5681542e-39 334 244
0.020093199 0.764 -0.0053581866 9.844381e-39 335 244
0.021488851 0.76599997 -0.0053722127 9.3866426e-39 336 244
0.022861714 0.76700002 -0.0053792265 9.2026115e-39 337 244
0.024206521 0.76700002 -0.0053792265 9.2962743e-39 338 244
0.025617953 0.76899999 -0.0053932532 1.2523121e-38 339 244
-0.050471451 0.778 -0.0068204664 1.7701576e-38 283 245
-0.04885488 0.77399999 -0.0067853997 1.6960378e-38 284 245
-0.047497798 0.77399999 -0.0067853997 1.2903769e-38 285 245
-0.046081103 0.773 -0.0067766332 1.445774e-38 286 245
-0.044725779 0.773 -0.0067766332 1.4181153e-38 287 245
-0.043258239 0.77100003 -0.0067590997 1.4546306e-38 288 245
-0.041797712 0.76899999 -0.0067415666 1.4085329e-38 289 245
-0.040344197 0.76700002 -0.006724033 1.4083883e-38 290 245
-0.038948543 0.76599997 -0.0067152665 1.3991688e-38 291 245
-0.037605491 0.76599997 -0.0067152665 1.4357596e-38 292 245
-0.036167759 0.764 -0.006697733 1.4357596e-38 293 245
-0.034737039 0.76200002 -0.0066801999 1.4357591e-38 294 245
-0.033357166 0.76099998 -0.0066714329 1.4173559e-38 295 245
-0.032022879 0.76099998 -0.0066714329 1.4265025e-38 296 245
-0.030688593 0.76099998 -0.0066714329 1.3896603e-38 297 245
-0.029354304 0.76099998 -0.0066714329 1.3801548e-38 298 245
-0.027946379 0.759 -0.0066538998 1.2603005e-38 299 245
-0.026615599 0.759 -0.0066538998 1.0855999e-38 300 245
-0.025284819 0.759 -0.0066538998 1.1132586e-38 301 245
-0.023954039 0.759 -0.0066538998 1.1408468e-38 302 245
-0.022563647 0.75700003 -0.0066363667 1.1685057e-38 303 245
-0.021236373 0.75700003 -0.0066363667 1.2420457e-38 304 245
-0.019909101 0.75700003 -0.0066363667 1.2696685e-38 305 245
-0.018581826 0.75700003 -0.0066363667 1.2604122e-38 306 245
-0.017208965 0.755 -0.0066188332 1.2511926e-38 307 245
-0.015885198 0.755 -0.0066188332 1.2603753e-38 308 245
-0.014561433 0.755 -0.0066188332 1.2787785e-38 309 245
-0.013237666 0.755 -0.0066188332 1.2328959e-38 310 245
-0.011913899 0.755 -0.0066188332 1.2236763e-38 311 245
-0.010590133 0.755 -0.0066188332 1.2052375e-38 312 245
-0.0092663663 0.755 -0.0066188332 1.1775788e-38 313 245
-0.0079425992 0.755 -0.0066188332 1.1775435e-38 314 245
-0.0066363667 0.75700003 -0.0066363667 1.1683239e-38 315 245
-0.0053090933 0.75700003 -0.0066363667 1.1591046e-38 316 245
-0.0039923396 0.759 -0.0066538998 1.1498851e-38 317 245
-0.00266156 0.759 -0.0066538998 1.113151e-38 318 245
-0.00133078 0.759 -0.0066538998 1.094712e-38 319 245
0 0.759 -0.0066538998 1.0580852e-38 320 245
0.00133078 0.759 -0.0066538998 1.0396819e-38 321 245
0.00266156 0.759 -0.0066538998 1.0212781e-38 322 245
0.0039923396 0.759 -0.0066538998 1.0212781e-38 323 245
0.0053231199 0.759 -0.0066538998 9.8443683e-39 324 245
0.0066538998 0.759 -0.0066538998 9.8443683e-39 325 245
0.0079846792 0.759 -0.0066538998 9.7511021e-39 326 245
0.0093400059 0.76099998 -0.0066714329 9.5663521e-39 327 245
0.010674292 0.76099998 -0.0066714329 9.4741593e-39 328 245
0.012008579 0.76099998 -0.0066714329 9.3819637e-39 329 245
0.013342866 0.76099998 -0.0066714329 9.1982927e-39 330 245
0.014677152 0.76099998 -0.0066714329 9.290847e-39 331 245
0.01603248 0.76200002 -0.0066801999 9.1990115e-39 332 245
0.01736852 0.76200002 -0.0066801999 9.3837615e-39 333 245
0.018753653 0.764 -0.006697733 9.0178643e-39 334 245
0.020093199 0.764 -0.006697733 9.1104187e-39 335 245
0.021432746 0.764 -0.006697733 9.2022584e-39 336 245
0.022831906 0.76599997 -0.0067152665 9.2022584e-39 337 245
0.024174958 0.76599997 -0.0067152665 9.1111599e-39 338 245
0.025551327 0.76700002 -0.006724033 1.187667e-38 339 245
-0.050471451 0.778 -0.0081845606 1.7793409e-38 283 246
-0.04885488 0.77399999 -0.0081424797 1.6777787e-38 284 246
-0.047497798 0.77399999 -0.0081424797 1.2813375e-38 285 246
-0.046081103 0.773 -0.0081319595 1.4181878e-38 286 246
-0.044610061 0.77100003 -0.0081109209 1.3628705e-38 287 246
-0.043258239 0.77100003 -0.0081109209 1.4177896e-38 288 246
-0.041797712 0.76899999 -0.0080898795 1.3624723e-38 289 246
-0.040344197 0.76700002 -0.00806884 1.4079933e-38 290 246
-0.038948543 0.76599997 -0.0080583189 1.3895902e-38 291 246
-0.037605491 0.76599997 -0.0080583189 1.4262877e-38 292 246
-0.036167759 0.764 -0.0080372803 1.4355072e-38 293 246
-0.034828212 0.764 -0.0080372803 1.4172466e-38 294 246
-0.033357166 0.76099998 -0.0080057196 1.4172466e-38 295 246
-0.032022879 0.76099998 -0.0080057196 1.4080265e-38 296 246
-0.030688593 0.76099998 -0.0080057196 1.3895873e-38 297 246
-0.029277159 0.759 -0.0079846792 1.3526756e-38 298 246
-0.027946379 0.759 -0.0079846792 1.2236018e-38 299 246
-0.026615599 0.759 -0.0079846792 1.067268e-38 300 246
-0.025218192 0.75700003 -0.0079636406 1.1041463e-38 301 246
-0.02389092 0.75700003 -0.0079636406 1.1315536e-38 302 246
-0.022504034 0.755 -0.0079425992 1.1591762e-38 303 246
-0.021180267 0.755 -0.0079425992 1.223532e-38 304 246
-0.019909101 0.75700003 -0.0079636406 1.2419712e-38 305 246
-0.018581826 0.75700003 -0.0079636406 1.2603022e-38 306 246
-0.017208965 0.755 -0.0079425992 1.2695576e-38 307 246
-0.015885198 0.755 -0.0079425992 1.2420784e-38 308 246
-0.014561433 0.755 -0.0079425992 1.2420784e-38 309 246
-0.013237666 0.755 -0.0079425992 1.2144555e-38 310 246
-0.011913899 0.755 -0.0079425992 1.2052358e-38 311 246
-0.010590133 0.755 -0.0079425992 1.1958734e-38 312 246
-0.0092663663 0.755 -0.0079425992 1.1958734e-38 313 246
-0.0079425992 0.755 -0.0079425992 1.1408082e-38 314 246
-0.0066363667 0.75700003 -0.0079636406 1.1408082e-38 315 246
-0.0053090933 0.75700003 -0.0079636406 1.1315533e-38 316 246
-0.0039923396 0.759 -0.0079846792 1.113114e-38 317 246
-0.00266156 0.759 -0.0079846792 1.113114e-38 318 246
-0.00133078 0.759 -0.0079846792 1.113114e-38 319 246
0 0.759 -0.0079846792 1.0580838e-38 320 246
0.00133078 0.759 -0.0079846792 1.0488642e-38 321 246
0.00266156 0.759 -0.0079846792 1.0029466e-38 322 246
0.0039923396 0.759 -0.0079846792 9.9372702e-39 323 246
0.0053231199 0.759 -0.0079846792 9.9358381e-39 324 246
0.0066538998 0.759 -0.0079846792 9.7518056e-39 325 246
0.0079846792 0.759 -0.0079846792 9.2007968e-39 326 246
0.00931546 0.759 -0.0079846792 9.2007968e-39 327 246
0.010674292 0.76099998 -0.0080057196 9.2911974e-39 328 246
0.012008579 0.76099998 -0.0080057196 9.1990017e-39 329 246
0.013342866 0.76099998 -0.0080057196 8.9235009e-39 330 246
0.01469644 0.76200002 -0.0080162399 8.9235009e-39 331 246
0.01603248 0.76200002 -0.0080162399 8.9224317e-39 332 246
0.01736852 0.76200002 -0.0080162399 9.1064628e-39 333 246
0.018753653 0.764 -0.0080372803 9.1986612e-39 334 246
0.020093199 0.764 -0.0080372803 9.3830525e-39 335 246
0.021432746 0.764 -0.0080372803 9.2926589e-39 336 246
0.022831906 0.76599997 -0.0080583189 9.3848545e-39 337 246
0.024174958 0.76599997 -0.0080583189 8.8363709e-39 338 246
0.025551327 0.76700002 -0.00806884 1.1140903e-38 339 246
-0.050341707 0.77600002 -0.009524107 1.7979237e-38 283 247
-0.04885488 0.77399999 -0.0094995592 1.7238039e-38 284 247
-0.047497798 0.77399999 -0.0094995592 1.2813009e-38 285 247
-0.046081103 0.773 -0.0094872871 1.4181153e-38 286 247
-0.044610061 0.77100003 -0.0094627403 1.3904566e-38 287 247
-0.043146025 0.76899999 -0.0094381925 1.4360487e-38 288 247
-0.041689005 0.76700002 -0.0094136465 1.3715118e-38 289 247
-0.040344197 0.76700002 -0.0094136465 1.3620757e-38 290 247
-0.038948543 0.76599997 -0.0094013726 1.3528561e-38 291 247
-0.037605491 0.76599997 -0.0094013726 1.3620754e-38 292 247
-0.036167759 0.764 -0.0093768267 1.3620754e-38 293 247
-0.034828212 0.764 -0.0093768267 1.3896252e-38 294 247
-0.033401001 0.76200002 -0.0093522798 1.3804057e-38 295 247
-0.032022879 0.76099998 -0.0093400059 1.3437066e-38 296 247
-0.030607941 0.759 -0.00931546 1.3252315e-38 297 247
-0.029277159 0.759 -0.00931546 1.3340928e-38 298 247
-0.027946379 0.759 -0.00931546 1.2971785e-38 299 247
-0.026615599 0.759 -0.00931546 1.2602656e-38 300 247
-0.025218192 0.75700003 -0.0092909131 1.2418264e-38 301 247
-0.02389092 0.75700003 -0.0092909131 1.1959804e-38 302 247
-0.022504034 0.755 -0.0092663663 1.2052358e-38 303 247
-0.021180267 0.755 -0.0092663663 1.1776863e-38 304 247
-0.0198565 0.755 -0.0092663663 1.1776863e-38 305 247
-0.018532733 0.755 -0.0092663663 1.177723e-38 306 247
-0.017208965 0.755 -0.0092663663 1.1869425e-38 307 247
-0.015885198 0.755 -0.0092663663 1.1961608e-38 308 247
-0.014561433 0.755 -0.0092663663 1.1961608e-38 309 247
-0.013237666 0.755 -0.0092663663 1.1960528e-38 310 247
-0.011913899 0.755 -0.0092663663 1.1683943e-38 311 247
-0.010590133 0.755 -0.0092663663 1.1774706e-38 312 247
-0.0092663663 0.755 -0.0092663663 1.1590675e-38 313 247
-0.0079425992 0.755 -0.0092663663 1.1591397e-38 314 247
-0.0066188332 0.755 -0.0092663663 1.1499201e-38 315 247
-0.0053090933 0.75700003 -0.0092909131 1.1406652e-38 316 247
-0.0039818203 0.75700003 -0.0092909131 1.1314457e-38 317 247
-0.00266156 0.759 -0.00931546 1.0855279e-38 318 247
