# .PCD v.7 - Point Cloud Data file format
FIELDS x y z rgb imX imY
SIZE 4 4 4 4 4 4
TYPE F F F F F F
COUNT 1 1 1 1 1 1
WIDTH 838
HEIGHT 1
VIEWPOINT 0 0 0 1 0 0 0
POINTS 838
DATA ascii
0.0024792133 0.70700002 -0.032229774 1.8323763e-38 322 266
0.0037135598 0.70599997 -0.032184184 1.8231566e-38 323 266
0.0049514128 0.70599997 -0.032184184 1.8230496e-38 324 266
0.0061717331 0.704 -0.032093015 1.8138301e-38 325 266
0.0074060797 0.704 -0.032093015 1.8137595e-38 326 266
0.0086281532 0.70300001 -0.032047424 1.7861368e-38 327 266
0.0098607466 0.70300001 -0.032047424 1.7861012e-38 328 266
0.01109334 0.70300001 -0.032047424 1.8045043e-38 329 266
0.012290866 0.70099998 -0.031956252 1.8413456e-38 330 266
0.013500666 0.69999999 -0.031910665 1.8413456e-38 331 266
0.014727999 0.69999999 -0.031910665 1.8320894e-38 332 266
0.015955333 0.69999999 -0.031910665 1.8228699e-38 333 266
0.017182667 0.69999999 -0.031910665 1.675642e-38 334 266
0.018409999 0.69999999 -0.031910665 1.4912508e-38 335 266
0.019581227 0.69800001 -0.031819493 1.3254086e-38 336 266
0.020805053 0.69800001 -0.031819493 1.2793115e-38 337 266
0.022091998 0.69999999 -0.031910665 1.2151012e-38 338 266
0.023252707 0.69800001 -0.031819493 1.2427599e-38 339 266
0.024476532 0.69800001 -0.031819493 1.2611997e-38 340 266
0.025700359 0.69800001 -0.031819493 1.3165171e-38 341 266
0.026924185 0.69800001 -0.031819493 1.4267571e-38 342 266
0.028148014 0.69800001 -0.031819493 1.5281723e-38 343 266
0.029371841 0.69800001 -0.031819493 1.5741992e-38 344 266
0.030595668 0.69800001 -0.031819493 1.5834188e-38 345 266
0.031910665 0.69999999 -0.031910665 1.5924919e-38 346 266
0.033137999 0.69999999 -0.031910665 1.5372104e-38 347 266
0.034365334 0.69999999 -0.031910665 1.5369947e-38 348 266
0.035592664 0.69999999 -0.031910665 1.5277752e-38 349 266
0.036819998 0.69999999 -0.031910665 1.4816792e-38 350 266
0.038047329 0.69999999 -0.031910665 1.4356174e-38 351 266
0.039274666 0.69999999 -0.031910665 1.4354749e-38 352 266
0.040559858 0.70099998 -0.031956252 1.453878e-38 353 266
0.041788943 0.70099998 -0.031956252 1.3897714e-38 354 266
0.043018032 0.70099998 -0.031956252 1.4173941e-38 355 266
0.044247117 0.70099998 -0.031956252 1.4267196e-38 356 266
0.04560595 0.70300001 -0.032047424 1.4451587e-38 357 266
0.046905171 0.704 -0.032093015 1.4541987e-38 358 266
0.048276275 0.70599997 -0.032184184 1.3712227e-38 359 266
0.04951413 0.70599997 -0.032184184 1.1879174e-38 360 266
-0.0062506334 0.713 -0.033753417 1.5303746e-38 315 267
-0.0050005065 0.713 -0.033753417 1.6854807e-38 316 267
-0.00372408 0.708 -0.033516716 1.6301633e-38 317 267
-0.00248272 0.708 -0.033516716 1.8415958e-38 318 267
-0.00124136 0.708 -0.033516716 1.8415958e-38 319 267
0 0.708 -0.033516716 1.814152e-38 320 267
0.0012378532 0.70599997 -0.033422034 1.7957488e-38 321 267
0.0024757064 0.70599997 -0.033422034 1.7957135e-38 322 267
0.0037030398 0.704 -0.03332736 1.7957135e-38 323 267
0.0049303733 0.70300001 -0.033280019 1.8047179e-38 324 267
0.0061629666 0.70300001 -0.033280019 1.7954983e-38 325 267
0.0073955595 0.70300001 -0.033280019 1.7953188e-38 326 267
0.0086036054 0.70099998 -0.03318534 1.8045384e-38 327 267
0.0098326923 0.70099998 -0.03318534 1.8044665e-38 328 267
0.011045999 0.69999999 -0.033137999 1.8228696e-38 329 267
0.012273333 0.69999999 -0.033137999 1.8321242e-38 330 267
0.013462093 0.69800001 -0.033043321 1.8413796e-38 331 267
0.01468592 0.69800001 -0.033043321 1.8230481e-38 332 267
0.015955333 0.69999999 -0.033137999 1.7861338e-38 333 267
0.017182667 0.69999999 -0.033137999 1.767586e-38 334 267
0.0183574 0.69800001 -0.033043321 1.6846098e-38 335 267
0.019581227 0.69800001 -0.033043321 1.6383322e-38 336 267
0.020775247 0.69700003 -0.03299598 1.5922345e-38 337 267
0.02199732 0.69700003 -0.03299598 1.4544842e-38 338 267
0.023252707 0.69800001 -0.033043321 1.5005461e-38 339 267
0.024476532 0.69800001 -0.033043321 1.500621e-38 340 267
0.025700359 0.69800001 -0.033043321 1.5559383e-38 341 267
0.026885614 0.69700003 -0.03299598 1.5466818e-38 342 267
0.028107686 0.69700003 -0.03299598 1.5282427e-38 343 267
0.02932976 0.69700003 -0.03299598 1.5559013e-38 344 267
0.030595668 0.69800001 -0.033043321 1.5559013e-38 345 267
0.031819493 0.69800001 -0.033043321 1.59242e-38 346 267
0.033043321 0.69800001 -0.033043321 1.5463221e-38 347 267
0.034267146 0.69800001 -0.033043321 1.5095156e-38 348 267
0.035490975 0.69800001 -0.033043321 1.4818929e-38 349 267
0.036819998 0.69999999 -0.033137999 1.4541985e-38 350 267
0.038047329 0.69999999 -0.033137999 1.4173562e-38 351 267
0.039274666 0.69999999 -0.033137999 1.3986294e-38 352 267
0.040559858 0.70099998 -0.03318534 1.3986294e-38 353 267
0.041788943 0.70099998 -0.03318534 1.2790638e-38 354 267
0.043018032 0.70099998 -0.03318534 1.2883192e-38 355 267
0.044247117 0.70099998 -0.03318534 1.3162663e-38 356 267
0.04560595 0.70300001 -0.033280019 1.343961e-38 357 267
0.046838548 0.70300001 -0.033280019 1.4538417e-38 358 267
0.048276275 0.70599997 -0.033422034 1.4630613e-38 359 267
0.04951413 0.70599997 -0.033422034 1.288145e-38 360 267
0.050751984 0.70599997 -0.033422034 1.4909754e-38 361 267
0.051989835 0.70599997 -0.033422034 1.2262747e-38 362 267
-0.00753232 0.71600002 -0.035150826 1.7424939e-38 314 268
-0.0062506334 0.713 -0.035003547 1.3736754e-38 315 268
-0.0050005065 0.713 -0.035003547 1.7311797e-38 316 268
-0.0037398601 0.71100003 -0.034905359 1.7680939e-38 317 268
-0.00248272 0.708 -0.034758076 1.8234066e-38 318 268
-0.00124136 0.708 -0.034758076 1.814187e-38 319 268
0 0.70700002 -0.034708988 1.8233703e-38 320 268
0.0012378532 0.70599997 -0.034659892 1.8233703e-38 321 268
0.0024686933 0.704 -0.034561705 1.8140798e-38 322 268
0.0037030398 0.704 -0.034561705 1.8140798e-38 323 268
0.0049303733 0.70300001 -0.034512613 1.8231197e-38 324 268
0.0061454331 0.70099998 -0.034414422 1.8046806e-38 325 268
0.0073745195 0.70099998 -0.034414422 1.7953185e-38 326 268
0.0085913334 0.69999999 -0.034365334 1.7860988e-38 327 268
0.0098186666 0.69999999 -0.034365334 1.7952113e-38 328 268
0.011045999 0.69999999 -0.034365334 1.8228699e-38 329 268
0.012238266 0.69800001 -0.034267146 1.8230131e-38 330 268
0.013462093 0.69800001 -0.034267146 1.8230131e-38 331 268
0.01468592 0.69800001 -0.034267146 1.8229049e-38 332 268
0.015909746 0.69800001 -0.034267146 1.7860266e-38 333 268
0.017133573 0.69800001 -0.034267146 1.7309967e-38 334 268
0.018331099 0.69700003 -0.034218054 1.7125575e-38 335 268
0.019525118 0.69599998 -0.034168959 1.6755361e-38 336 268
0.020745439 0.69599998 -0.034168959 1.6479134e-38 337 268
0.021965759 0.69599998 -0.034168959 1.5924906e-38 338 268
0.023186078 0.69599998 -0.034168959 1.5924906e-38 339 268
0.0244064 0.69599998 -0.034168959 1.574196e-38 340 268
0.025626717 0.69599998 -0.034168959 1.5925991e-38 341 268
0.026769891 0.69400001 -0.034070771 1.555686e-38 342 268
0.027986705 0.69400001 -0.034070771 1.5464664e-38 343 268
0.029287677 0.69599998 -0.034168959 1.5188818e-38 344 268
0.030551834 0.69700003 -0.034218054 1.5188818e-38 345 268
0.03177391 0.69700003 -0.034218054 1.5371395e-38 346 268
0.03299598 0.69700003 -0.034218054 1.5187004e-38 347 268
0.034218054 0.69700003 -0.034218054 1.5094793e-38 348 268
0.035440128 0.69700003 -0.034218054 1.4817846e-38 349 268
0.0367148 0.69800001 -0.034267146 1.4725287e-38 350 268
0.037938625 0.69800001 -0.034267146 1.4264309e-38 351 268
0.039274666 0.69999999 -0.034365334 1.3987016e-38 352 268
0.040502001 0.69999999 -0.034365334 1.3618233e-38 353 268
0.041729331 0.69999999 -0.034365334 1.3157643e-38 354 268
0.042956665 0.69999999 -0.034365334 1.3157643e-38 355 268
0.044247117 0.70099998 -0.034414422 1.297578e-38 356 268
0.045476202 0.70099998 -0.034414422 1.3344202e-38 357 268
0.046838548 0.70300001 -0.034512613 1.3710111e-38 358 268
0.048139516 0.704 -0.034561705 1.3802665e-38 359 268
0.04951413 0.70599997 -0.034659892 1.3434956e-38 360 268
0.050751984 0.70599997 -0.034659892 1.3066174e-38 361 268
0.05206348 0.70700002 -0.034708988 1.0502724e-38 362 268
0.053303085 0.70700002 -0.034708988 1.4651527e-38 363 268
-0.00753232 0.71600002 -0.036406212 1.7415556e-38 314 269
-0.0062593995 0.71399999 -0.036304519 1.4834078e-38 315 269
-0.0050005065 0.713 -0.036253672 1.8141169e-38 316 269
-0.00372408 0.708 -0.03599944 1.8233365e-38 317 269
-0.0024792133 0.70700002 -0.035948593 1.8326267e-38 318 269
-0.0012396066 0.70700002 -0.035948593 1.8326267e-38 319 269
0 0.70599997 -0.035897743 1.8326264e-38 320 269
0.0012343467 0.704 -0.035796054 1.8234068e-38 321 269
0.0024686933 0.704 -0.035796054 1.8233349e-38 322 269
0.0036977797 0.70300001 -0.035745207 1.8141154e-38 323 269
0.0049163462 0.70099998 -0.035643511 1.8139001e-38 324 269
0.0061366665 0.69999999 -0.035592664 1.7862775e-38 325 269
0.0073639993 0.69999999 -0.035592664 1.8136133e-38 326 269
0.0085667865 0.69800001 -0.035490975 1.8136133e-38 327 269
0.0097906133 0.69800001 -0.035490975 1.7859919e-38 328 269
0.01101444 0.69800001 -0.035490975 1.8228343e-38 329 269
0.012220734 0.69700003 -0.035440128 1.8320541e-38 330 269
0.013442807 0.69700003 -0.035440128 1.8228345e-38 331 269
0.014643839 0.69599998 -0.035389278 1.7952119e-38 332 269
0.015864158 0.69599998 -0.035389278 1.7859563e-38 333 269
0.017109027 0.69700003 -0.035440128 1.7401109e-38 334 269
0.018304799 0.69599998 -0.035389278 1.7216717e-38 335 269
0.019469013 0.69400001 -0.035287585 1.6848658e-38 336 269
0.020685827 0.69400001 -0.035287585 1.6756462e-38 337 269
0.021902639 0.69400001 -0.035287585 1.6845784e-38 338 269
0.023119451 0.69400001 -0.035287585 1.6661392e-38 339 269
0.024336265 0.69400001 -0.035287585 1.6017471e-38 340 269
0.025553079 0.69400001 -0.035287585 1.5740525e-38 341 269
0.026769891 0.69400001 -0.035287585 1.5555066e-38 342 269
0.027986705 0.69400001 -0.035287585 1.5462512e-38 343 269
0.029203519 0.69400001 -0.035287585 1.5186653e-38 344 269
0.030420333 0.69400001 -0.035287585 1.5186653e-38 345 269
0.031637147 0.69400001 -0.035287585 1.5186288e-38 346 269
0.032948639 0.69599998 -0.035389278 1.5001538e-38 347 269
0.034168959 0.69599998 -0.035389278 1.4908975e-38 348 269
0.035440128 0.69700003 -0.035440128 1.4632388e-38 349 269
0.0367148 0.69800001 -0.035490975 1.4356157e-38 350 269
0.037938625 0.69800001 -0.035490975 1.4263603e-38 351 269
0.039162453 0.69800001 -0.035490975 1.3987016e-38 352 269
0.040386278 0.69800001 -0.035490975 1.3710788e-38 353 269
0.041729331 0.69999999 -0.035592664 1.3249826e-38 354 269
0.042956665 0.69999999 -0.035592664 1.3249826e-38 355 269
0.044183996 0.69999999 -0.035592664 1.3250914e-38 356 269
0.045476202 0.70099998 -0.035643511 1.3343111e-38 357 269
0.046705291 0.70099998 -0.035643511 1.3434585e-38 358 269
0.048139516 0.704 -0.035796054 1.3342388e-38 359 269
0.049373865 0.704 -0.035796054 1.334276e-38 360 269
0.050751984 0.70599997 -0.035897743 1.3250563e-38 361 269
0.051989835 0.70599997 -0.035897743 1.0310053e-38 362 269
0.053227689 0.70599997 -0.035897743 1.270714e-38 363 269
0.054465543 0.70599997 -0.035897743 1.3277988e-38 364 269
-0.010043093 0.71600002 -0.037661601 1.9085567e-38 312 270
-0.0087877065 0.71600002 -0.037661601 1.5305548e-38 313 270
-0.0075112795 0.71399999 -0.037556399 1.7042072e-38 314 270
-0.0062506334 0.713 -0.037503798 1.6211953e-38 315 270
-0.0049864799 0.71100003 -0.037398599 1.8233715e-38 316 270
-0.00372408 0.708 -0.0372408 1.8325911e-38 317 270
-0.0024792133 0.70700002 -0.037188202 1.8142601e-38 318 270
-0.0012396066 0.70700002 -0.037188202 1.8326633e-38 319 270
0 0.70599997 -0.037135597 1.8601777e-38 320 270
0.0012343467 0.704 -0.037030395 1.8509582e-38 321 270
0.0024651866 0.70300001 -0.036977798 1.8325545e-38 322 270
0.0036872597 0.70099998 -0.036872596 1.8141154e-38 323 270
0.0049093333 0.69999999 -0.036819998 1.8046453e-38 324 270
0.0061366665 0.69999999 -0.036819998 1.7862422e-38 325 270
0.0073429602 0.69800001 -0.0367148 1.7952119e-38 326 270
0.0085545136 0.69700003 -0.036662199 1.7859563e-38 327 270
0.0097625591 0.69599998 -0.036609598 1.7767739e-38 328 270
0.010982879 0.69599998 -0.036609598 1.7859936e-38 329 270
0.012168133 0.69400001 -0.036504399 1.8043608e-38 330 270
0.013384946 0.69400001 -0.036504399 1.7951412e-38 331 270
0.014580719 0.69300002 -0.036451802 1.7950329e-38 332 270
0.015795778 0.69300002 -0.036451802 1.7950329e-38 333 270
0.017035386 0.69400001 -0.036504399 1.7216367e-38 334 270
0.0182522 0.69400001 -0.036504399 1.7123813e-38 335 270
0.019469013 0.69400001 -0.036504399 1.7030545e-38 336 270
0.020656019 0.69300002 -0.036451802 1.6846152e-38 337 270
0.021871079 0.69300002 -0.036451802 1.6570642e-38 338 270
0.02308614 0.69300002 -0.036451802 1.6478446e-38 339 270
0.024301201 0.69300002 -0.036451802 1.6200433e-38 340 270
0.02551626 0.69300002 -0.036451802 1.564726e-38 341 270
0.02673132 0.69300002 -0.036451802 1.5371401e-38 342 270
0.027946379 0.69300002 -0.036451802 1.5278846e-38 343 270
0.029161438 0.69300002 -0.036451802 1.4728196e-38 344 270
0.030420333 0.69400001 -0.036504399 1.4543805e-38 345 270
0.031637147 0.69400001 -0.036504399 1.4817875e-38 346 270
0.032853961 0.69400001 -0.036504399 1.4541287e-38 347 270
0.034070771 0.69400001 -0.036504399 1.4539483e-38 348 270
0.035287585 0.69400001 -0.036504399 1.4355451e-38 349 270
0.036504399 0.69400001 -0.036504399 1.4171054e-38 350 270
0.037884273 0.69700003 -0.036662199 1.4078858e-38 351 270
0.039106347 0.69700003 -0.036662199 1.3711152e-38 352 270
0.040328421 0.69700003 -0.036662199 1.3618955e-38 353 270
0.041610107 0.69800001 -0.0367148 1.3249826e-38 354 270
0.042833932 0.69800001 -0.0367148 1.3249826e-38 355 270
0.044183996 0.69999999 -0.036819998 1.306688e-38 356 270
0.04541133 0.69999999 -0.036819998 1.3343108e-38 357 270
0.046638668 0.69999999 -0.036819998 1.3343108e-38 358 270
0.047934376 0.70099998 -0.036872596 1.3343108e-38 359 270
0.049303733 0.70300001 -0.036977798 1.2791384e-38 360 270
0.050608214 0.704 -0.037030395 1.2606993e-38 361 270
0.051842559 0.704 -0.037030395 1.1318066e-38 362 270
0.053227689 0.70599997 -0.037135597 1.0949643e-38 363 270
0.054465543 0.70599997 -0.037135597 9.222437e-39 364 270
-0.01129848 0.71600002 -0.038916986 1.9177061e-38 311 271
-0.01001504 0.71399999 -0.038808275 1.8256489e-38 312 271
-0.0087631596 0.71399999 -0.038808275 1.3646708e-38 313 271
-0.0075112795 0.71399999 -0.038808275 1.7130287e-38 314 271
-0.0062506334 0.713 -0.038753927 1.7498709e-38 315 271
-0.0049864799 0.71100003 -0.038645219 1.795822e-38 316 271
-0.00372408 0.708 -0.038482159 1.8050416e-38 317 271
-0.0024757064 0.70599997 -0.038373452 1.8050421e-38 318 271
-0.0012378532 0.70599997 -0.038373452 1.8050421e-38 319 271
0 0.704 -0.038264744 1.8325932e-38 320 271
0.0012325933 0.70300001 -0.038210396 1.8510325e-38 321 271
0.0024581731 0.70099998 -0.038101684 1.8233368e-38 322 271
0.0036819996 0.69999999 -0.038047329 1.7956782e-38 323 271
0.0049093333 0.69999999 -0.038047329 1.7954986e-38 324 271
0.006119133 0.69800001 -0.037938625 1.7770236e-38 325 271
0.0073219193 0.69599998 -0.037829921 1.7860289e-38 326 271
0.0085422397 0.69599998 -0.037829921 1.7767733e-38 327 271
0.0097625591 0.69599998 -0.037829921 1.7767386e-38 328 271
0.01095132 0.69400001 -0.037721213 1.7767386e-38 329 271
0.012168133 0.69400001 -0.037721213 1.7491525e-38 330 271
0.01336566 0.69300002 -0.037666857 1.7491525e-38 331 271
0.014580719 0.69300002 -0.037666857 1.7490803e-38 332 271
0.015795778 0.69300002 -0.037666857 1.7582998e-38 333 271
0.01701084 0.69300002 -0.037666857 1.694015e-38 334 271
0.018225901 0.69300002 -0.037666857 1.6755759e-38 335 271
0.01944096 0.69300002 -0.037666857 1.666321e-38 336 271
0.020656019 0.69300002 -0.037666857 1.6571013e-38 337 271
0.021871079 0.69300002 -0.037666857 1.6295146e-38 338 271
0.02308614 0.69300002 -0.037666857 1.6202951e-38 339 271
0.024301201 0.69300002 -0.037666857 1.6200433e-38 340 271
0.02551626 0.69300002 -0.037666857 1.5831651e-38 341 271
0.02673132 0.69300002 -0.037666857 1.5463948e-38 342 271
0.027946379 0.69300002 -0.037666857 1.5463948e-38 343 271
0.029161438 0.69300002 -0.037666857 1.4821098e-38 344 271
0.0303765 0.69300002 -0.037666857 1.4544152e-38 345 271
0.031591557 0.69300002 -0.037666857 1.4450167e-38 346 271
0.03280662 0.69300002 -0.037666857 1.4173222e-38 347 271
0.034021679 0.69300002 -0.037666857 1.4355455e-38 348 271
0.035287585 0.69400001 -0.037721213 1.4078508e-38 349 271
0.036504399 0.69400001 -0.037721213 1.3803353e-38 350 271
0.037721213 0.69400001 -0.037721213 1.3710799e-38 351 271
0.039106347 0.69700003 -0.037884273 1.3526403e-38 352 271
0.040328421 0.69700003 -0.037884273 1.3526403e-38 353 271
0.041610107 0.69800001 -0.037938625 1.3067233e-38 354 271
0.042833932 0.69800001 -0.037938625 1.2975037e-38 355 271
0.04405776 0.69800001 -0.037938625 1.2791738e-38 356 271
0.045281585 0.69800001 -0.037938625 1.2791738e-38 357 271
0.046638668 0.69999999 -0.038047329 1.297505e-38 358 271
0.047934376 0.70099998 -0.038101684 1.297505e-38 359 271
0.049163464 0.70099998 -0.038101684 1.2514442e-38 360 271
0.050536323 0.70300001 -0.038210396 1.2238214e-38 361 271
0.051768921 0.70300001 -0.038210396 1.1778677e-38 362 271
0.053076904 0.704 -0.038264744 1.0948558e-38 363 271
0.054311249 0.704 -0.038264744 7.9237655e-39 364 271
0.055545598 0.704 -0.038264744 1.2810135e-38 365 271
0.056779943 0.704 -0.038264744 1.4848556e-38 366 271
-0.01129848 0.71600002 -0.040172372 1.8069988e-38 311 272
-0.010043093 0.71600002 -0.040172372 1.7422743e-38 312 272
-0.0087631596 0.71399999 -0.040060159 1.3735277e-38 313 272
-0.0075007593 0.713 -0.040004052 1.7405046e-38 314 272
-0.0062506334 0.713 -0.040004052 1.7774189e-38 315 272
-0.0049864799 0.71100003 -0.039891839 1.805005e-38 316 272
-0.0037135598 0.70599997 -0.039611302 1.7957854e-38 317 272
-0.0024757064 0.70599997 -0.039611302 1.7956785e-38 318 272
-0.0012343467 0.704 -0.039499093 1.7679838e-38 319 272
0 0.70300001 -0.039442986 1.795787e-38 320 272
0.0012290865 0.70099998 -0.039330769 1.8050065e-38 321 272
0.0024546667 0.69999999 -0.039274666 1.81401e-38 322 272
0.0036819996 0.69999999 -0.039274666 1.8047903e-38 323 272
0.0048953067 0.69800001 -0.039162453 1.7862081e-38 324 272
0.0061103669 0.69700003 -0.039106347 1.7769885e-38 325 272
0.0073219193 0.69599998 -0.039050236 1.7677337e-38 326 272
0.0085422397 0.69599998 -0.039050236 1.7585141e-38 327 272
0.0097625591 0.69599998 -0.039050236 1.7491153e-38 328 272
0.01095132 0.69400001 -0.038938027 1.7491153e-38 329 272
0.012168133 0.69400001 -0.038938027 1.7490803e-38 330 272
0.01336566 0.69300002 -0.03888192 1.7306412e-38 331 272
0.014580719 0.69300002 -0.03888192 1.7306056e-38 332 272
0.015795778 0.69300002 -0.03888192 1.739861e-38 333 272
0.01701084 0.69300002 -0.03888192 1.6939071e-38 334 272
0.018225901 0.69300002 -0.03888192 1.675504e-38 335 272
0.01944096 0.69300002 -0.03888192 1.6570657e-38 336 272
0.020656019 0.69300002 -0.03888192 1.6386626e-38 337 272
0.021871079 0.69300002 -0.03888192 1.6387348e-38 338 272
0.02308614 0.69300002 -0.03888192 1.6294793e-38 339 272
0.024301201 0.69300002 -0.03888192 1.6109683e-38 340 272
0.02551626 0.69300002 -0.03888192 1.592529e-38 341 272
0.026654173 0.69099998 -0.038769703 1.5282073e-38 342 272
0.027865725 0.69099998 -0.038769703 1.4913291e-38 343 272
0.029077278 0.69099998 -0.038769703 1.4911496e-38 344 272
0.0303765 0.69300002 -0.03888192 1.4634549e-38 345 272
0.031500384 0.69099998 -0.038769703 1.435689e-38 346 272
0.032711938 0.69099998 -0.038769703 1.4080662e-38 347 272
0.034021679 0.69300002 -0.03888192 1.4171057e-38 348 272
0.035236739 0.69300002 -0.03888192 1.3986665e-38 349 272
0.036451802 0.69300002 -0.03888192 1.3711152e-38 350 272
0.037721213 0.69400001 -0.038938027 1.3618955e-38 351 272
0.039106347 0.69700003 -0.039106347 1.3343091e-38 352 272
0.040328421 0.69700003 -0.039106347 1.3343091e-38 353 272
0.041550495 0.69700003 -0.039106347 1.2883205e-38 354 272
0.042833932 0.69800001 -0.039162453 1.2606978e-38 355 272
0.04405776 0.69800001 -0.039162453 1.2606988e-38 356 272
0.045281585 0.69800001 -0.039162453 1.2606988e-38 357 272
0.046505414 0.69800001 -0.039162453 1.2698823e-38 358 272
0.047729239 0.69800001 -0.039162453 1.2606627e-38 359 272
0.049093332 0.69999999 -0.039274666 1.2420807e-38 360 272
0.050392549 0.70099998 -0.039330769 1.2328611e-38 361 272
0.051621638 0.70099998 -0.039330769 1.1687558e-38 362 272
0.052850723 0.70099998 -0.039330769 1.1687558e-38 363 272
0.054311249 0.704 -0.039499093 1.0768511e-38 364 272
0.055545598 0.704 -0.039499093 1.1598271e-38 365 272
0.056779943 0.704 -0.039499093 1.162278e-38 366 272
0.058014292 0.704 -0.039499093 1.7154877e-38 367 272
-0.011266919 0.71399999 -0.041312039 1.6504093e-38 311 273
-0.01001504 0.71399999 -0.041312039 1.6860569e-38 312 273
-0.0087631596 0.71399999 -0.041312039 1.5201046e-38 313 273
-0.0075007593 0.713 -0.041254178 1.7405402e-38 314 273
-0.0062330998 0.71100003 -0.041138459 1.768199e-38 315 273
-0.0049794666 0.70999998 -0.041080594 1.7682712e-38 316 273
-0.0037135598 0.70599997 -0.040849157 1.7590516e-38 317 273
-0.0024686933 0.704 -0.040733438 1.740398e-38 318 273
-0.0012343467 0.704 -0.040733438 1.740398e-38 319 273
0 0.70099998 -0.040559858 1.7588744e-38 320 273
0.0012273333 0.69999999 -0.040502001 1.7773135e-38 321 273
0.0024476533 0.69800001 -0.040386278 1.7863533e-38 322 273
0.00366622 0.69700003 -0.040328421 1.767914e-38 323 273
0.0048882933 0.69700003 -0.040328421 1.7494746e-38 324 273
0.0061015999 0.69599998 -0.040270556 1.7218161e-38 325 273
0.0073219193 0.69599998 -0.040270556 1.7584068e-38 326 273
0.0085176928 0.69400001 -0.040154841 1.7491872e-38 327 273
0.0097345067 0.69400001 -0.040154841 1.7399323e-38 328 273
0.01095132 0.69400001 -0.040154841 1.7215292e-38 329 273
0.012150601 0.69300002 -0.04009698 1.7031267e-38 330 273
0.01336566 0.69300002 -0.04009698 1.6939071e-38 331 273
0.014580719 0.69300002 -0.04009698 1.6662139e-38 332 273
0.015795778 0.69300002 -0.04009698 1.6662139e-38 333 273
0.01701084 0.69300002 -0.04009698 1.6202973e-38 334 273
0.018225901 0.69300002 -0.04009698 1.6202973e-38 335 273
0.019384852 0.69099998 -0.039981257 1.5650522e-38 336 273
0.020596405 0.69099998 -0.039981257 1.5742718e-38 337 273
0.021807959 0.69099998 -0.039981257 1.5651592e-38 338 273
0.023019511 0.69099998 -0.039981257 1.5744146e-38 339 273
0.024231065 0.69099998 -0.039981257 1.6110039e-38 340 273
0.025442619 0.69099998 -0.039981257 1.5649061e-38 341 273
0.026654173 0.69099998 -0.039981257 1.5371398e-38 342 273
0.027865725 0.69099998 -0.039981257 1.5002257e-38 343 273
0.029077278 0.69099998 -0.039981257 1.4633482e-38 344 273
0.030288832 0.69099998 -0.039981257 1.4356537e-38 345 273
0.031500384 0.69099998 -0.039981257 1.389628e-38 346 273
0.032711938 0.69099998 -0.039981257 1.389628e-38 347 273
0.033923492 0.69099998 -0.039981257 1.3527852e-38 348 273
0.035135046 0.69099998 -0.039981257 1.3527852e-38 349 273
0.036346599 0.69099998 -0.039981257 1.3618606e-38 350 273
0.037666857 0.69300002 -0.04009698 1.3526409e-38 351 273
0.038938027 0.69400001 -0.040154841 1.3250545e-38 352 273
0.040154841 0.69400001 -0.040154841 1.315835e-38 353 273
0.041490879 0.69599998 -0.040270556 1.269882e-38 354 273
0.042772565 0.69700003 -0.040328421 1.269882e-38 355 273
0.043994639 0.69700003 -0.040328421 1.2332201e-38 356 273
0.045216713 0.69700003 -0.040328421 1.214817e-38 357 273
0.046438783 0.69700003 -0.040328421 1.2238931e-38 358 273
0.047729239 0.69800001 -0.040386278 1.2146734e-38 359 273
0.049093332 0.69999999 -0.040502001 1.187087e-38 360 273
0.050320663 0.69999999 -0.040502001 1.187087e-38 361 273
0.051621638 0.70099998 -0.040559858 1.1688281e-38 362 273
0.052850723 0.70099998 -0.040559858 1.1872672e-38 363 273
0.054311249 0.704 -0.040733438 1.1322385e-38 364 273
0.055545598 0.704 -0.040733438 1.0031646e-38 365 273
0.056941248 0.70599997 -0.040849157 8.4830671e-39 366 273
0.058179103 0.70599997 -0.040849157 1.6135665e-38 367 273
-0.011266919 0.71399999 -0.042563915 1.4844197e-38 311 274
-0.01001504 0.71399999 -0.042563915 1.6487095e-38 312 274
-0.0087508867 0.713 -0.042504307 1.6487095e-38 313 274
-0.0074797203 0.71100003 -0.042385083 1.7680544e-38 314 274
-0.0062243328 0.70999998 -0.042325463 1.7680544e-38 315 274
-0.0049584266 0.70700002 -0.042146627 1.7589052e-38 316 274
-0.0037135598 0.70599997 -0.042087011 1.7312467e-38 317 274
-0.0024686933 0.704 -0.041967787 1.7219569e-38 318 274
-0.0012325933 0.70300001 -0.041908171 1.7495797e-38 319 274
0 0.69999999 -0.041729331 1.7679488e-38 320 274
0.0012238267 0.69800001 -0.041610107 1.7956435e-38 321 274
0.0024476533 0.69800001 -0.041610107 1.786245e-38 322 274
0.00366622 0.69700003 -0.041550495 1.7586223e-38 323 274
0.0048812795 0.69599998 -0.041490879 1.7584438e-38 324 274
0.0061015999 0.69599998 -0.041490879 1.7584438e-38 325 274
0.0073219193 0.69599998 -0.041490879 1.7308212e-38 326 274
0.0085176928 0.69400001 -0.041371655 1.7215658e-38 327 274
0.0097345067 0.69400001 -0.041371655 1.7215295e-38 328 274
0.01095132 0.69400001 -0.041371655 1.7123099e-38 329 274
0.012150601 0.69300002 -0.041312039 1.6937982e-38 330 274
0.01336566 0.69300002 -0.041312039 1.6661395e-38 331 274
0.014580719 0.69300002 -0.041312039 1.6659973e-38 332 274
0.015795778 0.69300002 -0.041312039 1.6659973e-38 333 274
0.01701084 0.69300002 -0.041312039 1.5924584e-38 334 274
0.0181733 0.69099998 -0.041192811 1.5740553e-38 335 274
0.019356798 0.69 -0.041133199 1.5646922e-38 336 274
0.020566599 0.69 -0.041133199 1.5831672e-38 337 274
0.021776399 0.69 -0.041133199 1.5833825e-38 338 274
0.022986198 0.69 -0.041133199 1.592602e-38 339 274
0.024195999 0.69 -0.041133199 1.6016764e-38 340 274
0.025405798 0.69 -0.041133199 1.5279199e-38 341 274
0.026615599 0.69 -0.041133199 1.5277404e-38 342 274
0.027825398 0.69 -0.041133199 1.4816426e-38 343 274
0.029077278 0.69099998 -0.041192811 1.4355451e-38 344 274
0.030288832 0.69099998 -0.041192811 1.417106e-38 345 274
0.031454802 0.69 -0.041133199 1.3803716e-38 346 274
0.032664597 0.69 -0.041133199 1.3527489e-38 347 274
0.0338744 0.69 -0.041133199 1.3527489e-38 348 274
0.035084199 0.69 -0.041133199 1.3435294e-38 349 274
0.036346599 0.69099998 -0.041192811 1.3434211e-38 350 274
0.037666857 0.69300002 -0.041312039 1.3434211e-38 351 274
0.03888192 0.69300002 -0.041312039 1.306723e-38 352 274
0.040154841 0.69400001 -0.041371655 1.2975034e-38 353 274
0.041371655 0.69400001 -0.041371655 1.2516224e-38 354 274
0.042711195 0.69599998 -0.041490879 1.2516224e-38 355 274
0.043931518 0.69599998 -0.041490879 1.2241079e-38 356 274
0.045216713 0.69700003 -0.041550495 1.2056688e-38 357 274
0.046438783 0.69700003 -0.041550495 1.2056688e-38 358 274
0.047729239 0.69800001 -0.041610107 1.1872295e-38 359 274
0.049093332 0.69999999 -0.041729331 1.1688627e-38 360 274
0.050320663 0.69999999 -0.041729331 1.1688627e-38 361 274
0.051621638 0.70099998 -0.041788943 1.1688274e-38 362 274
0.052850723 0.70099998 -0.041788943 1.178083e-38 363 274
0.054311249 0.704 -0.041967787 1.1781195e-38 364 274
0.055703394 0.70599997 -0.042087011 1.021423e-38 365 274
0.056941248 0.70599997 -0.042087011 9.1158431e-39 366 274
0.058179103 0.70599997 -0.042087011 1.5661733e-38 367 274
-0.012518799 0.71399999 -0.043815799 1.7977034e-38 310 275
-0.011266919 0.71399999 -0.043815799 1.4381404e-38 311 275
-0.010001013 0.713 -0.043754432 1.6485286e-38 312 275
-0.0087263398 0.71100003 -0.043631699 1.6761873e-38 313 275
-0.0074691991 0.70999998 -0.043570329 1.7312132e-38 314 275
-0.0061980332 0.70700002 -0.043386232 1.7219936e-38 315 275
-0.0049514128 0.70599997 -0.043324865 1.7127721e-38 316 275
-0.0037030398 0.704 -0.043202132 1.694333e-38 317 275
-0.0024686933 0.704 -0.043202132 1.6851512e-38 318 275
-0.0012290865 0.70099998 -0.043018032 1.7127739e-38 319 275
0 0.69999999 -0.042956665 1.7310006e-38 320 275
0.0012238267 0.69800001 -0.042833932 1.7586591e-38 321 275
0.0024441467 0.69700003 -0.042772565 1.7493321e-38 322 275
0.0036609597 0.69599998 -0.042711195 1.7401125e-38 323 275
0.0048812795 0.69599998 -0.042711195 1.7308577e-38 324 275
0.0061015999 0.69599998 -0.042711195 1.7308577e-38 325 275
0.0073008798 0.69400001 -0.042588469 1.7308577e-38 326 275
0.0085176928 0.69400001 -0.042588469 1.6940153e-38 327 275
0.0097204801 0.69300002 -0.042527102 1.666356e-38 328 275
0.010935539 0.69300002 -0.042527102 1.5925994e-38 329 275
0.012150601 0.69300002 -0.042527102 1.5465014e-38 330 275
0.01336566 0.69300002 -0.042527102 1.5465014e-38 331 275
0.014538639 0.69099998 -0.042404365 1.5832373e-38 332 275
0.015727401 0.69 -0.042342998 1.5832373e-38 333 275
0.0169372 0.69 -0.042342998 1.5555806e-38 334 275
0.018146999 0.69 -0.042342998 1.546361e-38 335 275
0.019356798 0.69 -0.042342998 1.5463963e-38 336 275
0.020566599 0.69 -0.042342998 1.592494e-38 337 275
0.021776399 0.69 -0.042342998 1.5651582e-38 338 275
0.022986198 0.69 -0.042342998 1.546683e-38 339 275
0.024195999 0.69 -0.042342998 1.5464664e-38 340 275
0.025405798 0.69 -0.042342998 1.4727099e-38 341 275
0.026615599 0.69 -0.042342998 1.4634186e-38 342 275
0.027825398 0.69 -0.042342998 1.4173209e-38 343 275
0.029035198 0.69 -0.042342998 1.4171773e-38 344 275
0.030288832 0.69099998 -0.042404365 1.3895546e-38 345 275
0.031454802 0.69 -0.042342998 1.3436013e-38 346 275
0.032664597 0.69 -0.042342998 1.3251261e-38 347 275
0.0338744 0.69 -0.042342998 1.3342741e-38 348 275
0.035084199 0.69 -0.042342998 1.3250545e-38 349 275
0.036293998 0.69 -0.042342998 1.3249826e-38 350 275
0.03755815 0.69099998 -0.042404365 1.3157631e-38 351 275
0.038769703 0.69099998 -0.042404365 1.3066154e-38 352 275
0.039981257 0.69099998 -0.042404365 1.315835e-38 353 275
0.041312039 0.69300002 -0.042527102 1.2424745e-38 354 275
0.042588469 0.69400001 -0.042588469 1.2424745e-38 355 275
0.043805279 0.69400001 -0.042588469 1.2149602e-38 356 275
0.045151837 0.69599998 -0.042711195 1.1873376e-38 357 275
0.046372157 0.69599998 -0.042711195 1.1780824e-38 358 275
0.047660861 0.69700003 -0.042772565 1.1688627e-38 359 275
0.048953064 0.69800001 -0.042833932 1.168863e-38 360 275
0.050320663 0.69999999 -0.042956665 1.168863e-38 361 275
0.051547997 0.69999999 -0.042956665 1.1871945e-38 362 275
0.052775331 0.69999999 -0.042956665 1.1871945e-38 363 275
0.054311249 0.704 -0.043202132 1.1413485e-38 364 275
0.055545598 0.704 -0.043202132 1.0399693e-38 365 275
0.056779943 0.704 -0.043202132 8.4683087e-39 366 275
0.058179103 0.70599997 -0.043324865 1.307809e-38 367 275
0.059416957 0.70599997 -0.043324865 1.5305216e-38 368 275
-0.012501267 0.713 -0.045004558 1.7144029e-38 310 276
-0.011251139 0.713 -0.045004558 1.437816e-38 311 276
-0.0099729598 0.71100003 -0.044878319 1.6667512e-38 312 276
-0.0087140659 0.70999998 -0.044815198 1.7035936e-38 313 276
-0.0074271196 0.70599997 -0.044562716 1.712702e-38 314 276
-0.0061717331 0.704 -0.044436477 1.6942629e-38 315 276
-0.0049303733 0.70300001 -0.04437336 1.694226e-38 316 276
-0.0036977797 0.70300001 -0.04437336 1.6850065e-38 317 276
-0.0024581731 0.70099998 -0.044247117 1.6849005e-38 318 276
-0.0012273333 0.69999999 -0.044183996 1.7033755e-38 319 276
0 0.69999999 -0.044183996 1.7032696e-38 320 276
0.0012238267 0.69800001 -0.04405776 1.7309281e-38 321 276
0.0024441467 0.69700003 -0.043994639 1.7308933e-38 322 276
0.0036609597 0.69599998 -0.043931518 1.7308933e-38 323 276
0.0048672534 0.69400001 -0.043805279 1.7033064e-38 324 276
0.0060840664 0.69400001 -0.043805279 1.7125262e-38 325 276
0.0073008798 0.69400001 -0.043805279 1.7125262e-38 326 276
0.0085054198 0.69300002 -0.043742158 1.6756478e-38 327 276
0.0097204801 0.69300002 -0.043742158 1.6110387e-38 328 276
0.01090398 0.69099998 -0.043615919 1.4819648e-38 329 276
0.012097999 0.69 -0.043552797 1.4540915e-38 330 276
0.013269227 0.68800002 -0.043426562 1.5094089e-38 331 276
0.014475521 0.68800002 -0.043426562 1.5369966e-38 332 276
0.015681813 0.68800002 -0.043426562 1.5462161e-38 333 276
0.016888106 0.68800002 -0.043426562 1.5187007e-38 334 276
0.0180944 0.68800002 -0.043426562 1.5371398e-38 335 276
0.019300694 0.68800002 -0.043426562 1.546467e-38 336 276
0.020506985 0.68800002 -0.043426562 1.6017485e-38 337 276
0.021713281 0.68800002 -0.043426562 1.5743775e-38 338 276
0.022919573 0.68800002 -0.043426562 1.5374632e-38 339 276
0.024125867 0.68800002 -0.043426562 1.5004408e-38 340 276
0.02533216 0.68800002 -0.043426562 1.4266842e-38 341 276
0.026538454 0.68800002 -0.043426562 1.4539836e-38 342 276
0.027744746 0.68800002 -0.043426562 1.4263608e-38 343 276
0.028951041 0.68800002 -0.043426562 1.3896265e-38 344 276
0.030244999 0.69 -0.043552797 1.3711874e-38 345 276
0.031363625 0.68800002 -0.043426562 1.3527487e-38 346 276
0.032569919 0.68800002 -0.043426562 1.3343094e-38 347 276
0.0338744 0.69 -0.043552797 1.3250542e-38 348 276
0.035084199 0.69 -0.043552797 1.3158347e-38 349 276
0.036293998 0.69 -0.043552797 1.3157628e-38 350 276
0.037503798 0.69 -0.043552797 1.3157628e-38 351 276
0.038713597 0.69 -0.043552797 1.2882486e-38 352 276
0.039981257 0.69099998 -0.043615919 1.2882486e-38 353 276
0.041312039 0.69300002 -0.043742158 1.2241079e-38 354 276
0.042527102 0.69300002 -0.043742158 1.2241079e-38 355 276
0.043805279 0.69400001 -0.043805279 1.1690782e-38 356 276
0.045022093 0.69400001 -0.043805279 1.1598587e-38 357 276
0.046238903 0.69400001 -0.043805279 1.1689347e-38 358 276
0.047592476 0.69599998 -0.043931518 1.1413119e-38 359 276
0.048953064 0.69800001 -0.04405776 1.1412766e-38 360 276
0.050320663 0.69999999 -0.044183996 1.1504962e-38 361 276
0.051547997 0.69999999 -0.044183996 1.1688281e-38 362 276
0.052775331 0.69999999 -0.044183996 1.1688281e-38 363 276
0.054234106 0.70300001 -0.04437336 1.1320217e-38 364 276
0.055545598 0.704 -0.044436477 1.0859599e-38 365 276
0.056779943 0.704 -0.044436477 8.9274819e-39 366 276
0.058179103 0.70599997 -0.044562716 1.0495168e-38 367 276
0.059416957 0.70599997 -0.044562716 1.4103789e-38 368 276
-0.012501267 0.713 -0.046254687 1.612807e-38 310 277
-0.01121958 0.71100003 -0.046124939 1.4468189e-38 311 277
-0.0099589331 0.70999998 -0.046060063 1.6758623e-38 312 277
-0.0087140659 0.70999998 -0.046060063 1.6851177e-38 313 277
-0.0074271196 0.70599997 -0.04580057 1.6850077e-38 314 277
-0.0061717331 0.704 -0.045670826 1.6757882e-38 315 277
-0.0049303733 0.70300001 -0.04560595 1.6757515e-38 316 277
-0.0036872597 0.70099998 -0.045476202 1.6849712e-38 317 277
-0.0024546667 0.69999999 -0.04541133 1.6757166e-38 318 277
-0.0012238267 0.69800001 -0.045281585 1.6849361e-38 319 277
0 0.69800001 -0.045281585 1.6756828e-38 320 277
0.0012220733 0.69700003 -0.045216713 1.7033415e-38 321 277
0.0024406398 0.69599998 -0.045151837 1.7033064e-38 322 277
0.0036504399 0.69400001 -0.045022093 1.7033064e-38 323 277
0.0048672534 0.69400001 -0.045022093 1.7032702e-38 324 277
0.0060840664 0.69400001 -0.045022093 1.6940147e-38 325 277
0.0073008798 0.69400001 -0.045022093 1.7031267e-38 326 277
0.0085054198 0.69300002 -0.044957221 1.6662843e-38 327 277
0.0097204801 0.69300002 -0.044957221 1.6109317e-38 328 277
0.01090398 0.69099998 -0.044827472 1.5463948e-38 329 277
0.012097999 0.69 -0.0447626 1.5094811e-38 330 277
0.013269227 0.68800002 -0.044632856 1.5002257e-38 331 277
0.014475521 0.68800002 -0.044632856 1.4726751e-38 332 277
0.015659019 0.68699998 -0.044567976 1.4357969e-38 333 277
0.01686356 0.68699998 -0.044567976 1.4448367e-38 334 277
0.018068098 0.68699998 -0.044567976 1.4540562e-38 335 277
0.019272638 0.68699998 -0.044567976 1.4451606e-38 336 277
0.020477179 0.68699998 -0.044567976 1.4912943e-38 337 277
0.021681719 0.68699998 -0.044567976 1.5189522e-38 338 277
0.022886258 0.68699998 -0.044567976 1.4636348e-38 339 277
0.024090799 0.68699998 -0.044567976 1.4543789e-38 340 277
0.025295338 0.68699998 -0.044567976 1.3990616e-38 341 277
0.026499879 0.68699998 -0.044567976 1.4079583e-38 342 277
0.027704418 0.68699998 -0.044567976 1.3802997e-38 343 277
0.028908957 0.68699998 -0.044567976 1.3711874e-38 344 277
0.030157333 0.68800002 -0.044632856 1.3435287e-38 345 277
0.031363625 0.68800002 -0.044632856 1.3526403e-38 346 277
0.032569919 0.68800002 -0.044632856 1.3434208e-38 347 277
0.0338744 0.69 -0.0447626 1.3158703e-38 348 277
0.035084199 0.69 -0.0447626 1.3158703e-38 349 277
0.036293998 0.69 -0.0447626 1.2882117e-38 350 277
0.037503798 0.69 -0.0447626 1.2882117e-38 351 277
0.038713597 0.69 -0.0447626 1.279029e-38 352 277
0.0399234 0.69 -0.0447626 1.279029e-38 353 277
0.041192811 0.69099998 -0.044827472 1.2148165e-38 354 277
0.042404365 0.69099998 -0.044827472 1.242475e-38 355 277
0.043742158 0.69300002 -0.044957221 1.159895e-38 356 277
0.045022093 0.69400001 -0.045022093 1.1322723e-38 357 277
0.046238903 0.69400001 -0.045022093 1.1137621e-38 358 277
0.047592476 0.69599998 -0.045151837 1.1045425e-38 359 277
0.048882935 0.69700003 -0.045216713 1.1136905e-38 360 277
0.050176892 0.69800001 -0.045281585 1.1320936e-38 361 277
0.051547997 0.69999999 -0.04541133 1.1503535e-38 362 277
0.052775331 0.69999999 -0.04541133 1.1503535e-38 363 277
0.054079808 0.70099998 -0.045476202 1.1226597e-38 364 277
0.0554667 0.70300001 -0.04560595 1.0950008e-38 365 277
0.056779943 0.704 -0.045670826 9.7558035e-39 366 277
0.058014292 0.704 -0.045670826 9.479218e-39 367 277
0.059501119 0.70700002 -0.045865446 1.1891085e-38 368 277
-0.0124662 0.71100003 -0.047371563 1.5571646e-38 310 278
-0.01121958 0.71100003 -0.047371563 1.464969e-38 311 278
-0.0099589331 0.70999998 -0.047304932 1.6482396e-38 312 278
-0.008689519 0.708 -0.047171678 1.6482396e-38 313 278
-0.0074376399 0.70700002 -0.047105055 1.6481665e-38 314 278
-0.0061717331 0.704 -0.046905171 1.6389468e-38 315 278
-0.0049163462 0.70099998 -0.046705291 1.6481654e-38 316 278
-0.0036819996 0.69999999 -0.046638668 1.6481654e-38 317 278
-0.0024476533 0.69800001 -0.046505414 1.6573497e-38 318 278
-0.0012220733 0.69700003 -0.046438783 1.6757529e-38 319 278
0 0.69700003 -0.046438783 1.6482043e-38 320 278
0.0012168133 0.69400001 -0.046238903 1.6666074e-38 321 278
0.0024336267 0.69400001 -0.046238903 1.6849749e-38 322 278
0.0036504399 0.69400001 -0.046238903 1.6757554e-38 323 278
0.0048672534 0.69400001 -0.046238903 1.7032699e-38 324 278
0.0060840664 0.69400001 -0.046238903 1.6755753e-38 325 278
0.0072903596 0.69300002 -0.04617228 1.6846155e-38 326 278
0.0085054198 0.69300002 -0.04617228 1.656957e-38 327 278
0.0096924258 0.69099998 -0.046039023 1.6201139e-38 328 278
0.010888199 0.69 -0.045972396 1.5740162e-38 329 278
0.012062933 0.68800002 -0.045839146 1.5646164e-38 330 278
0.013249939 0.68699998 -0.045772515 1.5277383e-38 331 278
0.014454478 0.68699998 -0.045772515 1.4449426e-38 332 278
0.015659019 0.68699998 -0.045772515 1.3711502e-38 333 278
0.01686356 0.68699998 -0.045772515 1.3157984e-38 334 278
0.018068098 0.68699998 -0.045772515 1.3065429e-38 335 278
0.019244585 0.68599999 -0.045705888 1.3161594e-38 336 278
0.020447372 0.68599999 -0.045705888 1.3714767e-38 337 278
0.021650158 0.68599999 -0.045705888 1.3991347e-38 338 278
0.022852944 0.68599999 -0.045705888 1.3807316e-38 339 278
0.024055731 0.68599999 -0.045705888 1.3807313e-38 340 278
0.025258519 0.68599999 -0.045705888 1.3346334e-38 341 278
0.026461305 0.68599999 -0.045705888 1.3711521e-38 342 278
0.027664091 0.68599999 -0.045705888 1.3527489e-38 343 278
0.02886688 0.68599999 -0.045705888 1.334381e-38 344 278
0.030113498 0.68699998 -0.045772515 1.3251614e-38 345 278
0.031318039 0.68699998 -0.045772515 1.3250179e-38 346 278
0.032522578 0.68699998 -0.045772515 1.3157984e-38 347 278
0.033776212 0.68800002 -0.045839146 1.2882836e-38 348 278
0.03498251 0.68800002 -0.045839146 1.2882836e-38 349 278
0.0361888 0.68800002 -0.045839146 1.2789568e-38 350 278
0.037395094 0.68800002 -0.045839146 1.2697371e-38 351 278
0.038601387 0.68800002 -0.045839146 1.2605188e-38 352 278
0.039807681 0.68800002 -0.045839146 1.2697744e-38 353 278
0.041133199 0.69 -0.045972396 1.2056338e-38 354 278
0.042342998 0.69 -0.045972396 1.2056338e-38 355 278
0.043615919 0.69099998 -0.046039023 1.132237e-38 356 278
0.044957221 0.69300002 -0.04617228 1.1230173e-38 357 278
0.04617228 0.69300002 -0.04617228 1.0954312e-38 358 278
0.047455717 0.69400001 -0.046238903 1.0862116e-38 359 278
0.048812799 0.69599998 -0.046372157 1.086176e-38 360 278
0.050176892 0.69800001 -0.046505414 1.086176e-38 361 278
0.051547997 0.69999999 -0.046638668 1.1136552e-38 362 278
0.052775331 0.69999999 -0.046638668 1.0952161e-38 363 278
0.054079808 0.70099998 -0.046705291 1.1134404e-38 364 278
0.0554667 0.70300001 -0.046838548 1.1134404e-38 365 278
0.056779943 0.704 -0.046905171 1.0032392e-38 366 278
0.058014292 0.704 -0.046905171 9.479218e-39 367 278
0.059416957 0.70599997 -0.047038425 1.1239235e-38 368 278
0.060740728 0.70700002 -0.047105055 1.8245744e-38 369 278
-0.0124662 0.71100003 -0.048618179 1.529217e-38 310 279
-0.01121958 0.71100003 -0.048618179 1.46468e-38 311 279
-0.0099589331 0.70999998 -0.048549797 1.648167e-38 312 279
-0.0086649731 0.70599997 -0.048276275 1.648167e-38 313 279
-0.0074060797 0.704 -0.048139516 1.6388386e-38 314 279
-0.0061454331 0.70099998 -0.047934376 1.629619e-38 315 279
-0.0049163462 0.70099998 -0.047934376 1.6479853e-38 316 279
-0.0036819996 0.69999999 -0.047865998 1.6572049e-38 317 279
-0.0024476533 0.69800001 -0.047729239 1.675501e-38 318 279
-0.0012220733 0.69700003 -0.047660861 1.6847206e-38 319 279
0 0.69599998 -0.047592476 1.6663556e-38 320 279
0.0012168133 0.69400001 -0.047455717 1.6848307e-38 321 279
0.0024336267 0.69400001 -0.047455717 1.6940503e-38 322 279
0.0036451798 0.69300002 -0.047387339 1.721673e-38 323 279
0.0048462129 0.69099998 -0.047250576 1.6941572e-38 324 279
0.0060577663 0.69099998 -0.047250576 1.6572791e-38 325 279
0.0072693196 0.69099998 -0.047250576 1.6845061e-38 326 279
0.0084686 0.69 -0.047182199 1.6660671e-38 327 279
0.0096503468 0.68800002 -0.047045439 1.5924906e-38 328 279
0.010856641 0.68800002 -0.047045439 1.5647959e-38 329 279
0.012045399 0.68699998 -0.046977058 1.5462852e-38 330 279
0.013249939 0.68699998 -0.046977058 1.5370656e-38 331 279
0.014454478 0.68699998 -0.046977058 1.4263605e-38 332 279
0.015659019 0.68699998 -0.046977058 1.3710432e-38 333 279
0.016839013 0.68599999 -0.046908677 1.2053451e-38 334 279
0.018041799 0.68599999 -0.046908677 1.1961255e-38 335 279
0.019244585 0.68599999 -0.046908677 1.2146015e-38 336 279
0.020387759 0.68400002 -0.046771921 1.2146015e-38 337 279
0.02158704 0.68400002 -0.046771921 1.2517309e-38 338 279
0.022786319 0.68400002 -0.046771921 1.270206e-38 339 279
0.0239856 0.68400002 -0.046771921 1.3437455e-38 340 279
0.025184879 0.68400002 -0.046771921 1.3160868e-38 341 279
0.02638416 0.68400002 -0.046771921 1.3435287e-38 342 279
0.027583439 0.68400002 -0.046771921 1.3527843e-38 343 279
0.02878272 0.68400002 -0.046771921 1.3253045e-38 344 279
0.030069664 0.68599999 -0.046908677 1.2976457e-38 345 279
0.031318039 0.68699998 -0.046977058 1.3250533e-38 346 279
0.032522578 0.68699998 -0.046977058 1.2973586e-38 347 279
0.033727121 0.68699998 -0.046977058 1.2882117e-38 348 279
0.03498251 0.68800002 -0.047045439 1.2882117e-38 349 279
0.0361888 0.68800002 -0.047045439 1.2605897e-38 350 279
0.037395094 0.68800002 -0.047045439 1.2421508e-38 351 279
0.038601387 0.68800002 -0.047045439 1.2237485e-38 352 279
0.039807681 0.68800002 -0.047045439 1.2053454e-38 353 279
0.041133199 0.69 -0.047182199 1.1413122e-38 354 279
0.042342998 0.69 -0.047182199 1.1505318e-38 355 279
0.043552797 0.69 -0.047182199 1.1230175e-38 356 279
0.044827472 0.69099998 -0.047250576 1.1137621e-38 357 279
0.046039023 0.69099998 -0.047250576 1.086176e-38 358 279
0.047387339 0.69300002 -0.047387339 1.1138347e-38 359 279
0.048812799 0.69599998 -0.047592476 1.058877e-38 360 279
0.050105009 0.69700003 -0.047660861 1.0496575e-38 361 279
0.051400717 0.69800001 -0.047729239 1.0862835e-38 362 279
0.052775331 0.69999999 -0.047865998 1.0862835e-38 363 279
0.054079808 0.70099998 -0.047934376 1.0952877e-38 364 279
0.055308893 0.70099998 -0.047934376 1.0952877e-38 365 279
0.056699295 0.70300001 -0.048071139 1.0586618e-38 366 279
0.057931885 0.70300001 -0.048071139 9.7568573e-39 367 279
0.059416957 0.70599997 -0.048276275 1.1238136e-38 368 279
0.060740728 0.70700002 -0.048344657 1.7138657e-38 369 279
0.061980337 0.70700002 -0.048344657 1.7335668e-38 370 279
-0.0124662 0.71100003 -0.049864799 1.5105608e-38 310 280
-0.01121958 0.71100003 -0.049864799 1.4737184e-38 311 280
-0.0099308798 0.708 -0.049654398 1.6205802e-38 312 280
-0.0086649731 0.70599997 -0.04951413 1.583738e-38 313 280
-0.0074060797 0.704 -0.049373865 1.6020689e-38 314 280
-0.0061454331 0.70099998 -0.049163464 1.5836298e-38 315 280
-0.0049093333 0.69999999 -0.049093332 1.6112159e-38 316 280
-0.0036714801 0.69800001 -0.048953064 1.6204355e-38 317 280
-0.0024476533 0.69800001 -0.048953064 1.6386601e-38 318 280
-0.0012220733 0.69700003 -0.048882935 1.6478796e-38 319 280
0 0.69599998 -0.048812799 1.6111837e-38 320 280
0.0012168133 0.69400001 -0.048672531 1.6388065e-38 321 280
0.00243012 0.69300002 -0.048602402 1.6296948e-38 322 280
0.0036451798 0.69300002 -0.048602402 1.6389144e-38 323 280
0.0048462129 0.69099998 -0.04846213 1.6297649e-38 324 280
0.0060577663 0.69099998 -0.04846213 1.5744475e-38 325 280
0.0072587994 0.69 -0.048391998 1.6201133e-38 326 280
0.0084686 0.69 -0.048391998 1.5924906e-38 327 280
0.0096503468 0.68800002 -0.048251733 1.5647966e-38 328 280
0.010856641 0.68800002 -0.048251733 1.5463215e-38 329 280
0.012045399 0.68699998 -0.048181597 1.5095143e-38 330 280
0.013249939 0.68699998 -0.048181597 1.491075e-38 331 280
0.01443344 0.68599999 -0.048111461 1.4172126e-38 332 280
0.015636226 0.68599999 -0.048111461 1.3618952e-38 333 280
0.016839013 0.68599999 -0.048111461 1.2696319e-38 334 280
0.018041799 0.68599999 -0.048111461 1.2511926e-38 335 280
0.019244585 0.68599999 -0.048111461 1.1685778e-38 336 280
0.020387759 0.68400002 -0.0479712 1.1870169e-38 337 280
0.02158704 0.68400002 -0.0479712 1.1964871e-38 338 280
0.022786319 0.68400002 -0.0479712 1.2333294e-38 339 280
0.0239856 0.68400002 -0.0479712 1.3067246e-38 340 280
0.025184879 0.68400002 -0.0479712 1.3067246e-38 341 280
0.02638416 0.68400002 -0.0479712 1.2792091e-38 342 280
0.027583439 0.68400002 -0.0479712 1.2884286e-38 343 280
0.02878272 0.68400002 -0.0479712 1.2975751e-38 344 280
0.030069664 0.68599999 -0.048111461 1.2883555e-38 345 280
0.031318039 0.68699998 -0.048181597 1.3065783e-38 346 280
0.032522578 0.68699998 -0.048181597 1.3065783e-38 347 280
0.033727121 0.68699998 -0.048181597 1.2789922e-38 348 280
0.03498251 0.68800002 -0.048251733 1.2789922e-38 349 280
0.0361888 0.68800002 -0.048251733 1.242151e-38 350 280
0.037395094 0.68800002 -0.048251733 1.2329315e-38 351 280
0.038601387 0.68800002 -0.048251733 1.1779028e-38 352 280
0.039807681 0.68800002 -0.048251733 1.1686832e-38 353 280
0.041133199 0.69 -0.048391998 1.1595362e-38 354 280
0.042342998 0.69 -0.048391998 1.1595362e-38 355 280
0.043552797 0.69 -0.048391998 1.1228019e-38 356 280
0.0447626 0.69 -0.048391998 1.1412769e-38 357 280
0.046039023 0.69099998 -0.04846213 1.0955032e-38 358 280
0.047250576 0.69099998 -0.04846213 1.0955032e-38 359 280
0.048672531 0.69400001 -0.048672531 1.0496575e-38 360 280
0.050105009 0.69700003 -0.048882935 1.0496575e-38 361 280
0.051400717 0.69800001 -0.048953064 1.077172e-38 362 280
0.052775331 0.69999999 -0.049093332 1.0679164e-38 363 280
0.054079808 0.70099998 -0.049163464 1.1136905e-38 364 280
0.055308893 0.70099998 -0.049163464 1.1136905e-38 365 280
0.056537982 0.70099998 -0.049163464 1.0955398e-38 366 280
0.057767071 0.70099998 -0.049163464 1.0402224e-38 367 280
0.058996156 0.70099998 -0.049163464 1.11445e-38 368 280
0.060225245 0.70099998 -0.049163464 1.5938671e-38 369 280
-0.012448666 0.70999998 -0.051039528 1.5381475e-38 310 281
-0.011203799 0.70999998 -0.051039528 1.4920496e-38 311 281
-0.0099168532 0.70700002 -0.050823875 1.5837024e-38 312 281
-0.0086404262 0.704 -0.050608214 1.5744828e-38 313 281
-0.0073745195 0.70099998 -0.050392549 1.5835581e-38 314 281
-0.0061366665 0.69999999 -0.050320663 1.5835581e-38 315 281
-0.0049093333 0.69999999 -0.050320663 1.611072e-38 316 281
-0.0036714801 0.69800001 -0.050176892 1.6018524e-38 317 281
-0.0024441467 0.69700003 -0.050105009 1.6293313e-38 318 281
-0.0012203199 0.69599998 -0.050033119 1.6293313e-38 319 281
0 0.69599998 -0.050033119 1.6201133e-38 320 281
0.0012168133 0.69400001 -0.049889345 1.6293329e-38 321 281
