# .PCD v.7 - Point Cloud Data file format
FIELDS x y z rgb imX imY
SIZE 4 4 4 4 4 4
TYPE F F F F F F
COUNT 1 1 1 1 1 1
WIDTH 829
HEIGHT 1
VIEWPOINT 0 0 0 1 0 0 0
POINTS 829
DATA ascii
-0.010856641 0.68800002 -0.06152096 1.1779028e-38 311 291
-0.0096503468 0.68800002 -0.06152096 1.205417e-38 312 291
-0.0084440531 0.68800002 -0.06152096 1.1961974e-38 313 291
-0.0072272392 0.68699998 -0.061431535 1.1961977e-38 314 291
-0.0060226996 0.68699998 -0.061431535 1.1869423e-38 315 291
-0.0048181596 0.68699998 -0.061431535 1.1410252e-38 316 291
-0.0036136196 0.68699998 -0.061431535 1.1317698e-38 317 291
-0.0024090798 0.68699998 -0.061431535 1.1224432e-38 318 291
-0.0012027866 0.68599999 -0.061342116 1.1224432e-38 319 291
0 0.68400002 -0.061163284 1.1224434e-38 320 291
0.00119928 0.68400002 -0.061163284 1.1408465e-38 321 291
0.0023950534 0.68300003 -0.061073858 1.1132955e-38 322 291
0.0035925799 0.68300003 -0.061073858 1.1040759e-38 323 291
0.0047901068 0.68300003 -0.061073858 1.0948564e-38 324 291
0.0059876335 0.68300003 -0.061073858 1.0948564e-38 325 291
0.00717464 0.68199998 -0.060984433 1.0763093e-38 326 291
0.0083704125 0.68199998 -0.060984433 1.0579062e-38 327 291
0.009566186 0.68199998 -0.060984433 1.0304273e-38 328 291
0.010761959 0.68199998 -0.060984433 1.0304273e-38 329 291
0.011957732 0.68199998 -0.060984433 1.0212796e-38 330 291
0.013153506 0.68199998 -0.060984433 1.0212796e-38 331 291
0.01434928 0.68199998 -0.060984433 1.0304273e-38 332 291
0.015567848 0.68300003 -0.061073858 1.0212077e-38 333 291
0.016765373 0.68300003 -0.061073858 1.002733e-38 334 291
0.017962901 0.68300003 -0.061073858 1.0119526e-38 335 291
0.019160427 0.68300003 -0.061073858 9.9369297e-39 336 291
0.020357953 0.68300003 -0.061073858 1.0029125e-38 337 291
0.02155548 0.68300003 -0.061073858 1.0581208e-38 338 291
0.022753006 0.68300003 -0.061073858 1.0673403e-38 339 291
0.0239856 0.68400002 -0.061163284 1.0855992e-38 340 291
0.025184879 0.68400002 -0.061163284 1.0579766e-38 341 291
0.026461305 0.68599999 -0.061342116 1.0395743e-38 342 291
0.027664091 0.68599999 -0.061342116 1.0487938e-38 343 291
0.028908957 0.68699998 -0.061431535 1.0674848e-38 344 291
0.030113498 0.68699998 -0.061431535 1.1135826e-38 345 291
0.031318039 0.68699998 -0.061431535 1.1778309e-38 346 291
0.032569919 0.68800002 -0.06152096 1.2054536e-38 347 291
0.033776212 0.68800002 -0.06152096 1.2422232e-38 348 291
0.035084199 0.69 -0.061699796 1.2514429e-38 349 291
0.036346599 0.69099998 -0.061789215 1.2424026e-38 350 291
0.037666857 0.69300002 -0.061968062 1.251658e-38 351 291
0.03888192 0.69300002 -0.061968062 1.2609864e-38 352 291
0.040154841 0.69400001 -0.06205748 1.2886451e-38 353 291
0.041371655 0.69400001 -0.06205748 1.2798221e-38 354 291
0.042711195 0.69599998 -0.062236317 1.32592e-38 355 291
0.043994639 0.69700003 -0.062325738 1.3169547e-38 356 291
0.045281585 0.69800001 -0.062415157 1.5013101e-38 357 291
0.046638668 0.69999999 -0.062593997 1.7512128e-38 358 291
0.047865998 0.69999999 -0.062593997 1.8987618e-38 359 291
-0.027039904 0.70099998 -0.063912503 1.1971352e-38 298 292
-0.025810819 0.70099998 -0.063912503 1.1141591e-38 299 292
-0.024581732 0.70099998 -0.063912503 1.1416006e-38 300 292
-0.023252707 0.69800001 -0.063638985 1.0955028e-38 301 292
-0.02202888 0.69800001 -0.063638985 1.1320924e-38 302 292
-0.020805053 0.69800001 -0.063638985 1.1043978e-38 303 292
-0.019525118 0.69599998 -0.063456632 1.085815e-38 304 292
-0.0182522 0.69400001 -0.063274294 1.0765596e-38 305 292
-0.01701084 0.69300002 -0.063183114 1.0489385e-38 306 292
-0.015795778 0.69300002 -0.063183114 1.0489385e-38 307 292
-0.014580719 0.69300002 -0.063183114 1.0673779e-38 308 292
-0.013327086 0.69099998 -0.063000768 1.085781e-38 309 292
-0.012097999 0.69 -0.062909603 1.1135104e-38 310 292
-0.010856641 0.68800002 -0.06272725 1.12273e-38 311 292
-0.0096503468 0.68800002 -0.06272725 1.1502445e-38 312 292
-0.0084440531 0.68800002 -0.06272725 1.1318052e-38 313 292
-0.0072272392 0.68699998 -0.062636077 1.1317698e-38 314 292
-0.0060226996 0.68699998 -0.062636077 1.1410252e-38 315 292
-0.0048181596 0.68699998 -0.062636077 1.0767046e-38 316 292
-0.0036136196 0.68699998 -0.062636077 1.0582655e-38 317 292
-0.0024090798 0.68699998 -0.062636077 1.0672347e-38 318 292
-0.00119928 0.68400002 -0.062362559 1.0672347e-38 319 292
0 0.68400002 -0.062362559 1.0397204e-38 320 292
0.0011975267 0.68300003 -0.06227139 1.04894e-38 321 292
0.0023950534 0.68300003 -0.06227139 1.0489034e-38 322 292
0.0035925799 0.68300003 -0.06227139 1.058123e-38 323 292
0.0047901068 0.68300003 -0.06227139 1.06727e-38 324 292
0.0059876335 0.68300003 -0.06227139 1.0580504e-38 325 292
0.00717464 0.68199998 -0.062180214 1.0580137e-38 326 292
0.0083704125 0.68199998 -0.062180214 1.0487583e-38 327 292
0.009566186 0.68199998 -0.062180214 1.0212075e-38 328 292
0.010761959 0.68199998 -0.062180214 1.0119879e-38 329 292
0.011957732 0.68199998 -0.062180214 9.844381e-39 330 292
0.013153506 0.68199998 -0.062180214 9.844381e-39 331 292
0.01434928 0.68199998 -0.062180214 9.3852105e-39 332 292
0.015567848 0.68300003 -0.06227139 9.2926561e-39 333 292
0.016765373 0.68300003 -0.06227139 9.0167951e-39 334 292
0.017962901 0.68300003 -0.06227139 9.0167951e-39 335 292
0.019160427 0.68300003 -0.06227139 8.649809e-39 336 292
0.020357953 0.68300003 -0.06227139 9.0182328e-39 337 292
0.02155548 0.68300003 -0.06227139 9.4784753e-39 338 292
0.022753006 0.68300003 -0.06227139 9.6628666e-39 339 292
0.0239856 0.68400002 -0.062362559 1.0304623e-38 340 292
0.025184879 0.68400002 -0.062362559 1.0212428e-38 341 292
0.026461305 0.68599999 -0.062544905 9.9365668e-39 342 292
0.027664091 0.68599999 -0.062544905 1.0212794e-38 343 292
0.028908957 0.68699998 -0.062636077 1.0307507e-38 344 292
0.030113498 0.68699998 -0.062636077 1.0584454e-38 345 292
0.031318039 0.68699998 -0.062636077 1.1503164e-38 346 292
0.032569919 0.68800002 -0.06272725 1.1687555e-38 347 292
0.0338744 0.69 -0.062909603 1.214744e-38 348 292
0.035084199 0.69 -0.062909603 1.2239637e-38 349 292
0.036346599 0.69099998 -0.063000768 1.2332555e-38 350 292
0.037666857 0.69300002 -0.063183114 1.2516946e-38 351 292
0.03888192 0.69300002 -0.063183114 1.2334369e-38 352 292
0.040154841 0.69400001 -0.063274294 1.2795347e-38 353 292
0.041490879 0.69599998 -0.063456632 1.2339411e-38 354 292
0.042711195 0.69599998 -0.063456632 1.298478e-38 355 292
0.043994639 0.69700003 -0.06354782 1.34465e-38 356 292
0.045216713 0.69700003 -0.06354782 1.5751391e-38 357 292
0.046505414 0.69800001 -0.063638985 1.760433e-38 358 292
0.047865998 0.69999999 -0.063821331 1.8895069e-38 359 292
-0.027039904 0.70099998 -0.065141588 1.2524891e-38 298 293
-0.025810819 0.70099998 -0.065141588 1.0588783e-38 299 293
-0.024581732 0.70099998 -0.065141588 1.0587334e-38 300 293
-0.023252707 0.69800001 -0.06486281 1.0772085e-38 301 293
-0.02202888 0.69800001 -0.06486281 1.1228024e-38 302 293
-0.020805053 0.69800001 -0.06486281 1.1043274e-38 303 293
-0.019553173 0.69700003 -0.064769886 1.0674129e-38 304 293
-0.0182522 0.69400001 -0.064491108 1.0489738e-38 305 293
-0.01701084 0.69300002 -0.064398177 1.01224e-38 306 293
-0.015795778 0.69300002 -0.064398177 1.01224e-38 307 293
-0.014580719 0.69300002 -0.064398177 1.067305e-38 308 293
-0.013327086 0.69099998 -0.06421233 1.0765246e-38 309 293
-0.012097999 0.69 -0.064119399 1.0950346e-38 310 293
-0.010856641 0.68800002 -0.063933544 1.1226573e-38 311 293
-0.0096503468 0.68800002 -0.063933544 1.1133655e-38 312 293
-0.0084440531 0.68800002 -0.063933544 1.1133655e-38 313 293
-0.0072272392 0.68699998 -0.06384062 1.1041109e-38 314 293
-0.0060226996 0.68699998 -0.06384062 1.0948914e-38 315 293
-0.0048181596 0.68699998 -0.06384062 1.0948561e-38 316 293
-0.0036136196 0.68699998 -0.06384062 1.0672334e-38 317 293
-0.0024055731 0.68599999 -0.063747689 1.0396469e-38 318 293
-0.00119928 0.68400002 -0.063561834 1.0304273e-38 319 293
0 0.68400002 -0.063561834 1.0304636e-38 320 293
0.0011975267 0.68300003 -0.063468911 1.021244e-38 321 293
0.0023950534 0.68300003 -0.063468911 1.0671981e-38 322 293
0.0035925799 0.68300003 -0.063468911 1.0764176e-38 323 293
0.0047901068 0.68300003 -0.063468911 1.0671981e-38 324 293
0.0059876335 0.68300003 -0.063468911 1.0579784e-38 325 293
0.00717464 0.68199998 -0.063375987 1.0303917e-38 326 293
0.0083704125 0.68199998 -0.063375987 1.0303917e-38 327 293
0.009566186 0.68199998 -0.063375987 1.0211722e-38 328 293
0.010761959 0.68199998 -0.063375987 1.0211722e-38 329 293
0.011957732 0.68199998 -0.063375987 9.3862769e-39 330 293
0.013153506 0.68199998 -0.063375987 9.2018856e-39 331 293
0.014370319 0.68300003 -0.063468911 9.3837713e-39 332 293
0.015567848 0.68300003 -0.063468911 8.8309577e-39 333 293
0.016765373 0.68300003 -0.063468911 8.9217282e-39 334 293
0.017962901 0.68300003 -0.063468911 8.8295326e-39 335 293
0.019160427 0.68300003 -0.063468911 8.738053e-39 336 293
0.020357953 0.68300003 -0.063468911 8.922803e-39 337 293
0.02155548 0.68300003 -0.063468911 9.4763215e-39 338 293
0.022753006 0.68300003 -0.063468911 9.7532671e-39 339 293
0.0239856 0.68400002 -0.063561834 9.9372856e-39 340 293
0.025184879 0.68400002 -0.063561834 9.8447313e-39 341 293
0.026461305 0.68599999 -0.063747689 1.011916e-38 342 293
0.027664091 0.68599999 -0.063747689 1.0395387e-38 343 293
0.028908957 0.68699998 -0.06384062 1.0490091e-38 344 293
0.030113498 0.68699998 -0.06384062 1.1042905e-38 345 293
0.031318039 0.68699998 -0.06384062 1.177758e-38 346 293
0.032569919 0.68800002 -0.063933544 1.1869776e-38 347 293
0.0338744 0.69 -0.064119399 1.2329668e-38 348 293
0.035135046 0.69099998 -0.06421233 1.2605895e-38 349 293
0.036346599 0.69099998 -0.06421233 1.2331833e-38 350 293
0.037666857 0.69300002 -0.064398177 1.2516224e-38 351 293
0.038938027 0.69400001 -0.064491108 1.2426196e-38 352 293
0.040154841 0.69400001 -0.064491108 1.2794977e-38 353 293
0.041490879 0.69599998 -0.064676955 1.2798943e-38 354 293
0.042711195 0.69599998 -0.064676955 1.2983336e-38 355 293
0.043994639 0.69700003 -0.064769886 1.3724166e-38 356 293
0.045216713 0.69700003 -0.064769886 1.6397839e-38 357 293
0.046438783 0.69700003 -0.064769886 1.760433e-38 358 293
-0.027039904 0.70099998 -0.066370681 1.2989113e-38 298 294
-0.025810819 0.70099998 -0.066370681 1.0223243e-38 299 294
-0.024581732 0.70099998 -0.066370681 1.0494419e-38 300 294
-0.023252707 0.69800001 -0.066086642 1.0955398e-38 301 294
-0.02202888 0.69800001 -0.066086642 1.1228024e-38 302 294
-0.020805053 0.69800001 -0.066086642 1.0859243e-38 303 294
-0.019553173 0.69700003 -0.06599196 1.0675201e-38 304 294
-0.0182522 0.69400001 -0.065707922 1.0583005e-38 305 294
-0.017035386 0.69400001 -0.065707922 1.0031634e-38 306 294
-0.015795778 0.69300002 -0.06561324 9.939438e-39 307 294
-0.014538639 0.69099998 -0.065423876 1.0031278e-38 308 294
-0.013327086 0.69099998 -0.065423876 1.0215309e-38 309 294
-0.012097999 0.69 -0.065329194 1.0400059e-38 310 294
-0.010856641 0.68800002 -0.065139838 1.0307863e-38 311 294
-0.0096503468 0.68800002 -0.065139838 1.058158e-38 312 294
-0.0084440531 0.68800002 -0.065139838 1.0397189e-38 313 294
-0.0072272392 0.68699998 -0.065045156 1.0122047e-38 314 294
-0.0060226996 0.68699998 -0.065045156 1.0122047e-38 315 294
-0.0048181596 0.68699998 -0.065045156 1.0397555e-38 316 294
-0.00360836 0.68599999 -0.064950474 1.0121327e-38 317 294
-0.0024055731 0.68599999 -0.064950474 9.7532643e-39 318 294
-0.00119928 0.68400002 -0.064761117 9.6610687e-39 319 294
0 0.68400002 -0.064761117 9.018586e-39 320 294
0.0011975267 0.68300003 -0.064666435 9.1107816e-39 321 294
0.0023950534 0.68300003 -0.064666435 9.5703234e-39 322 294
0.0035925799 0.68300003 -0.064666435 9.662519e-39 323 294
0.0047901068 0.68300003 -0.064666435 9.8451096e-39 324 294
0.0059876335 0.68300003 -0.064666435 9.8451096e-39 325 294
0.00717464 0.68199998 -0.064571753 9.9365794e-39 326 294
0.0083704125 0.68199998 -0.064571753 9.9365794e-39 327 294
0.009566186 0.68199998 -0.064571753 9.9369297e-39 328 294
0.010761959 0.68199998 -0.064571753 9.9369297e-39 329 294
0.011957732 0.68199998 -0.064571753 9.5695891e-39 330 294
0.013153506 0.68199998 -0.064571753 9.2011653e-39 331 294
0.01434928 0.68199998 -0.064571753 8.9227974e-39 332 294
0.015567848 0.68300003 -0.064666435 8.8306018e-39 333 294
0.016765373 0.68300003 -0.064666435 8.1866827e-39 334 294
0.017962901 0.68300003 -0.064666435 8.1866827e-39 335 294
0.01918848 0.68400002 -0.064761117 7.9115378e-39 336 294
0.020357953 0.68300003 -0.064666435 8.3725159e-39 337 294
0.02155548 0.68300003 -0.064666435 8.4664968e-39 338 294
0.022786319 0.68400002 -0.064761117 8.8349206e-39 339 294
0.0239856 0.68400002 -0.064761117 9.3852049e-39 340 294
0.025184879 0.68400002 -0.064761117 9.2930092e-39 341 294
0.02638416 0.68400002 -0.064761117 1.0027333e-38 342 294
0.027664091 0.68599999 -0.064950474 1.0211724e-38 343 294
0.02886688 0.68599999 -0.064950474 1.0489385e-38 344 294
0.030113498 0.68699998 -0.065045156 1.0950361e-38 345 294
0.031318039 0.68699998 -0.065045156 1.1501369e-38 346 294
0.032569919 0.68800002 -0.065139838 1.1593564e-38 347 294
0.0338744 0.69 -0.065329194 1.1870502e-38 348 294
0.035135046 0.69099998 -0.065423876 1.2147087e-38 349 294
0.036451802 0.69300002 -0.06561324 1.2056335e-38 350 294
0.037666857 0.69300002 -0.06561324 1.233328e-38 351 294
0.038938027 0.69400001 -0.065707922 1.1967033e-38 352 294
0.040154841 0.69400001 -0.065707922 1.242801e-38 353 294
0.041371655 0.69400001 -0.065707922 1.2247584e-38 354 294
0.042711195 0.69599998 -0.065897278 1.2800758e-38 355 294
0.043931518 0.69599998 -0.065897278 1.4369898e-38 356 294
0.045151837 0.69599998 -0.065897278 1.7228323e-38 357 294
0.046438783 0.69700003 -0.06599196 1.7697245e-38 358 294
-0.027039904 0.70099998 -0.067599766 1.4557161e-38 298 295
-0.025810819 0.70099998 -0.067599766 1.0316162e-38 299 295
-0.024581732 0.70099998 -0.067599766 1.09554e-38 300 295
-0.023252707 0.69800001 -0.06731046 1.1139792e-38 301 295
-0.02202888 0.69800001 -0.06731046 1.1319864e-38 302 295
-0.020805053 0.69800001 -0.06731046 1.1135473e-38 303 295
-0.019581227 0.69800001 -0.06731046 1.0584807e-38 304 295
-0.0182522 0.69400001 -0.066924736 1.0400056e-38 305 295
-0.017035386 0.69400001 -0.066924736 1.0032353e-38 306 295
-0.015795778 0.69300002 -0.066828303 9.8476025e-39 307 295
-0.014538639 0.69099998 -0.06663543 1.0122394e-38 308 295
-0.013327086 0.69099998 -0.06663543 1.0214949e-38 309 295
-0.012097999 0.69 -0.066538997 1.0031631e-38 310 295
-0.010856641 0.68800002 -0.066346131 1.0031631e-38 311 295
-0.0096503468 0.68800002 -0.066346131 1.0397539e-38 312 295
-0.0084440531 0.68800002 -0.066346131 1.0029116e-38 313 295
-0.0072272392 0.68699998 -0.066249698 1.0029128e-38 314 295
-0.0060226996 0.68699998 -0.066249698 1.0029128e-38 315 295
-0.0048111463 0.68599999 -0.066153266 1.0029128e-38 316 295
-0.00360836 0.68599999 -0.066153266 9.8447369e-39 317 295
-0.0024055731 0.68599999 -0.066153266 9.4763215e-39 318 295
-0.00119928 0.68400002 -0.0659604 9.2000933e-39 319 295
0 0.68400002 -0.0659604 9.1082635e-39 320 295
0.0011975267 0.68300003 -0.065863967 9.2004591e-39 321 295
0.0023950534 0.68300003 -0.065863967 9.5692388e-39 322 295
0.0035925799 0.68300003 -0.065863967 9.6614344e-39 323 295
0.0047901068 0.68300003 -0.065863967 9.7539832e-39 324 295
0.0059876335 0.68300003 -0.065863967 9.6617876e-39 325 295
0.00717464 0.68199998 -0.065767527 9.6617876e-39 326 295
0.0083704125 0.68199998 -0.065767527 9.6617876e-39 327 295
0.009566186 0.68199998 -0.065767527 9.6617848e-39 328 295
0.010761959 0.68199998 -0.065767527 9.6617848e-39 329 295
0.011957732 0.68199998 -0.065767527 9.3855608e-39 330 295
0.013153506 0.68199998 -0.065767527 9.1086138e-39 331 295
0.01434928 0.68199998 -0.065767527 8.8327528e-39 332 295
0.015567848 0.68300003 -0.065863967 8.6483615e-39 333 295
0.016765373 0.68300003 -0.065863967 8.1891854e-39 334 295
0.017962901 0.68300003 -0.065863967 8.0047928e-39 335 295
0.019160427 0.68300003 -0.065863967 7.912244e-39 336 295
0.020357953 0.68300003 -0.065863967 8.0966367e-39 337 295
0.02155548 0.68300003 -0.065863967 8.5568889e-39 338 295
0.022753006 0.68300003 -0.065863967 8.9256701e-39 339 295
0.023950534 0.68300003 -0.065863967 9.5681514e-39 340 295
0.025184879 0.68400002 -0.0659604 9.4759544e-39 341 295
0.02638416 0.68400002 -0.0659604 1.0117724e-38 342 295
0.027583439 0.68400002 -0.0659604 1.0394671e-38 343 295
0.02886688 0.68599999 -0.066153266 1.0580131e-38 344 295
0.030113498 0.68699998 -0.066249698 1.1133305e-38 345 295
0.031318039 0.68699998 -0.066249698 1.1500643e-38 346 295
0.032569919 0.68800002 -0.066346131 1.1869425e-38 347 295
0.0338744 0.69 -0.066538997 1.1779381e-38 348 295
0.035135046 0.69099998 -0.06663543 1.1871576e-38 349 295
0.036451802 0.69300002 -0.066828303 1.2056688e-38 350 295
0.037666857 0.69300002 -0.066828303 1.2241079e-38 351 295
0.038938027 0.69400001 -0.066924736 1.1967739e-38 352 295
0.040154841 0.69400001 -0.066924736 1.2243966e-38 353 295
0.041371655 0.69400001 -0.066924736 1.2339767e-38 354 295
0.042711195 0.69599998 -0.067117594 1.2800386e-38 355 295
0.043931518 0.69599998 -0.067117594 1.4648636e-38 356 295
0.045151837 0.69599998 -0.067117594 1.7598898e-38 357 295
-0.027039904 0.70099998 -0.068828844 1.6676218e-38 298 296
-0.025810819 0.70099998 -0.068828844 1.1144479e-38 299 296
-0.024546666 0.69999999 -0.068730667 1.1322017e-38 300 296
-0.023252707 0.69800001 -0.068534292 1.1598602e-38 301 296
-0.02202888 0.69800001 -0.068534292 1.1413136e-38 302 296
-0.020805053 0.69800001 -0.068534292 1.1320939e-38 303 296
-0.019581227 0.69800001 -0.068534292 1.0953583e-38 304 296
-0.018304799 0.69599998 -0.068337917 1.05848e-38 305 296
-0.017035386 0.69400001 -0.068141542 1.0308211e-38 306 296
-0.015795778 0.69300002 -0.068043359 1.0031984e-38 307 296
-0.014580719 0.69300002 -0.068043359 9.9394352e-39 308 296
-0.013327086 0.69099998 -0.067846984 9.9394352e-39 309 296
-0.012097999 0.69 -0.0677488 9.6639259e-39 310 296
-0.010856641 0.68800002 -0.067552425 9.6639259e-39 311 296
-0.0096503468 0.68800002 -0.067552425 9.7546894e-39 312 296
-0.0084440531 0.68800002 -0.067552425 9.6624938e-39 313 296
-0.0072272392 0.68699998 -0.067454241 9.4784725e-39 314 296
-0.0060226996 0.68699998 -0.067454241 9.4784725e-39 315 296
-0.0048111463 0.68599999 -0.06735605 9.3859237e-39 316 296
-0.00360836 0.68599999 -0.06735605 9.2015325e-39 317 296
-0.0024055731 0.68599999 -0.06735605 9.1082663e-39 318 296
-0.00119928 0.68400002 -0.067159683 9.0160706e-39 319 296
0 0.68400002 -0.067159683 8.8331185e-39 320 296
0.0011975267 0.68300003 -0.067061491 8.9256743e-39 321 296
0.0023950534 0.68300003 -0.067061491 9.3859265e-39 322 296
0.0035925799 0.68300003 -0.067061491 9.4781222e-39 323 296
0.0047901068 0.68300003 -0.067061491 9.3866426e-39 324 296
0.0059876335 0.68300003 -0.067061491 9.2026115e-39 325 296
0.00717464 0.68199998 -0.0669633 9.2026115e-39 326 296
0.0083704125 0.68199998 -0.0669633 9.3866426e-39 327 296
0.009566186 0.68199998 -0.0669633 9.4784725e-39 328 296
0.010761959 0.68199998 -0.0669633 9.4784725e-39 329 296
0.011957732 0.68199998 -0.0669633 9.3859139e-39 330 296
0.013153506 0.68199998 -0.0669633 9.2011625e-39 331 296
0.01434928 0.68199998 -0.0669633 9.0178531e-39 332 296
0.015545053 0.68199998 -0.0669633 8.9252987e-39 333 296
0.016765373 0.68300003 -0.067061491 8.7409103e-39 334 296
0.017962901 0.68300003 -0.067061491 8.5561603e-39 335 296
0.019160427 0.68300003 -0.067061491 8.1877491e-39 336 296
0.020357953 0.68300003 -0.067061491 8.2803049e-39 337 296
0.02155548 0.68300003 -0.067061491 8.4650492e-39 338 296
0.022753006 0.68300003 -0.067061491 8.9256673e-39 339 296
0.023950534 0.68300003 -0.067061491 9.5685045e-39 340 296
0.025184879 0.68400002 -0.067159683 9.5685045e-39 341 296
0.02638416 0.68400002 -0.067159683 1.0119513e-38 342 296
0.027583439 0.68400002 -0.067159683 1.039574e-38 343 296
0.02886688 0.68599999 -0.06735605 1.0397539e-38 344 296
0.030113498 0.68699998 -0.067454241 1.0674485e-38 345 296
0.031318039 0.68699998 -0.067454241 1.1042544e-38 346 296
0.032569919 0.68800002 -0.067552425 1.1318773e-38 347 296
0.0338744 0.69 -0.0677488 1.1595715e-38 348 296
0.035135046 0.69099998 -0.067846984 1.1871942e-38 349 296
0.036451802 0.69300002 -0.068043359 1.1873741e-38 350 296
0.037666857 0.69300002 -0.068043359 1.2058133e-38 351 296
0.038938027 0.69400001 -0.068141542 1.1875912e-38 352 296
0.040270556 0.69599998 -0.068337917 1.1875912e-38 353 296
0.041490879 0.69599998 -0.068337917 1.1512171e-38 354 296
0.042711195 0.69599998 -0.068337917 1.3079497e-38 355 296
0.043994639 0.69700003 -0.068436109 1.5478041e-38 356 296
-0.025773998 0.69999999 -0.069957994 1.1515784e-38 299 297
-0.024546666 0.69999999 -0.069957994 1.1504969e-38 300 297
-0.023252707 0.69800001 -0.069758117 1.2149978e-38 301 297
-0.02202888 0.69800001 -0.069758117 1.1965943e-38 302 297
-0.020805053 0.69800001 -0.069758117 1.1873388e-38 303 297
-0.019581227 0.69800001 -0.069758117 1.1414191e-38 304 297
-0.018331099 0.69700003 -0.069658175 1.0953214e-38 305 297
-0.017035386 0.69400001 -0.069358356 1.0676623e-38 306 297
-0.015818574 0.69400001 -0.069358356 1.0307842e-38 307 297
-0.014580719 0.69300002 -0.069258414 1.0031984e-38 308 297
-0.013327086 0.69099998 -0.069058537 9.939787e-39 309 297
-0.012097999 0.69 -0.068958595 9.7546866e-39 310 297
-0.010856641 0.68800002 -0.068758719 9.7546866e-39 311 297
-0.0096503468 0.68800002 -0.068758719 9.5713772e-39 312 297
-0.0084440531 0.68800002 -0.068758719 9.4788228e-39 313 297
-0.0072272392 0.68699998 -0.068658777 9.3862769e-39 314 297
-0.0060226996 0.68699998 -0.068658777 9.2940812e-39 315 297
-0.0048181596 0.68699998 -0.068658777 9.2015325e-39 316 297
-0.00360836 0.68599999 -0.068558842 9.0175e-39 317 297
-0.0024055731 0.68599999 -0.068558842 9.1086194e-39 318 297
-0.00119928 0.68400002 -0.068358958 9.1086194e-39 319 297
0 0.68400002 -0.068358958 9.017144e-39 320 297
0.0011975267 0.68300003 -0.068259016 9.2015353e-39 321 297
0.0023950534 0.68300003 -0.068259016 9.2937281e-39 322 297
0.0035925799 0.68300003 -0.068259016 9.3859237e-39 323 297
0.0047901068 0.68300003 -0.068259016 9.1104187e-39 324 297
0.0059876335 0.68300003 -0.068259016 9.0178643e-39 325 297
0.0071851597 0.68300003 -0.068259016 8.8352737e-39 326 297
0.0083704125 0.68199998 -0.068159081 8.8352737e-39 327 297
0.009566186 0.68199998 -0.068159081 9.3869957e-39 328 297
0.010761959 0.68199998 -0.068159081 9.3869957e-39 329 297
0.011957732 0.68199998 -0.068159081 9.3859111e-39 330 297
0.013153506 0.68199998 -0.068159081 9.3859111e-39 331 297
0.01434928 0.68199998 -0.068159081 9.2022387e-39 332 297
0.015545053 0.68199998 -0.068159081 9.0178475e-39 333 297
0.016765373 0.68300003 -0.068259016 8.7409103e-39 334 297
0.017962901 0.68300003 -0.068259016 8.3721277e-39 335 297
0.019160427 0.68300003 -0.068259016 8.188105e-39 336 297
0.020357953 0.68300003 -0.068259016 8.2803021e-39 337 297
0.02155548 0.68300003 -0.068259016 8.4650464e-39 338 297
0.022753006 0.68300003 -0.068259016 8.9260232e-39 339 297
0.023950534 0.68300003 -0.068259016 9.3859083e-39 340 297
0.025184879 0.68400002 -0.068358958 9.5702982e-39 341 297
0.02638416 0.68400002 -0.068358958 1.0029466e-38 342 297
0.027664091 0.68599999 -0.068558842 1.0397888e-38 343 297
0.02886688 0.68599999 -0.068558842 1.0582637e-38 344 297
0.030113498 0.68699998 -0.068658777 1.0858864e-38 345 297
0.031318039 0.68699998 -0.068658777 1.1318049e-38 346 297
0.032569919 0.68800002 -0.068758719 1.1502801e-38 347 297
0.0338744 0.69 -0.068958595 1.1687911e-38 348 297
0.035135046 0.69099998 -0.069058537 1.1871942e-38 349 297
0.036451802 0.69300002 -0.069258414 1.1782625e-38 350 297
0.037666857 0.69300002 -0.069258414 1.2058852e-38 351 297
0.038938027 0.69400001 -0.069358356 1.1692594e-38 352 297
0.040270556 0.69599998 -0.069558233 1.1416006e-38 353 297
0.041490879 0.69599998 -0.069558233 1.1326338e-38 354 297
0.042711195 0.69599998 -0.069558233 1.4184043e-38 355 297
-0.024546666 0.69999999 -0.071185328 1.261059e-38 300 298
-0.023319334 0.69999999 -0.071185328 1.2518395e-38 301 298
-0.022091998 0.69999999 -0.071185328 1.2427997e-38 302 298
-0.020864666 0.69999999 -0.071185328 1.2243247e-38 303 298
-0.019581227 0.69800001 -0.07098195 1.1507833e-38 304 298
-0.018331099 0.69700003 -0.070880257 1.0954659e-38 305 298
-0.017084479 0.69599998 -0.070778556 1.0861385e-38 306 298
-0.015818574 0.69400001 -0.07057517 1.0400406e-38 307 298
-0.01460176 0.69400001 -0.07057517 9.8490375e-39 308 298
-0.01336566 0.69300002 -0.070473477 9.6646462e-39 309 298
-0.012115533 0.69099998 -0.070270091 9.6632169e-39 310 298
-0.010888199 0.69 -0.070168398 9.5710213e-39 311 298
-0.0096503468 0.68800002 -0.06996502 9.4795473e-39 312 298
-0.0084440531 0.68800002 -0.06996502 9.3873517e-39 313 298
-0.0072272392 0.68699998 -0.069863312 9.110769e-39 314 298
-0.0060226996 0.68699998 -0.069863312 9.0185733e-39 315 298
-0.0048181596 0.68699998 -0.069863312 9.0175e-39 316 298
-0.00360836 0.68599999 -0.069761619 9.0175e-39 317 298
-0.0024055731 0.68599999 -0.069761619 8.9256673e-39 318 298
-0.0012027866 0.68599999 -0.069761619 8.9256673e-39 319 298
0 0.68400002 -0.06955824 9.0178643e-39 320 298
0.00119928 0.68400002 -0.06955824 9.0178643e-39 321 298
0.0023950534 0.68300003 -0.069456547 9.2926561e-39 322 298
0.0035925799 0.68300003 -0.069456547 9.2926561e-39 323 298
0.0047901068 0.68300003 -0.069456547 8.8345548e-39 324 298
0.0059876335 0.68300003 -0.069456547 9.018586e-39 325 298
0.00717464 0.68199998 -0.069354847 8.9274665e-39 326 298
0.0083704125 0.68199998 -0.069354847 8.9274665e-39 327 298
0.009566186 0.68199998 -0.069354847 9.2026115e-39 328 298
0.010761959 0.68199998 -0.069354847 9.2026115e-39 329 298
0.011957732 0.68199998 -0.069354847 9.3859139e-39 330 298
0.013153506 0.68199998 -0.069354847 9.2933596e-39 331 298
0.01434928 0.68199998 -0.069354847 9.3859111e-39 332 298
0.015545053 0.68199998 -0.069354847 9.1089641e-39 333 298
0.016765373 0.68300003 -0.069456547 8.9242197e-39 334 298
0.017962901 0.68300003 -0.069456547 8.647993e-39 335 298
0.01918848 0.68400002 -0.06955824 8.2806538e-39 336 298
0.020387759 0.68400002 -0.06955824 8.2806538e-39 337 298
0.02158704 0.68400002 -0.06955824 8.7409075e-39 338 298
0.022753006 0.68300003 -0.069456547 9.0178531e-39 339 298
0.023950534 0.68300003 -0.069456547 9.6617693e-39 340 298
0.025184879 0.68400002 -0.06955824 9.8465193e-39 341 298
0.02638416 0.68400002 -0.06955824 1.0398241e-38 342 298
0.027664091 0.68599999 -0.069761619 1.0582634e-38 343 298
0.02886688 0.68599999 -0.069761619 1.104181e-38 344 298
0.030113498 0.68699998 -0.069863312 1.122656e-38 345 298
0.031318039 0.68699998 -0.069863312 1.1319123e-38 346 298
0.032569919 0.68800002 -0.06996502 1.1503514e-38 347 298
0.0338744 0.69 -0.070168398 1.1596431e-38 348 298
0.035135046 0.69099998 -0.070270091 1.1873378e-38 349 298
0.036451802 0.69300002 -0.070473477 1.1783346e-38 350 298
0.037721213 0.69400001 -0.07057517 1.1967739e-38 351 298
0.038938027 0.69400001 -0.07057517 1.1693316e-38 352 298
0.040270556 0.69599998 -0.070778556 1.1417088e-38 353 298
0.041490879 0.69599998 -0.070778556 1.1878803e-38 354 298
0.042772565 0.69700003 -0.070880257 1.4921257e-38 355 298
-0.024581732 0.70099998 -0.072516106 1.3718733e-38 300 299
-0.023352645 0.70099998 -0.072516106 1.2981168e-38 301 299
-0.022091998 0.69999999 -0.072412662 1.2889309e-38 302 299
-0.020864666 0.69999999 -0.072412662 1.2796754e-38 303 299
-0.019581227 0.69800001 -0.072205767 1.2335053e-38 304 299
-0.018331099 0.69700003 -0.072102323 1.1874076e-38 305 299
-0.017084479 0.69599998 -0.071998879 1.1504939e-38 306 299
-0.015818574 0.69400001 -0.071791984 1.1136158e-38 307 299
-0.014580719 0.69300002 -0.07168854 1.0675551e-38 308 299
-0.01336566 0.69300002 -0.07168854 1.049116e-38 309 299
-0.012115533 0.69099998 -0.071481638 9.939438e-39 310 299
-0.010888199 0.69 -0.071378194 9.8468823e-39 311 299
-0.0096503468 0.68800002 -0.071171306 9.4788256e-39 312 299
-0.0084440531 0.68800002 -0.071171306 9.38663e-39 313 299
-0.0072272392 0.68699998 -0.071067855 9.385558e-39 314 299
-0.0060226996 0.68699998 -0.071067855 9.2011653e-39 315 299
-0.0048181596 0.68699998 -0.071067855 9.0182202e-39 316 299
-0.00360836 0.68599999 -0.070964411 8.9260232e-39 317 299
-0.0024055731 0.68599999 -0.070964411 8.834908e-39 318 299
-0.0012027866 0.68599999 -0.070964411 8.834908e-39 319 299
0 0.68400002 -0.070757523 9.2015353e-39 320 299
0.00119928 0.68400002 -0.070757523 9.2015353e-39 321 299
0.0023950534 0.68300003 -0.070654072 8.9256701e-39 322 299
0.0035925799 0.68300003 -0.070654072 8.9256701e-39 323 299
0.0047901068 0.68300003 -0.070654072 8.7430781e-39 324 299
0.0059876335 0.68300003 -0.070654072 8.8352737e-39 325 299
0.00717464 0.68199998 -0.070550621 8.6516055e-39 326 299
0.0083704125 0.68199998 -0.070550621 8.6516055e-39 327 299
0.009566186 0.68199998 -0.070550621 8.9274693e-39 328 299
0.010761959 0.68199998 -0.070550621 8.8352737e-39 329 299
0.011957732 0.68199998 -0.070550621 9.110769e-39 330 299
0.013153506 0.68199998 -0.070550621 9.0185733e-39 331 299
0.01434928 0.68199998 -0.070550621 9.1089669e-39 332 299
0.015567848 0.68300003 -0.070654072 9.0167713e-39 333 299
0.016765373 0.68300003 -0.070654072 8.5579483e-39 334 299
0.017962901 0.68300003 -0.070654072 8.4657527e-39 335 299
0.01918848 0.68400002 -0.070757523 8.5565162e-39 336 299
0.020387759 0.68400002 -0.070757523 8.5565162e-39 337 299
0.02158704 0.68400002 -0.070757523 8.3735669e-39 338 299
0.022753006 0.68300003 -0.070654072 8.7427081e-39 339 299
0.023950534 0.68300003 -0.070654072 9.1111165e-39 340 299
0.025184879 0.68400002 -0.070757523 9.4798976e-39 341 299
0.02638416 0.68400002 -0.070757523 1.0398241e-38 342 299
0.027664091 0.68599999 -0.070964411 1.0582634e-38 343 299
0.02886688 0.68599999 -0.070964411 1.1041813e-38 344 299
0.030113498 0.68699998 -0.071067855 1.13184e-38 345 299
0.031318039 0.68699998 -0.071067855 1.1320558e-38 346 299
0.032569919 0.68800002 -0.071171306 1.1504589e-38 347 299
0.033776212 0.68800002 -0.071171306 1.1781177e-38 348 299
0.035084199 0.69 -0.071378194 1.1965927e-38 349 299
0.036451802 0.69300002 -0.07168854 1.2150687e-38 350 299
0.037666857 0.69300002 -0.07168854 1.2519111e-38 351 299
0.039050236 0.69599998 -0.071998879 1.1970259e-38 352 299
0.040328421 0.69700003 -0.072102323 1.1970259e-38 353 299
0.041550495 0.69700003 -0.072102323 1.261709e-38 354 299
0.042833932 0.69800001 -0.072205767 1.5475513e-38 355 299
-0.023419274 0.70300001 -0.073955595 1.3260291e-38 301 300
-0.02218668 0.70300001 -0.073955595 1.371836e-38 302 300
-0.020894472 0.70099998 -0.073745191 1.3257382e-38 303 300
-0.019665385 0.70099998 -0.073745191 1.2338667e-38 304 300
-0.018409999 0.69999999 -0.073639996 1.1601101e-38 305 300
-0.017084479 0.69599998 -0.073219195 1.1507836e-38 306 300
-0.015864158 0.69599998 -0.073219195 1.0862466e-38 307 300
-0.014580719 0.69300002 -0.072903603 1.0494051e-38 308 300
-0.01336566 0.69300002 -0.072903603 1.0125267e-38 309 300
-0.012150601 0.69300002 -0.072903603 9.7561356e-39 310 300
-0.010888199 0.69 -0.072587997 9.66394e-39 311 300
-0.0096783992 0.69 -0.072587997 9.4791942e-39 312 300
-0.0084440531 0.68800002 -0.0723776 9.3869985e-39 313 300
-0.0072377604 0.68800002 -0.0723776 9.1111319e-39 314 300
-0.0060226996 0.68699998 -0.07227239 9.0189363e-39 315 300
-0.0048181596 0.68699998 -0.07227239 8.834908e-39 316 300
-0.00360836 0.68599999 -0.072167195 8.834908e-39 317 300
-0.0024055731 0.68599999 -0.072167195 8.834908e-39 318 300
-0.0012027866 0.68599999 -0.072167195 8.834908e-39 319 300
0 0.68400002 -0.071956798 9.2015325e-39 320 300
0.00119928 0.68400002 -0.071956798 8.8331087e-39 321 300
0.0023985601 0.68400002 -0.071956798 9.0164181e-39 322 300
0.0035925799 0.68300003 -0.071851604 9.2008094e-39 323 300
0.0047901068 0.68300003 -0.071851604 8.7434284e-39 324 300
0.0059876335 0.68300003 -0.071851604 8.7434284e-39 325 300
0.00717464 0.68199998 -0.071746394 8.7430725e-39 326 300
0.0083704125 0.68199998 -0.071746394 8.8356268e-39 327 300
0.009566186 0.68199998 -0.071746394 9.0185832e-39 328 300
0.010761959 0.68199998 -0.071746394 9.1111375e-39 329 300
0.011957732 0.68199998 -0.071746394 8.9281756e-39 330 300
0.013153506 0.68199998 -0.071746394 8.7434256e-39 331 300
0.014370319 0.68300003 -0.071851604 8.9263707e-39 332 300
0.015567848 0.68300003 -0.071851604 8.7419795e-39 333 300
0.016765373 0.68300003 -0.071851604 8.5586672e-39 334 300
0.0179892 0.68400002 -0.071956798 8.6508628e-39 335 300
0.01918848 0.68400002 -0.071956798 8.4661156e-39 336 300
0.020387759 0.68400002 -0.071956798 8.4661156e-39 337 300
0.02158704 0.68400002 -0.071956798 8.7401886e-39 338 300
0.022786319 0.68400002 -0.071956798 9.0167741e-39 339 300
0.0239856 0.68400002 -0.071956798 9.5695793e-39 340 300
0.025184879 0.68400002 -0.071956798 9.7539706e-39 341 300
0.026461305 0.68599999 -0.072167195 1.0581556e-38 342 300
0.027664091 0.68599999 -0.072167195 1.0765949e-38 343 300
0.02886688 0.68599999 -0.072167195 1.1134009e-38 344 300
0.030113498 0.68699998 -0.07227239 1.1410956e-38 345 300
0.031318039 0.68699998 -0.07227239 1.150387e-38 346 300
0.032569919 0.68800002 -0.0723776 1.1964489e-38 347 300
0.033776212 0.68800002 -0.0723776 1.1874092e-38 348 300
0.035084199 0.69 -0.072587997 1.2151037e-38 349 300
0.036451802 0.69300002 -0.072903603 1.2061007e-38 350 300
0.037666857 0.69300002 -0.072903603 1.2245398e-38 351 300
0.039106347 0.69700003 -0.073324397 1.2338682e-38 352 300
0.040386278 0.69800001 -0.073429599 1.2523432e-38 353 300
0.041610107 0.69800001 -0.073429599 1.3447576e-38 354 300
0.042956665 0.69999999 -0.073639996 1.5844302e-38 355 300
-0.023452586 0.704 -0.075295143 1.3263905e-38 301 301
-0.02218668 0.70300001 -0.07518819 1.3720155e-38 302 301
-0.020954086 0.70300001 -0.07518819 1.3259177e-38 303 301
-0.019721493 0.70300001 -0.07518819 1.3165884e-38 304 301
-0.018409999 0.69999999 -0.07486733 1.2705265e-38 305 301
-0.017109027 0.69700003 -0.074546471 1.2060258e-38 306 301
-0.015886955 0.69700003 -0.074546471 1.1507443e-38 307 301
-0.014643839 0.69599998 -0.074439511 1.1229075e-38 308 301
-0.01336566 0.69300002 -0.074118659 1.0860652e-38 309 301
-0.012150601 0.69300002 -0.074118659 1.0124545e-38 310 301
-0.01090398 0.69099998 -0.073904753 1.003235e-38 311 301
-0.0096924258 0.69099998 -0.073904753 9.8476053e-39 312 301
-0.0084686 0.69 -0.0737978 9.6635728e-39 313 301
-0.0072377604 0.68800002 -0.073583893 9.5713772e-39 314 301
-0.0060226996 0.68699998 -0.073476933 9.3866272e-39 315 301
-0.0048181596 0.68699998 -0.073476933 9.2940784e-39 316 301
-0.0036136196 0.68699998 -0.073476933 9.2940784e-39 317 301
-0.0024090798 0.68699998 -0.073476933 9.110413e-39 318 301
-0.0012045399 0.68699998 -0.073476933 9.0182174e-39 319 301
0 0.68599999 -0.073369987 9.0174971e-39 320 301
0.0012027866 0.68599999 -0.073369987 8.9253015e-39 321 301
0.0023985601 0.68400002 -0.073156074 8.7416291e-39 322 301
0.00359784 0.68400002 -0.073156074 8.8338248e-39 323 301
0.0047971201 0.68400002 -0.073156074 8.6501594e-39 324 301
0.0059876335 0.68300003 -0.073049128 8.742355e-39 325 301
0.0071851597 0.68300003 -0.073049128 8.650881e-39 326 301
0.0083704125 0.68199998 -0.072942168 8.7430781e-39 327 301
0.009566186 0.68199998 -0.072942168 8.835624e-39 328 301
0.010761959 0.68199998 -0.072942168 8.9278197e-39 329 301
0.011957732 0.68199998 -0.072942168 9.1111193e-39 330 301
0.013172794 0.68300003 -0.073049128 9.0189237e-39 331 301
0.014370319 0.68300003 -0.073049128 8.9267238e-39 332 301
0.015567848 0.68300003 -0.073049128 8.9267238e-39 333 301
0.016765373 0.68300003 -0.073049128 8.9267238e-39 334 301
0.0179892 0.68400002 -0.073156074 8.9267238e-39 335 301
0.01918848 0.68400002 -0.073156074 9.1089641e-39 336 301
0.020387759 0.68400002 -0.073156074 8.9245728e-39 337 301
0.02158704 0.68400002 -0.073156074 8.7405445e-39 338 301
0.022786319 0.68400002 -0.073156074 9.1089669e-39 339 301
0.0239856 0.68400002 -0.073156074 9.1121885e-39 340 301
0.025184879 0.68400002 -0.073156074 9.3891341e-39 341 301
0.026461305 0.68599999 -0.073369987 1.0398962e-38 342 301
0.027664091 0.68599999 -0.073369987 1.0768103e-38 343 301
0.028908957 0.68699998 -0.073476933 1.1226926e-38 344 301
0.030113498 0.68699998 -0.073476933 1.1411319e-38 345 301
0.031318039 0.68699998 -0.073476933 1.1413119e-38 346 301
0.032569919 0.68800002 -0.073583893 1.1781543e-38 347 301
0.033776212 0.68800002 -0.073583893 1.1875895e-38 348 301
0.035084199 0.69 -0.0737978 1.2060288e-38 349 301
0.036451802 0.69300002 -0.074118659 1.2428716e-38 350 301
0.037829921 0.69599998 -0.074439511 1.2705304e-38 351 301
0.039162453 0.69800001 -0.074653424 1.2524151e-38 352 301
0.040502001 0.69999999 -0.07486733 1.2985131e-38 353 301
0.041729331 0.69999999 -0.07486733 1.3174948e-38 354 301
0.043018032 0.70099998 -0.074974284 1.5111056e-38 355 301
0.044436477 0.704 -0.075295143 1.4380719e-38 356 301
-0.023452586 0.704 -0.076529488 1.3819964e-38 301 302
-0.022218239 0.704 -0.076529488 1.372197e-38 302 302
-0.020983893 0.704 -0.076529488 1.3076601e-38 303 302
-0.019721493 0.70300001 -0.076420791 1.2984388e-38 304 302
-0.018436298 0.70099998 -0.076203369 1.2431216e-38 305 302
-0.017133573 0.69800001 -0.075877249 1.2154627e-38 306 302
-0.015909746 0.69800001 -0.075877249 1.1417062e-38 307 302
-0.01466488 0.69700003 -0.075768545 1.123089e-38 308 302
-0.013423519 0.69599998 -0.075659841 1.0770271e-38 309 302
-0.012150601 0.69300002 -0.075333714 1.0309307e-38 310 302
-0.01090398 0.69099998 -0.075116299 1.0124914e-38 311 302
-0.0096924258 0.69099998 -0.075116299 9.849406e-39 312 302
-0.008480873 0.69099998 -0.075116299 9.7572104e-39 313 302
-0.0072377604 0.68800002 -0.074790187 9.7564915e-39 314 302
-0.0060314666 0.68800002 -0.074790187 9.5717401e-39 315 302
-0.0048181596 0.68699998 -0.074681476 9.4795473e-39 316 302
-0.0036136196 0.68699998 -0.074681476 9.4795473e-39 317 302
-0.0024090798 0.68699998 -0.074681476 9.3873489e-39 318 302
-0.0012045399 0.68699998 -0.074681476 9.2033177e-39 319 302
0 0.68599999 -0.074572764 9.0192866e-39 320 302
0.0012027866 0.68599999 -0.074572764 8.8352555e-39 321 302
0.0024055731 0.68599999 -0.074572764 8.7430613e-39 322 302
0.00360836 0.68599999 -0.074572764 8.6508656e-39 323 302
0.0048111463 0.68599999 -0.074572764 8.7416263e-39 324 302
0.0059876335 0.68300003 -0.074246652 8.7416263e-39 325 302
0.0071851597 0.68300003 -0.074246652 8.6501566e-39 326 302
0.0083704125 0.68199998 -0.074137948 8.7423522e-39 327 302
0.009566186 0.68199998 -0.074137948 9.0189363e-39 328 302
0.01077774 0.68300003 -0.074246652 9.2036863e-39 329 302
0.011975267 0.68300003 -0.074246652 9.3873489e-39 330 302
0.013172794 0.68300003 -0.074246652 9.2033177e-39 331 302
0.014370319 0.68300003 -0.074246652 9.2036709e-39 332 302
0.01559064 0.68400002 -0.074355356 9.2036709e-39 333 302
0.016789921 0.68400002 -0.074355356 9.2036709e-39 334 302
0.0179892 0.68400002 -0.074355356 9.2036709e-39 335 302
0.01918848 0.68400002 -0.074355356 9.2937127e-39 336 302
0.020387759 0.68400002 -0.074355356 9.2015157e-39 337 302
0.02158704 0.68400002 -0.074355356 9.1093172e-39 338 302
0.022786319 0.68400002 -0.074355356 9.3862643e-39 339 302
0.0239856 0.68400002 -0.074355356 9.5717247e-39 340 302
0.025258519 0.68599999 -0.074572764 9.9405072e-39 341 302
0.026461305 0.68599999 -0.074572764 1.0675188e-38 342 302
0.027704418 0.68699998 -0.074681476 1.1043611e-38 343 302
0.028908957 0.68699998 -0.074681476 1.1135455e-38 344 302
0.030113498 0.68699998 -0.074681476 1.1504236e-38 345 302
0.031363625 0.68800002 -0.074790187 1.1687555e-38 346 302
0.032569919 0.68800002 -0.074790187 1.2148533e-38 347 302
0.0338744 0.69 -0.075007595 1.2151051e-38 348 302
0.035135046 0.69099998 -0.075116299 1.2427997e-38 349 302
0.036451802 0.69300002 -0.075333714 1.2521279e-38 350 302
0.037829921 0.69599998 -0.075659841 1.270567e-38 351 302
0.039162453 0.69800001 -0.075877249 1.2524525e-38 352 302
0.040502001 0.69999999 -0.076094657 1.2985502e-38 353 302
0.041788943 0.70099998 -0.076203369 1.3174598e-38 354 302
0.043140765 0.70300001 -0.076420791 1.4741925e-38 355 302
-0.022281358 0.70599997 -0.07798475 1.4460984e-38 302 303
-0.021043506 0.70599997 -0.07798475 1.3078048e-38 303 303
-0.019749546 0.704 -0.077763841 1.3351733e-38 304 303
-0.018436298 0.70099998 -0.077432454 1.3074786e-38 305 303
-0.017182667 0.69999999 -0.077321991 1.2522335e-38 306 303
-0.015909746 0.69800001 -0.077101074 1.1876966e-38 307 303
-0.01466488 0.69700003 -0.076990619 1.1507836e-38 308 303
-0.013442807 0.69700003 -0.076990619 1.1138693e-38 309 303
-0.012168133 0.69400001 -0.07665924 1.0677366e-38 310 303
-0.010935539 0.69300002 -0.076548778 1.0492975e-38 311 303
-0.0096924258 0.69099998 -0.076327853 1.0217465e-38 312 303
-0.008480873 0.69099998 -0.076327853 9.94088e-39 313 303
-0.0072587994 0.69 -0.076217398 1.0031999e-38 314 303
-0.0060489997 0.69 -0.076217398 9.9398038e-39 315 303
-0.0048251734 0.68800002 -0.075996481 9.8476081e-39 316 303
-0.0036188802 0.68800002 -0.075996481 9.6632169e-39 317 303
-0.0024125867 0.68800002 -0.075996481 9.572096e-39 318 303
-0.0012062934 0.68800002 -0.075996481 9.4795417e-39 319 303
0 0.68800002 -0.075996481 9.2040338e-39 320 303
0.0012045399 0.68699998 -0.075886011 9.0196425e-39 321 303
0.0024090798 0.68699998 -0.075886011 8.8359743e-39 322 303
0.0036136196 0.68699998 -0.075886011 8.7437787e-39 323 303
0.0048181596 0.68699998 -0.075886011 8.6505097e-39 324 303
0.0060139326 0.68599999 -0.075775556 8.4661184e-39 325 303
0.0071956799 0.68400002 -0.075554639 8.7412732e-39 326 303
0.0083826864 0.68300003 -0.075444184 8.9260232e-39 327 303
0.0095802136 0.68300003 -0.075444184 8.9278197e-39 328 303
0.01077774 0.68300003 -0.075444184 9.0200153e-39 329 303
0.011975267 0.68300003 -0.075444184 9.5710241e-39 330 303
0.01319208 0.68400002 -0.075554639 9.5710241e-39 331 303
0.01439136 0.68400002 -0.075554639 9.5720932e-39 332 303
0.01559064 0.68400002 -0.075554639 9.4798976e-39 333 303
0.016839013 0.68599999 -0.075775556 9.6639259e-39 334 303
0.018041799 0.68599999 -0.075775556 9.5713716e-39 335 303
0.019244585 0.68599999 -0.075775556 9.7539678e-39 336 303
0.020447372 0.68599999 -0.075775556 9.6617721e-39 337 303
0.021650158 0.68599999 -0.075775556 9.4791759e-39 338 303
0.022852944 0.68599999 -0.075775556 9.6639259e-39 339 303
0.024055731 0.68599999 -0.075775556 1.0215296e-38 340 303
0.025295338 0.68699998 -0.075886011 1.0492242e-38 341 303
0.026499879 0.68699998 -0.075886011 1.0767747e-38 342 303
0.027704418 0.68699998 -0.075886011 1.1044334e-38 343 303
0.028908957 0.68699998 -0.075886011 1.1228009e-38 344 303
0.030113498 0.68699998 -0.075886011 1.1504236e-38 345 303
0.031363625 0.68800002 -0.075996481 1.1780474e-38 346 303
0.032664597 0.69 -0.076217398 1.2241451e-38 347 303
0.0338744 0.69 -0.076217398 1.2059582e-38 348 303
0.035135046 0.69099998 -0.076327853 1.2520558e-38 349 303
0.036504399 0.69400001 -0.07665924 1.2430165e-38 350 303
0.037938625 0.69800001 -0.077101074 1.2706392e-38 351 303
0.039274666 0.69999999 -0.077321991 1.234015e-38 352 303
0.040559858 0.70099998 -0.077432454 1.2524541e-38 353 303
0.041908171 0.70300001 -0.077653378 1.1795278e-38 354 303
-0.022281358 0.70599997 -0.079222605 1.5569145e-38 302 304
-0.021043506 0.70599997 -0.079222605 1.3540841e-38 303 304
-0.019749546 0.704 -0.078998186 1.3719452e-38 304 304
-0.018488899 0.70300001 -0.078885972 1.3351029e-38 305 304
-0.017207211 0.70099998 -0.078661539 1.2890767e-38 306 304
-0.015909746 0.69800001 -0.078324907 1.2245398e-38 307 304
-0.01466488 0.69700003 -0.078212693 1.2151402e-38 308 304
-0.013442807 0.69700003 -0.078212693 1.1690782e-38 309 304
-0.0122032 0.69599998 -0.078100473 1.1137977e-38 310 304
-0.010935539 0.69300002 -0.077763841 1.0953227e-38 311 304
-0.0097204801 0.69300002 -0.077763841 1.067665e-38 312 304
-0.008480873 0.69099998 -0.077539407 1.0399703e-38 313 304
-0.0072693196 0.69099998 -0.077539407 1.0124561e-38 314 304
-0.0060577663 0.69099998 -0.077539407 9.848334e-39 315 304
-0.0048391996 0.69 -0.077427194 9.8483312e-39 316 304
-0.0036188802 0.68800002 -0.077202775 9.7561356e-39 317 304
-0.0024125867 0.68800002 -0.077202775 9.6642931e-39 318 304
-0.0012062934 0.68800002 -0.077202775 9.572096e-39 319 304
0 0.68800002 -0.077202775 9.4788228e-39 320 304
0.0012045399 0.68699998 -0.077090554 9.4788228e-39 321 304
0.0024090798 0.68699998 -0.077090554 9.111841e-39 322 304
0.0036136196 0.68699998 -0.077090554 9.0192866e-39 323 304
0.0048181596 0.68699998 -0.077090554 9.2018828e-39 324 304
0.0060226996 0.68699998 -0.077090554 8.9256546e-39 325 304
0.0072167199 0.68599999 -0.076978341 9.0174971e-39 326 304
0.0084195063 0.68599999 -0.076978341 9.294084e-39 327 304
0.0095942402 0.68400002 -0.076753922 9.4784725e-39 328 304
0.01079352 0.68400002 -0.076753922 9.5706681e-39 329 304
0.0119928 0.68400002 -0.076753922 1.0029847e-38 330 304
0.01319208 0.68400002 -0.076753922 1.0122044e-38 331 304
0.01439136 0.68400002 -0.076753922 1.0214949e-38 332 304
0.015636226 0.68599999 -0.076978341 1.0214949e-38 333 304
0.016839013 0.68599999 -0.076978341 1.0214943e-38 334 304
0.018068098 0.68699998 -0.077090554 1.0122747e-38 335 304
0.019272638 0.68699998 -0.077090554 1.0122747e-38 336 304
0.020477179 0.68699998 -0.077090554 1.0307139e-38 337 304
0.021681719 0.68699998 -0.077090554 1.0490807e-38 338 304
0.022886258 0.68699998 -0.077090554 1.0675198e-38 339 304
0.024090799 0.68699998 -0.077090554 1.0858869e-38 340 304
0.025295338 0.68699998 -0.077090554 1.104326e-38 341 304
0.026499879 0.68699998 -0.077090554 1.1228009e-38 342 304
0.027744746 0.68800002 -0.077202775 1.1320205e-38 343 304
0.028951041 0.68800002 -0.077202775 1.1595715e-38 344 304
0.030157333 0.68800002 -0.077202775 1.1871942e-38 345 304
0.031454802 0.69 -0.077427194 1.1965587e-38 346 304
0.032711938 0.69099998 -0.077539407 1.2149978e-38 347 304
0.033923492 0.69099998 -0.077539407 1.2335811e-38 348 304
0.035236739 0.69300002 -0.077763841 1.2612758e-38 349 304
0.036504399 0.69400001 -0.077876054 1.2430528e-38 350 304
0.037884273 0.69700003 -0.078212693 1.2430528e-38 351 304
0.039162453 0.69800001 -0.078324907 1.2155408e-38 352 304
-0.021043506 0.70599997 -0.080460466 1.4467136e-38 303 305
-0.019805651 0.70599997 -0.080460466 1.4365564e-38 304 305
-0.018515198 0.704 -0.080232531 1.3535803e-38 305 305
-0.017256306 0.70300001 -0.080118567 1.3533991e-38 306 305
-0.015978126 0.70099998 -0.079890631 1.2980818e-38 307 305
-0.014727999 0.69999999 -0.079776667 1.2245404e-38 308 305
-0.013462093 0.69800001 -0.079548739 1.1784065e-38 309 305
-0.0122032 0.69599998 -0.079320796 1.1231619e-38 310 305
-0.01095132 0.69400001 -0.079092868 1.0862835e-38 311 305
-0.0097204801 0.69300002 -0.078978904 1.0584817e-38 312 305
-0.0085054198 0.69300002 -0.078978904 1.0308589e-38 313 305
-0.0072693196 0.69099998 -0.078750968 1.0123845e-38 314 305
-0.0060577663 0.69099998 -0.078750968 1.0031649e-38 315 305
-0.0048462129 0.69099998 -0.078750968 9.7565013e-39 316 305
-0.0036188802 0.68800002 -0.078409068 9.7565013e-39 317 305
-0.0024125867 0.68800002 -0.078409068 9.7568544e-39 318 305
-0.0012097999 0.69 -0.078636996 9.4806277e-39 319 305
0 0.68800002 -0.078409068 9.5717429e-39 320 305
0.0012045399 0.68699998 -0.078295097 9.3873517e-39 321 305
0.0024090798 0.68699998 -0.078295097 9.3869957e-39 322 305
0.0036136196 0.68699998 -0.078295097 9.2029646e-39 323 305
0.0048181596 0.68699998 -0.078295097 9.3852049e-39 324 305
0.0060226996 0.68699998 -0.078295097 9.2930092e-39 325 305
0.0072272392 0.68699998 -0.078295097 9.2036807e-39 326 305
0.0084317802 0.68699998 -0.078295097 9.2958763e-39 327 305
0.0096363192 0.68699998 -0.078295097 9.8468851e-39 328 305
0.010840859 0.68699998 -0.078295097 9.8468851e-39 329 305
0.012045399 0.68699998 -0.078295097 1.0122397e-38 330 305
0.013249939 0.68699998 -0.078295097 1.0306788e-38 331 305
0.014454478 0.68699998 -0.078295097 1.0583005e-38 332 305
0.015659019 0.68699998 -0.078295097 1.0583005e-38 333 305
0.01686356 0.68699998 -0.078295097 1.039969e-38 334 305
0.018068098 0.68699998 -0.078295097 1.039969e-38 335 305
0.019272638 0.68699998 -0.078295097 1.0399337e-38 336 305
0.020477179 0.68699998 -0.078295097 1.0675923e-38 337 305
0.021681719 0.68699998 -0.078295097 1.0950712e-38 338 305
0.022886258 0.68699998 -0.078295097 1.1135104e-38 339 305
0.024090799 0.68699998 -0.078295097 1.113546e-38 340 305
