# .PCD v.7 - Point Cloud Data file format
FIELDS x y z rgb imX imY
SIZE 4 4 4 4 4 4
TYPE F F F F F F
COUNT 1 1 1 1 1 1
WIDTH 830
HEIGHT 1
VIEWPOINT 0 0 0 1 0 0 0
POINTS 830
DATA ascii
0.0095942402 0.68400002 -0.063561834 1.113151e-38 328 293
0.01077774 0.68300003 -0.063468911 1.1315901e-38 329 293
0.011975267 0.68300003 -0.063468911 1.1961255e-38 330 293
0.013172794 0.68300003 -0.063468911 1.2237482e-38 331 293
0.014370319 0.68300003 -0.063468911 1.2146719e-38 332 293
0.015567848 0.68300003 -0.063468911 1.2054523e-38 333 293
0.016765373 0.68300003 -0.063468911 1.1778659e-38 334 293
0.017962901 0.68300003 -0.063468911 1.1502071e-38 335 293
0.019160427 0.68300003 -0.063468911 1.1409522e-38 336 293
0.020357953 0.68300003 -0.063468911 1.1225491e-38 337 293
0.02155548 0.68300003 -0.063468911 1.085815e-38 338 293
0.022719691 0.68199998 -0.063375987 1.06734e-38 339 293
0.023915464 0.68199998 -0.063375987 1.0579766e-38 340 293
0.02514806 0.68300003 -0.063468911 1.0763797e-38 341 293
0.026345588 0.68300003 -0.063468911 1.02135e-38 342 293
0.027543113 0.68300003 -0.063468911 1.02135e-38 343 293
0.028740639 0.68300003 -0.063468911 9.8465193e-39 344 293
0.029938167 0.68300003 -0.063468911 1.003055e-38 345 293
0.03118128 0.68400002 -0.063561834 1.0396819e-38 346 293
0.032380559 0.68400002 -0.063561834 1.0396819e-38 347 293
0.033579841 0.68400002 -0.063561834 1.0396822e-38 348 293
0.034880809 0.68599999 -0.063747689 1.0304626e-38 349 293
0.036083598 0.68599999 -0.063747689 9.6614218e-39 350 293
0.037286382 0.68599999 -0.063747689 9.6614218e-39 351 293
0.038545277 0.68699998 -0.06384062 9.110413e-39 352 293
0.039749816 0.68699998 -0.06384062 9.0182174e-39 353 293
0.040954359 0.68699998 -0.06384062 8.5568889e-39 354 293
0.042158898 0.68699998 -0.06384062 8.4646933e-39 355 293
0.043363437 0.68699998 -0.06384062 8.741276e-39 356 293
0.044632856 0.68800002 -0.063933544 8.9256673e-39 357 293
0.045839146 0.68800002 -0.063933544 9.2008094e-39 358 293
0.047182199 0.69 -0.064119399 9.2933652e-39 359 293
0.04846213 0.69099998 -0.06421233 9.294084e-39 360 293
0.049889345 0.69400001 -0.064491108 9.4784753e-39 361 293
0.051253434 0.69599998 -0.064676955 9.8483368e-39 362 293
0.052549154 0.69700003 -0.064769886 1.0585902e-38 363 293
0.053771228 0.69700003 -0.064769886 1.1139076e-38 364 293
0.054914396 0.69599998 -0.064676955 1.2152867e-38 365 293
0.056134716 0.69599998 -0.064676955 1.2064287e-38 366 293
0.057519849 0.69800001 -0.06486281 1.7227242e-38 367 293
-0.014791119 0.70300001 -0.066560037 1.5012356e-38 308 294
-0.013519952 0.70099998 -0.066370681 1.4551736e-38 309 294
-0.012273333 0.69999999 -0.066275999 1.5467534e-38 310 294
-0.011045999 0.69999999 -0.066275999 1.4914361e-38 311 294
-0.0097906133 0.69800001 -0.066086642 1.4545206e-38 312 294
-0.0085545136 0.69700003 -0.06599196 1.4084587e-38 313 294
-0.0073219193 0.69599998 -0.065897278 1.3896966e-38 314 294
-0.0060840664 0.69400001 -0.065707922 1.3436346e-38 315 294
-0.0048672534 0.69400001 -0.065707922 1.2975741e-38 316 294
-0.0036451798 0.69300002 -0.06561324 1.2790991e-38 317 294
-0.00243012 0.69300002 -0.06561324 1.2422933e-38 318 294
-0.00121506 0.69300002 -0.06561324 1.2054152e-38 319 294
0 0.69 -0.065329194 1.1501699e-38 320 294
0.0012062934 0.68800002 -0.065139838 1.1317308e-38 321 294
0.0024125867 0.68800002 -0.065139838 1.094997e-38 322 294
0.0036136196 0.68699998 -0.065045156 1.094997e-38 323 294
0.0048111463 0.68599999 -0.064950474 1.0765233e-38 324 294
0.0059964 0.68400002 -0.064761117 1.0580482e-38 325 294
0.0071956799 0.68400002 -0.064761117 1.0763446e-38 326 294
0.0083949603 0.68400002 -0.064761117 1.0579415e-38 327 294
0.0095942402 0.68400002 -0.064761117 1.067305e-38 328 294
0.01077774 0.68300003 -0.064666435 1.0949996e-38 329 294
0.011975267 0.68300003 -0.064666435 1.1410965e-38 330 294
0.013172794 0.68300003 -0.064666435 1.1595715e-38 331 294
0.014370319 0.68300003 -0.064666435 1.1871574e-38 332 294
0.015567848 0.68300003 -0.064666435 1.1871574e-38 333 294
0.016765373 0.68300003 -0.064666435 1.1411674e-38 334 294
0.017962901 0.68300003 -0.064666435 1.131912e-38 335 294
0.019160427 0.68300003 -0.064666435 1.1042539e-38 336 294
0.020357953 0.68300003 -0.064666435 1.0950343e-38 337 294
0.02155548 0.68300003 -0.064666435 1.0581931e-38 338 294
0.022719691 0.68199998 -0.064571753 1.0305342e-38 339 294
0.023915464 0.68199998 -0.064571753 9.9362108e-39 340 294
0.02514806 0.68300003 -0.064666435 9.9362108e-39 341 294
0.026345588 0.68300003 -0.064666435 9.5699423e-39 342 294
0.027543113 0.68300003 -0.064666435 9.5699423e-39 343 294
0.028740639 0.68300003 -0.064666435 9.7539706e-39 344 294
0.029938167 0.68300003 -0.064666435 9.7539706e-39 345 294
0.031135695 0.68300003 -0.064666435 9.9369297e-39 346 294
0.032380559 0.68400002 -0.064761117 9.9369297e-39 347 294
0.033579841 0.68400002 -0.064761117 9.6610687e-39 348 294
0.034880809 0.68599999 -0.064950474 9.4766774e-39 349 294
0.036083598 0.68599999 -0.064950474 9.200815e-39 350 294
0.037286382 0.68599999 -0.064950474 9.200815e-39 351 294
0.038545277 0.68699998 -0.065045156 8.7423578e-39 352 294
0.039749816 0.68699998 -0.065045156 8.5576078e-39 353 294
0.040954359 0.68699998 -0.065045156 8.465415e-39 354 294
0.042158898 0.68699998 -0.065045156 8.465415e-39 355 294
0.043426562 0.68800002 -0.065139838 8.3742984e-39 356 294
0.044632856 0.68800002 -0.065139838 8.466494e-39 357 294
0.045839146 0.68800002 -0.065139838 8.9256701e-39 358 294
0.047182199 0.69 -0.065329194 8.9256701e-39 359 294
0.04846213 0.69099998 -0.065423876 9.0178699e-39 360 294
0.049889345 0.69400001 -0.065707922 9.3862923e-39 361 294
0.051253434 0.69599998 -0.065897278 9.2976938e-39 362 294
0.052549154 0.69700003 -0.06599196 1.0127813e-38 363 294
0.053771228 0.69700003 -0.06599196 1.1506426e-38 364 294
0.054914396 0.69599998 -0.065897278 1.2612774e-38 365 294
0.056134716 0.69599998 -0.065897278 1.2983727e-38 366 294
0.05743745 0.69700003 -0.06599196 1.8699856e-38 367 294
-0.014791119 0.70300001 -0.067792632 1.5292185e-38 308 295
-0.013519952 0.70099998 -0.067599766 1.4278393e-38 309 295
-0.012273333 0.69999999 -0.067503333 1.5009449e-38 310 295
-0.011045999 0.69999999 -0.067503333 1.4640667e-38 311 295
-0.0097906133 0.69800001 -0.06731046 1.4454111e-38 312 295
-0.0085667865 0.69800001 -0.06731046 1.3993132e-38 313 295
-0.0073219193 0.69599998 -0.067117594 1.3714025e-38 314 295
-0.0060840664 0.69400001 -0.066924736 1.3529275e-38 315 295
-0.0048672534 0.69400001 -0.066924736 1.3068655e-38 316 295
-0.0036451798 0.69300002 -0.066828303 1.2699874e-38 317 295
-0.00243012 0.69300002 -0.066828303 1.2424005e-38 318 295
-0.00121506 0.69300002 -0.066828303 1.1963028e-38 319 295
0 0.69 -0.066538997 1.1502774e-38 320 295
0.0012062934 0.68800002 -0.066346131 1.1041797e-38 321 295
0.0024125867 0.68800002 -0.066346131 1.094997e-38 322 295
0.0036136196 0.68699998 -0.066249698 1.0765581e-38 323 295
0.0048111463 0.68599999 -0.066153266 1.0948898e-38 324 295
0.0059964 0.68400002 -0.0659604 1.0764147e-38 325 295
0.0071956799 0.68400002 -0.0659604 1.0580482e-38 326 295
0.0083949603 0.68400002 -0.0659604 1.0673036e-38 327 295
0.0095942402 0.68400002 -0.0659604 1.1041816e-38 328 295
0.01079352 0.68400002 -0.0659604 1.1318403e-38 329 295
0.011975267 0.68300003 -0.065863967 1.168718e-38 330 295
0.013172794 0.68300003 -0.065863967 1.1779375e-38 331 295
0.014370319 0.68300003 -0.065863967 1.187193e-38 332 295
0.015567848 0.68300003 -0.065863967 1.168718e-38 333 295
0.016765373 0.68300003 -0.065863967 1.1135455e-38 334 295
0.017962901 0.68300003 -0.065863967 1.0951062e-38 335 295
0.019160427 0.68300003 -0.065863967 1.0582652e-38 336 295
0.020357953 0.68300003 -0.065863967 1.0398261e-38 337 295
0.02155548 0.68300003 -0.065863967 1.0121324e-38 338 295
0.022719691 0.68199998 -0.065767527 9.9369325e-39 339 295
0.023915464 0.68199998 -0.065767527 9.7518224e-39 340 295
0.025111238 0.68199998 -0.065767527 9.7518224e-39 341 295
0.026345588 0.68300003 -0.065863967 9.2933596e-39 342 295
0.027543113 0.68300003 -0.065863967 9.2011625e-39 343 295
0.028740639 0.68300003 -0.065863967 9.5685045e-39 344 295
0.029938167 0.68300003 -0.065863967 9.7525356e-39 345 295
0.031135695 0.68300003 -0.065863967 9.8440152e-39 346 295
0.032333218 0.68300003 -0.065863967 9.8440152e-39 347 295
0.033678025 0.68599999 -0.066153266 9.4756012e-39 348 295
0.034880809 0.68599999 -0.066153266 9.29121e-39 349 295
0.036083598 0.68599999 -0.066153266 9.016065e-39 350 295
0.037340738 0.68699998 -0.066249698 9.016065e-39 351 295
0.038545277 0.68699998 -0.066249698 8.7412788e-39 352 295
0.039749816 0.68699998 -0.066249698 8.5568889e-39 353 295
0.040954359 0.68699998 -0.066249698 8.1899043e-39 354 295
0.042220265 0.68800002 -0.066346131 8.3742955e-39 355 295
0.043426562 0.68800002 -0.066346131 8.466494e-39 356 295
0.044632856 0.68800002 -0.066346131 8.3742984e-39 357 295
0.045972396 0.69 -0.066538997 8.9245981e-39 358 295
0.047250576 0.69099998 -0.06663543 8.9245981e-39 359 295
0.04846213 0.69099998 -0.06663543 8.9249652e-39 360 295
0.049889345 0.69400001 -0.066924736 9.385942e-39 361 295
0.051253434 0.69599998 -0.067117594 9.664684e-39 362 295
0.052549154 0.69700003 -0.067214034 1.0310053e-38 363 295
0.053539783 0.69400001 -0.066924736 1.1414596e-38 364 295
0.054756597 0.69400001 -0.066924736 1.3074478e-38 365 295
0.055973411 0.69400001 -0.066924736 1.3633782e-38 366 295
0.05743745 0.69700003 -0.067214034 1.8888933e-38 367 295
-0.014791119 0.70300001 -0.069025226 1.639998e-38 308 296
-0.013519952 0.70099998 -0.068828844 1.4556069e-38 309 296
-0.012290866 0.70099998 -0.068828844 1.4918698e-38 310 296
-0.011045999 0.69999999 -0.068730667 1.4549916e-38 311 296
-0.0097906133 0.69800001 -0.068534292 1.4821817e-38 312 296
-0.0085667865 0.69800001 -0.068534292 1.4268645e-38 313 296
-0.0073219193 0.69599998 -0.068337917 1.3898417e-38 314 296
-0.0060840664 0.69400001 -0.068141542 1.3621829e-38 315 296
-0.0048672534 0.69400001 -0.068141542 1.3161204e-38 316 296
-0.0036451798 0.69300002 -0.068043359 1.2976454e-38 317 296
-0.00243012 0.69300002 -0.068043359 1.2425435e-38 318 296
-0.0012115532 0.69099998 -0.067846984 1.2056293e-38 319 296
0 0.69 -0.0677488 1.1595323e-38 320 296
0.0012062934 0.68800002 -0.067552425 1.1226542e-38 321 296
0.0024125867 0.68800002 -0.067552425 1.1134715e-38 322 296
0.0036136196 0.68699998 -0.067454241 1.104216e-38 323 296
0.0048111463 0.68599999 -0.06735605 1.0948896e-38 324 296
0.0059964 0.68400002 -0.067159683 1.0764503e-38 325 296
0.0071956799 0.68400002 -0.067159683 1.0673751e-38 326 296
0.0083949603 0.68400002 -0.067159683 1.0858501e-38 327 296
0.0095942402 0.68400002 -0.067159683 1.1043242e-38 328 296
0.01079352 0.68400002 -0.067159683 1.1319829e-38 329 296
0.011975267 0.68300003 -0.067061491 1.1504223e-38 330 296
0.013172794 0.68300003 -0.067061491 1.1596419e-38 331 296
0.014370319 0.68300003 -0.067061491 1.1596068e-38 332 296
0.015567848 0.68300003 -0.067061491 1.1411319e-38 333 296
0.016765373 0.68300003 -0.067061491 1.076812e-38 334 296
0.017962901 0.68300003 -0.067061491 1.0307142e-38 335 296
0.019160427 0.68300003 -0.067061491 1.0029847e-38 336 296
0.020357953 0.68300003 -0.067061491 9.7536203e-39 337 296
0.021523919 0.68199998 -0.0669633 9.5695947e-39 338 296
0.022719691 0.68199998 -0.0669633 9.2930092e-39 339 296
0.023915464 0.68199998 -0.0669633 9.2015325e-39 340 296
0.025111238 0.68199998 -0.0669633 8.9253043e-39 341 296
0.026345588 0.68300003 -0.067061491 8.8331087e-39 342 296
0.027543113 0.68300003 -0.067061491 8.7405543e-39 343 296
0.028740639 0.68300003 -0.067061491 9.1079005e-39 344 296
0.029938167 0.68300003 -0.067061491 9.2000961e-39 345 296
0.031135695 0.68300003 -0.067061491 9.3844804e-39 346 296
0.032333218 0.68300003 -0.067061491 9.4766774e-39 347 296
0.033678025 0.68599999 -0.06735605 9.1086138e-39 348 296
0.034880809 0.68599999 -0.06735605 9.0164181e-39 349 296
0.036083598 0.68599999 -0.06735605 8.7405571e-39 350 296
0.037340738 0.68699998 -0.067454241 8.8327528e-39 351 296
0.038545277 0.68699998 -0.067454241 8.4654122e-39 352 296
0.039749816 0.68699998 -0.067454241 8.4654122e-39 353 296
0.040954359 0.68699998 -0.067454241 8.2828188e-39 354 296
0.042220265 0.68800002 -0.067552425 8.3750144e-39 355 296
0.043426562 0.68800002 -0.067552425 8.46721e-39 356 296
0.044632856 0.68800002 -0.067552425 8.46721e-39 357 296
0.046039023 0.69099998 -0.067846984 8.7420061e-39 358 296
0.047250576 0.69099998 -0.067846984 8.8342017e-39 359 296
0.048602402 0.69300002 -0.068043359 8.8349234e-39 360 296
0.049889345 0.69400001 -0.068141542 9.2955428e-39 361 296
0.051327083 0.69700003 -0.068436109 9.5742835e-39 362 296
0.052624546 0.69800001 -0.068534292 1.0403685e-38 363 296
0.053539783 0.69400001 -0.068141542 1.1416395e-38 364 296
0.054756597 0.69400001 -0.068141542 1.3997873e-38 365 296
0.055973411 0.69400001 -0.068141542 1.483377e-38 366 296
-0.014812159 0.704 -0.070357755 1.7507421e-38 308 297
-0.013519952 0.70099998 -0.070057929 1.5110334e-38 309 297
-0.012273333 0.69999999 -0.069957994 1.5102739e-38 310 297
-0.011045999 0.69999999 -0.069957994 1.4825794e-38 311 297
-0.0097906133 0.69800001 -0.069758117 1.4914377e-38 312 297
-0.0085667865 0.69800001 -0.069758117 1.4269007e-38 313 297
-0.0073219193 0.69599998 -0.069558233 1.4174647e-38 314 297
-0.0060840664 0.69400001 -0.069358356 1.3713669e-38 315 297
-0.0048672534 0.69400001 -0.069358356 1.3529984e-38 316 297
-0.0036451798 0.69300002 -0.069258414 1.3161201e-38 317 297
-0.00243012 0.69300002 -0.069258414 1.2701296e-38 318 297
-0.0012115532 0.69099998 -0.069058537 1.2240318e-38 319 297
0 0.69 -0.068958595 1.1780066e-38 320 297
0.0012097999 0.69 -0.068958595 1.1503478e-38 321 297
0.0024125867 0.68800002 -0.068758719 1.1410576e-38 322 297
0.0036136196 0.68699998 -0.068658777 1.1226545e-38 323 297
0.0048181596 0.68699998 -0.068658777 1.1041447e-38 324 297
0.0059964 0.68400002 -0.068358958 1.1041447e-38 325 297
0.0071956799 0.68400002 -0.068358958 1.0858854e-38 326 297
0.0083826864 0.68300003 -0.068259016 1.0951049e-38 327 297
0.0095802136 0.68300003 -0.068259016 1.1319826e-38 328 297
0.01077774 0.68300003 -0.068259016 1.1412022e-38 329 297
0.0119928 0.68400002 -0.068358958 1.1503867e-38 330 297
0.013172794 0.68300003 -0.068259016 1.1411672e-38 331 297
0.014370319 0.68300003 -0.068259016 1.131877e-38 332 297
0.015567848 0.68300003 -0.068259016 1.1226573e-38 333 297
0.016765373 0.68300003 -0.068259016 1.0490101e-38 334 297
0.017962901 0.68300003 -0.068259016 1.0121677e-38 335 297
0.019160427 0.68300003 -0.068259016 9.5695947e-39 336 297
0.020357953 0.68300003 -0.068259016 9.2930092e-39 337 297
0.021523919 0.68199998 -0.068159081 9.2015325e-39 338 297
0.022719691 0.68199998 -0.068159081 8.9253043e-39 339 297
0.023915464 0.68199998 -0.068159081 8.8327528e-39 340 297
0.02514806 0.68300003 -0.068259016 8.7405571e-39 341 297
0.026345588 0.68300003 -0.068259016 8.6472867e-39 342 297
0.027543113 0.68300003 -0.068259016 8.5550911e-39 343 297
0.028740639 0.68300003 -0.068259016 8.8309577e-39 344 297
0.029938167 0.68300003 -0.068259016 9.015349e-39 345 297
0.031135695 0.68300003 -0.068259016 9.1086166e-39 346 297
0.032380559 0.68400002 -0.068358958 9.1086166e-39 347 297
0.033678025 0.68599999 -0.068558842 8.7412732e-39 348 297
0.034880809 0.68599999 -0.068558842 8.5572421e-39 349 297
0.036083598 0.68599999 -0.068558842 8.4650464e-39 350 297
0.037340738 0.68699998 -0.068658777 8.5572421e-39 351 297
0.038545277 0.68699998 -0.068658777 8.4657681e-39 352 297
0.039749816 0.68699998 -0.068658777 8.5579637e-39 353 297
0.040954359 0.68699998 -0.068658777 8.3746515e-39 354 297
0.042220265 0.68800002 -0.068758719 8.6508782e-39 355 297
0.043426562 0.68800002 -0.068758719 8.6519558e-39 356 297
0.044632856 0.68800002 -0.068758719 8.6519558e-39 357 297
0.046039023 0.69099998 -0.069058537 8.8359926e-39 358 297
0.047387339 0.69300002 -0.069258414 8.9281882e-39 359 297
0.048602402 0.69300002 -0.069258414 9.2047765e-39 360 297
0.050033119 0.69599998 -0.069558233 9.5735576e-39 361 297
0.051327083 0.69700003 -0.069658175 1.0218924e-38 362 297
0.052624546 0.69800001 -0.069758117 1.0864294e-38 363 297
0.053694077 0.69599998 -0.069558233 1.150895e-38 364 297
0.054914396 0.69599998 -0.069558233 1.5196416e-38 365 297
0.056134716 0.69599998 -0.069558233 1.5849367e-38 366 297
-0.014812159 0.704 -0.071592107 1.8615939e-38 308 298
-0.013577812 0.704 -0.071592107 1.5665679e-38 309 298
-0.012273333 0.69999999 -0.071185328 1.5104188e-38 310 298
-0.011045999 0.69999999 -0.071185328 1.464285e-38 311 298
-0.0097906133 0.69800001 -0.07098195 1.482291e-38 312 298
-0.0085545136 0.69700003 -0.070880257 1.4362291e-38 313 298
-0.0073219193 0.69599998 -0.070778556 1.4083899e-38 314 298
-0.0060840664 0.69400001 -0.07057517 1.3622922e-38 315 298
-0.0048672534 0.69400001 -0.07057517 1.3438161e-38 316 298
-0.0036451798 0.69300002 -0.070473477 1.325377e-38 317 298
-0.00243012 0.69300002 -0.070473477 1.2793863e-38 318 298
-0.0012115532 0.69099998 -0.070270091 1.2332887e-38 319 298
0 0.69 -0.070168398 1.1688962e-38 320 298
0.0012097999 0.69 -0.070168398 1.1412375e-38 321 298
0.0024125867 0.68800002 -0.06996502 1.1594621e-38 322 298
0.0036188802 0.68800002 -0.06996502 1.140987e-38 323 298
0.0048181596 0.68699998 -0.069863312 1.1041813e-38 324 298
0.0059964 0.68400002 -0.06955824 1.1041813e-38 325 298
0.0071956799 0.68400002 -0.06955824 1.104181e-38 326 298
0.0083826864 0.68300003 -0.069456547 1.104181e-38 327 298
0.0095802136 0.68300003 -0.069456547 1.1502065e-38 328 298
0.01077774 0.68300003 -0.069456547 1.1594621e-38 329 298
0.011975267 0.68300003 -0.069456547 1.1503151e-38 330 298
0.013172794 0.68300003 -0.069456547 1.1410956e-38 331 298
0.014370319 0.68300003 -0.069456547 1.1225857e-38 332 298
0.015567848 0.68300003 -0.069456547 1.0948911e-38 333 298
0.016765373 0.68300003 -0.069456547 1.0304639e-38 334 298
0.017962901 0.68300003 -0.069456547 9.9362164e-39 335 298
0.019160427 0.68300003 -0.069456547 9.0178643e-39 336 298
0.020357953 0.68300003 -0.069456547 8.9256673e-39 337 298
0.02155548 0.68300003 -0.069456547 8.9260204e-39 338 298
0.022719691 0.68199998 -0.069354847 8.7416291e-39 339 298
0.023915464 0.68199998 -0.069354847 8.8309549e-39 340 298
0.02514806 0.68300003 -0.069456547 8.8309549e-39 341 298
0.026345588 0.68300003 -0.069456547 8.2795818e-39 342 298
0.027543113 0.68300003 -0.069456547 8.3717788e-39 343 298
0.028740639 0.68300003 -0.069456547 8.5554456e-39 344 298
0.029938167 0.68300003 -0.069456547 8.7398383e-39 345 298
0.03118128 0.68400002 -0.06955824 8.8331087e-39 346 298
0.032380559 0.68400002 -0.06955824 8.8331087e-39 347 298
0.033678025 0.68599999 -0.069761619 8.557598e-39 348 298
0.034880809 0.68599999 -0.069761619 8.557598e-39 349 298
0.036083598 0.68599999 -0.069761619 8.7412732e-39 350 298
0.037340738 0.68699998 -0.069863312 8.7412732e-39 351 298
0.038545277 0.68699998 -0.069863312 8.6501594e-39 352 298
0.039749816 0.68699998 -0.069863312 8.6501594e-39 353 298
0.041013971 0.68800002 -0.06996502 8.6508782e-39 354 298
0.042220265 0.68800002 -0.06996502 8.7430753e-39 355 298
0.043426562 0.68800002 -0.06996502 8.8359898e-39 356 298
0.0447626 0.69 -0.070168398 8.9281854e-39 357 298
0.04617228 0.69300002 -0.070473477 8.9292672e-39 358 298
0.047387339 0.69300002 -0.070473477 9.2054954e-39 359 298
0.048602402 0.69300002 -0.070473477 9.5735576e-39 360 298
0.050033119 0.69599998 -0.070778556 1.0126731e-38 361 298
0.051327083 0.69700003 -0.070880257 1.0771379e-38 362 298
0.052549154 0.69700003 -0.070880257 1.1601499e-38 363 298
0.053771228 0.69700003 -0.070880257 1.2064287e-38 364 298
0.054993302 0.69700003 -0.070880257 1.5936504e-38 365 298
-0.014854239 0.70599997 -0.07303334 1.8711027e-38 308 299
-0.013616386 0.70599997 -0.07303334 1.6313942e-38 309 299
-0.012343466 0.704 -0.072826453 1.5659175e-38 310 299
-0.011045999 0.69999999 -0.072412662 1.4368437e-38 311 299
-0.0097906133 0.69800001 -0.072205767 1.4825064e-38 312 299
-0.0085545136 0.69700003 -0.072102323 1.4087499e-38 313 299
-0.0073219193 0.69599998 -0.071998879 1.4268277e-38 314 299
-0.0060840664 0.69400001 -0.071791984 1.3991332e-38 315 299
-0.0048672534 0.69400001 -0.071791984 1.3622902e-38 316 299
-0.0036451798 0.69300002 -0.07168854 1.3346315e-38 317 299
-0.00243012 0.69300002 -0.07168854 1.2977886e-38 318 299
-0.0012115532 0.69099998 -0.071481638 1.2609104e-38 319 299
0 0.69 -0.071378194 1.2148844e-38 320 299
0.0012097999 0.69 -0.071378194 1.1872618e-38 321 299
0.0024125867 0.68800002 -0.071171306 1.186976e-38 322 299
0.0036188802 0.68800002 -0.071171306 1.1685368e-38 323 299
0.0048251734 0.68800002 -0.071171306 1.1316958e-38 324 299
0.0060139326 0.68599999 -0.070964411 1.1316958e-38 325 299
0.0071956799 0.68400002 -0.070757523 1.1041816e-38 326 299
0.0083949603 0.68400002 -0.070757523 1.1041816e-38 327 299
0.0095802136 0.68300003 -0.070654072 1.1042539e-38 328 299
0.01077774 0.68300003 -0.070654072 1.122657e-38 329 299
0.011975267 0.68300003 -0.070654072 1.104326e-38 330 299
0.013172794 0.68300003 -0.070654072 1.0951065e-38 331 299
0.014370319 0.68300003 -0.070654072 1.0674485e-38 332 299
0.015567848 0.68300003 -0.070654072 1.0397539e-38 333 299
0.016765373 0.68300003 -0.070654072 9.7536174e-39 334 299
0.017962901 0.68300003 -0.070654072 9.5692262e-39 335 299
0.019160427 0.68300003 -0.070654072 8.8349024e-39 336 299
0.020357953 0.68300003 -0.070654072 8.7427053e-39 337 299
0.02155548 0.68300003 -0.070654072 8.833822e-39 338 299
0.022753006 0.68300003 -0.070654072 8.4653996e-39 339 299
0.023950534 0.68300003 -0.070654072 8.7401914e-39 340 299
0.02514806 0.68300003 -0.070654072 8.55544e-39 341 299
0.026345588 0.68300003 -0.070654072 8.3721305e-39 342 299
0.027543113 0.68300003 -0.070654072 8.3721305e-39 343 299
0.02878272 0.68400002 -0.070757523 8.3724949e-39 344 299
0.029938167 0.68300003 -0.070654072 8.5572449e-39 345 299
0.031135695 0.68300003 -0.070654072 8.2820971e-39 346 299
0.032380559 0.68400002 -0.070757523 8.2820971e-39 347 299
0.033678025 0.68599999 -0.070964411 8.3735697e-39 348 299
0.034880809 0.68599999 -0.070964411 8.4657653e-39 349 299
0.036136195 0.68699998 -0.071067855 8.2824502e-39 350 299
0.037340738 0.68699998 -0.071067855 8.3746459e-39 351 299
0.038545277 0.68699998 -0.071067855 8.6508754e-39 352 299
0.039749816 0.68699998 -0.071067855 8.7430725e-39 353 299
0.041013971 0.68800002 -0.071171306 8.8356268e-39 354 299
0.042220265 0.68800002 -0.071171306 9.0200181e-39 355 299
0.043426562 0.68800002 -0.071171306 9.1129326e-39 356 299
0.0447626 0.69 -0.071378194 9.2051296e-39 357 299
0.04617228 0.69300002 -0.07168854 9.6639554e-39 358 299
0.047387339 0.69300002 -0.07168854 9.756151e-39 359 299
0.048672531 0.69400001 -0.071791984 9.8501515e-39 360 299
0.050033119 0.69599998 -0.071998879 1.0403324e-38 361 299
0.051327083 0.69700003 -0.072102323 1.0958291e-38 362 299
0.052549154 0.69700003 -0.072102323 1.1788411e-38 363 299
0.053771228 0.69700003 -0.072102323 1.3079165e-38 364 299
0.054993302 0.69700003 -0.072102323 1.6766631e-38 365 299
-0.013616386 0.70599997 -0.074271195 1.6867481e-38 309 300
-0.012378532 0.70599997 -0.074271195 1.6491827e-38 310 300
-0.011140679 0.70599997 -0.074271195 1.4463523e-38 311 300
-0.0098186666 0.69999999 -0.073639996 1.5008393e-38 312 300
-0.0085667865 0.69800001 -0.073429599 1.4732165e-38 313 300
-0.0073219193 0.69599998 -0.073219195 1.4177187e-38 314 300
-0.0061015999 0.69599998 -0.073219195 1.3900601e-38 315 300
-0.0048672534 0.69400001 -0.073008798 1.3439975e-38 316 300
-0.0036451798 0.69300002 -0.072903603 1.3163387e-38 317 300
-0.00243012 0.69300002 -0.072903603 1.2887508e-38 318 300
-0.00121506 0.69300002 -0.072903603 1.2518365e-38 319 300
0 0.69099998 -0.072693199 1.2241783e-38 320 300
0.0012115532 0.69099998 -0.072693199 1.1872999e-38 321 300
0.0024195998 0.69 -0.072587997 1.1596066e-38 322 300
0.0036188802 0.68800002 -0.0723776 1.1411674e-38 323 300
0.0048251734 0.68800002 -0.0723776 1.1042539e-38 324 300
0.0060139326 0.68599999 -0.072167195 1.0950343e-38 325 300
0.0072167199 0.68599999 -0.072167195 1.1134011e-38 326 300
0.0083949603 0.68400002 -0.071956798 1.1226207e-38 327 300
0.0095802136 0.68300003 -0.071851604 1.1042539e-38 328 300
0.01077774 0.68300003 -0.071851604 1.122657e-38 329 300
0.011975267 0.68300003 -0.071851604 1.094999e-38 330 300
0.013172794 0.68300003 -0.071851604 1.0857794e-38 331 300
0.014370319 0.68300003 -0.071851604 1.0581933e-38 332 300
0.015567848 0.68300003 -0.071851604 1.0212791e-38 333 300
0.016765373 0.68300003 -0.071851604 9.6621407e-39 334 300
0.017962901 0.68300003 -0.071851604 9.3859139e-39 335 300
0.019160427 0.68300003 -0.071851604 8.8363401e-39 336 300
0.020357953 0.68300003 -0.071851604 8.5601133e-39 337 300
0.02155548 0.68300003 -0.071851604 8.7427081e-39 338 300
0.022753006 0.68300003 -0.071851604 8.4657625e-39 339 300
0.023950534 0.68300003 -0.071851604 8.4650436e-39 340 300
0.02514806 0.68300003 -0.071851604 8.4650436e-39 341 300
0.026345588 0.68300003 -0.071851604 8.3728508e-39 342 300
0.027543113 0.68300003 -0.071851604 8.3728508e-39 343 300
0.028740639 0.68300003 -0.071851604 8.1899043e-39 344 300
0.029938167 0.68300003 -0.071851604 8.2820999e-39 345 300
0.031135695 0.68300003 -0.071851604 8.2820999e-39 346 300
0.032380559 0.68400002 -0.071956798 8.1899043e-39 347 300
0.033678025 0.68599999 -0.072167195 8.3732165e-39 348 300
0.034880809 0.68599999 -0.072167195 8.1891854e-39 349 300
0.036136195 0.68699998 -0.07227239 8.2820971e-39 350 300
0.037340738 0.68699998 -0.07227239 8.3746515e-39 351 300
0.038545277 0.68699998 -0.07227239 8.559763e-39 352 300
0.039807681 0.68800002 -0.0723776 8.6519586e-39 353 300
0.041013971 0.68800002 -0.0723776 8.8370688e-39 354 300
0.042220265 0.68800002 -0.0723776 8.9296231e-39 355 300
0.043615919 0.69099998 -0.072693199 9.297328e-39 356 300
0.044827472 0.69099998 -0.072693199 9.4813592e-39 357 300
0.04617228 0.69300002 -0.072903603 9.2976938e-39 358 300
0.047455717 0.69400001 -0.073008798 9.3898894e-39 359 300
0.048812799 0.69599998 -0.073219195 1.0033464e-38 360 300
0.050105009 0.69700003 -0.073324397 1.1047974e-38 361 300
0.051547997 0.69999999 -0.073639996 1.1418565e-38 362 300
0.052775331 0.69999999 -0.073639996 1.3354673e-38 363 300
0.054002665 0.69999999 -0.073639996 1.4280249e-38 364 300
-0.012396066 0.70700002 -0.07561601 1.6402877e-38 310 301
-0.011156459 0.70700002 -0.07561601 1.4374214e-38 311 301
-0.0098326923 0.70099998 -0.074974284 1.4827597e-38 312 301
-0.0085667865 0.69800001 -0.074653424 1.3997837e-38 313 301
-0.00733244 0.69700003 -0.074546471 1.4728193e-38 314 301
-0.0061015999 0.69599998 -0.074439511 1.4267574e-38 315 301
-0.0048672534 0.69400001 -0.074225612 1.3807669e-38 316 301
-0.0036504399 0.69400001 -0.074225612 1.3622919e-38 317 301
-0.00243012 0.69300002 -0.074118659 1.3163366e-38 318 301
-0.00121506 0.69300002 -0.074118659 1.2702747e-38 319 301
0 0.69099998 -0.073904753 1.2793142e-38 320 301
0.0012115532 0.69099998 -0.073904753 1.2516555e-38 321 301
0.0024125867 0.68800002 -0.073583893 1.2239618e-38 322 301
0.0036188802 0.68800002 -0.073583893 1.2055226e-38 323 301
0.0048251734 0.68800002 -0.073583893 1.1318756e-38 324 301
0.0060139326 0.68599999 -0.073369987 1.1318756e-38 325 301
0.0072167199 0.68599999 -0.073369987 1.0951059e-38 326 301
0.0083949603 0.68400002 -0.073156074 1.1043614e-38 327 301
0.0095942402 0.68400002 -0.073156074 1.0767397e-38 328 301
0.01079352 0.68400002 -0.073156074 1.0675201e-38 329 301
0.0119928 0.68400002 -0.073156074 1.0582655e-38 330 301
0.01319208 0.68400002 -0.073156074 1.0397905e-38 331 301
0.014370319 0.68300003 -0.073049128 9.6632197e-39 332 301
0.015567848 0.68300003 -0.073049128 9.5710241e-39 333 301
0.016765373 0.68300003 -0.073049128 9.0182174e-39 334 301
0.017962901 0.68300003 -0.073049128 8.9260204e-39 335 301
0.019160427 0.68300003 -0.073049128 8.742355e-39 336 301
0.020357953 0.68300003 -0.073049128 8.742355e-39 337 301
0.02155548 0.68300003 -0.073049128 8.9253043e-39 338 301
0.022753006 0.68300003 -0.073049128 8.8331087e-39 339 301
0.023950534 0.68300003 -0.073049128 8.7409075e-39 340 301
0.02514806 0.68300003 -0.073049128 8.8331031e-39 341 301
0.026345588 0.68300003 -0.073049128 8.5575952e-39 342 301
0.027543113 0.68300003 -0.073049128 8.5575952e-39 343 301
0.028740639 0.68300003 -0.073049128 8.5572421e-39 344 301
0.029982001 0.68400002 -0.073156074 8.7412732e-39 345 301
0.03118128 0.68400002 -0.073156074 8.5583169e-39 346 301
0.032380559 0.68400002 -0.073156074 8.5583169e-39 347 301
0.033678025 0.68599999 -0.073369987 8.2824502e-39 348 301
0.034880809 0.68599999 -0.073369987 8.2824502e-39 349 301
0.036136195 0.68699998 -0.073476933 8.3753647e-39 350 301
0.037340738 0.68699998 -0.073476933 8.5601161e-39 351 301
0.038545277 0.68699998 -0.073476933 8.652309e-39 352 301
0.039807681 0.68800002 -0.073583893 9.0210901e-39 353 301
0.041013971 0.68800002 -0.073583893 9.2054855e-39 354 301
0.042342998 0.69 -0.0737978 9.4817123e-39 355 301
0.043615919 0.69099998 -0.073904753 9.4817151e-39 356 301
0.044827472 0.69099998 -0.073904753 9.5739107e-39 357 301
0.04617228 0.69300002 -0.074118659 9.3902453e-39 358 301
0.047592476 0.69599998 -0.074439511 9.5746366e-39 359 301
0.048882935 0.69700003 -0.074546471 1.0679186e-38 360 301
0.050176892 0.69800001 -0.074653424 1.1416751e-38 361 301
0.051547997 0.69999999 -0.07486733 1.2340525e-38 362 301
0.052775331 0.69999999 -0.07486733 1.372346e-38 363 301
-0.011061779 0.70099998 -0.076203369 1.4469652e-38 311 302
-0.0098326923 0.70099998 -0.076203369 1.4737569e-38 312 302
-0.0085913334 0.69999999 -0.076094657 1.3631222e-38 313 302
-0.0073429602 0.69800001 -0.075877249 1.4638168e-38 314 302
-0.0061103669 0.69700003 -0.075768545 1.417719e-38 315 302
-0.0048812795 0.69599998 -0.075659841 1.399243e-38 316 302
-0.0036504399 0.69400001 -0.075442426 1.3623288e-38 317 302
-0.0024336267 0.69400001 -0.075442426 1.3531078e-38 318 302
-0.00121506 0.69300002 -0.075333714 1.3070101e-38 319 302
0 0.69300002 -0.075333714 1.2702396e-38 320 302
0.00121506 0.69300002 -0.075333714 1.2425451e-38 321 302
0.0024125867 0.68800002 -0.074790187 1.2148874e-38 322 302
0.0036188802 0.68800002 -0.074790187 1.1871927e-38 323 302
0.0048251734 0.68800002 -0.074790187 1.14106e-38 324 302
0.0060226996 0.68699998 -0.074681476 1.1318403e-38 325 302
0.0072167199 0.68599999 -0.074572764 1.1043258e-38 326 302
0.0083949603 0.68400002 -0.074355356 1.1043258e-38 327 302
0.0095942402 0.68400002 -0.074355356 1.076775e-38 328 302
0.01079352 0.68400002 -0.074355356 1.0583358e-38 329 302
0.0119928 0.68400002 -0.074355356 1.0398258e-38 330 302
0.01319208 0.68400002 -0.074355356 1.0214227e-38 331 302
0.014370319 0.68300003 -0.074246652 9.7543363e-39 332 302
0.015567848 0.68300003 -0.074246652 9.3859139e-39 333 302
0.016765373 0.68300003 -0.074246652 8.8334716e-39 334 302
0.017962901 0.68300003 -0.074246652 8.741276e-39 335 302
0.019160427 0.68300003 -0.074246652 8.8334744e-39 336 302
0.020357953 0.68300003 -0.074246652 8.8334744e-39 337 302
0.02155548 0.68300003 -0.074246652 8.9249484e-39 338 302
0.022753006 0.68300003 -0.074246652 8.9249484e-39 339 302
0.023950534 0.68300003 -0.074246652 8.6505097e-39 340 302
0.02514806 0.68300003 -0.074246652 8.6505097e-39 341 302
0.026345588 0.68300003 -0.074246652 8.6505125e-39 342 302
0.027543113 0.68300003 -0.074246652 8.7427081e-39 343 302
0.02878272 0.68400002 -0.074355356 8.7427081e-39 344 302
0.029982001 0.68400002 -0.074355356 8.7427081e-39 345 302
0.03118128 0.68400002 -0.074355356 8.6512314e-39 346 302
0.032475237 0.68599999 -0.074572764 8.6512314e-39 347 302
0.033678025 0.68599999 -0.074572764 8.3753647e-39 348 302
0.034931656 0.68699998 -0.074681476 8.4679191e-39 349 302
0.036136195 0.68699998 -0.074681476 8.5601105e-39 350 302
0.037340738 0.68699998 -0.074681476 8.836696e-39 351 302
0.038601387 0.68800002 -0.074790187 8.7455794e-39 352 302
0.0399234 0.69 -0.075007595 9.1140032e-39 353 302
0.041133199 0.69 -0.075007595 9.4817151e-39 354 302
0.042404365 0.69099998 -0.075116299 9.4817151e-39 355 302
0.043615919 0.69099998 -0.075116299 9.5735576e-39 356 302
0.044957221 0.69300002 -0.075333714 9.5735576e-39 357 302
0.046238903 0.69400001 -0.075442426 9.665756e-39 358 302
0.047592476 0.69599998 -0.075659841 1.0126375e-38 359 302
0.048953064 0.69800001 -0.075877249 1.1232006e-38 360 302
0.050320663 0.69999999 -0.076094657 1.1969572e-38 361 302
0.051621638 0.70099998 -0.076203369 1.2433092e-38 362 302
-0.0098326923 0.70099998 -0.077432454 1.5199992e-38 312 303
-0.0085913334 0.69999999 -0.077321991 1.3448275e-38 313 303
-0.0073639993 0.69999999 -0.077321991 1.5006225e-38 314 303
-0.006119133 0.69800001 -0.077101074 1.4545247e-38 315 303
-0.0048882933 0.69700003 -0.076990619 1.4084626e-38 316 303
-0.0036609597 0.69599998 -0.076880157 1.3715483e-38 317 303
-0.0024336267 0.69400001 -0.07665924 1.334741e-38 318 303
-0.0012168133 0.69400001 -0.07665924 1.3070823e-38 319 303
0 0.69300002 -0.076548778 1.2702041e-38 320 303
0.00121506 0.69300002 -0.076548778 1.2517649e-38 321 303
0.0024231065 0.69099998 -0.076327853 1.2332902e-38 322 303
0.0036188802 0.68800002 -0.075996481 1.2056675e-38 323 303
0.0048251734 0.68800002 -0.075996481 1.168718e-38 324 303
0.0060314666 0.68800002 -0.075996481 1.1503148e-38 325 303
0.0072272392 0.68699998 -0.075886011 1.1319123e-38 326 303
0.0084195063 0.68599999 -0.075775556 1.1319123e-38 327 303
0.0096222926 0.68599999 -0.075775556 1.0675198e-38 328 303
0.010825079 0.68599999 -0.075775556 1.0583003e-38 329 303
0.0119928 0.68400002 -0.075554639 1.0398261e-38 330 303
0.01319208 0.68400002 -0.075554639 1.0029478e-38 331 303
0.01439136 0.68400002 -0.075554639 9.5699451e-39 332 303
0.015567848 0.68300003 -0.075444184 9.2933596e-39 333 303
0.016765373 0.68300003 -0.075444184 8.5572449e-39 334 303
0.017962901 0.68300003 -0.075444184 8.5572449e-39 335 303
0.019160427 0.68300003 -0.075444184 8.7409229e-39 336 303
0.020357953 0.68300003 -0.075444184 8.8331185e-39 337 303
0.02155548 0.68300003 -0.075444184 8.742355e-39 338 303
0.022753006 0.68300003 -0.075444184 8.742355e-39 339 303
0.023950534 0.68300003 -0.075444184 8.8349024e-39 340 303
0.02514806 0.68300003 -0.075444184 8.8349024e-39 341 303
0.026345588 0.68300003 -0.075444184 8.7434256e-39 342 303
0.027543113 0.68300003 -0.075444184 8.8356212e-39 343 303
0.02878272 0.68400002 -0.075554639 8.835624e-39 344 303
0.030069664 0.68599999 -0.075775556 8.835624e-39 345 303
0.031272452 0.68599999 -0.075775556 8.7434284e-39 346 303
0.032475237 0.68599999 -0.075775556 8.7434284e-39 347 303
0.033678025 0.68599999 -0.075775556 8.7434284e-39 348 303
0.034931656 0.68699998 -0.075886011 8.835624e-39 349 303
0.036136195 0.68699998 -0.075886011 8.6530278e-39 350 303
0.037395094 0.68800002 -0.075996481 8.8377778e-39 351 303
0.038601387 0.68800002 -0.075996481 8.9296175e-39 352 303
0.0399234 0.69 -0.076217398 9.2062044e-39 353 303
0.041133199 0.69 -0.076217398 9.2980441e-39 354 303
0.042404365 0.69099998 -0.076327853 9.2980441e-39 355 303
0.043742158 0.69300002 -0.076548778 9.481006e-39 356 303
0.044957221 0.69300002 -0.076548778 9.5735604e-39 357 303
0.046238903 0.69400001 -0.07665924 9.8501515e-39 358 303
0.047592476 0.69599998 -0.076880157 1.0495521e-38 359 303
0.049093332 0.69999999 -0.077321991 1.1049058e-38 360 303
-0.0098186666 0.69999999 -0.078549333 1.5388704e-38 312 304
-0.0085667865 0.69800001 -0.078324907 1.3267844e-38 313 304
-0.0073429602 0.69800001 -0.078324907 1.4640317e-38 314 304
-0.006119133 0.69800001 -0.078324907 1.4179338e-38 315 304
-0.0048882933 0.69700003 -0.078212693 1.4361206e-38 316 304
-0.0036609597 0.69599998 -0.078100473 1.3992782e-38 317 304
-0.0024336267 0.69400001 -0.077876054 1.3623994e-38 318 304
-0.0012168133 0.69400001 -0.077876054 1.3163016e-38 319 304
0 0.69300002 -0.077763841 1.2978625e-38 320 304
0.00121506 0.69300002 -0.077763841 1.2702396e-38 321 304
0.0024231065 0.69099998 -0.077539407 1.2517649e-38 322 304
0.0036293997 0.69 -0.077427194 1.2332899e-38 323 304
0.0048251734 0.68800002 -0.077202775 1.2147791e-38 324 304
0.0060314666 0.68800002 -0.077202775 1.1871205e-38 325 304
0.0072272392 0.68699998 -0.077090554 1.1687182e-38 326 304
0.0084317802 0.68699998 -0.077090554 1.1410956e-38 327 304
0.0096222926 0.68599999 -0.076978341 1.1042542e-38 328 304
0.010825079 0.68599999 -0.076978341 1.085815e-38 329 304
0.012027865 0.68599999 -0.076978341 1.0397539e-38 330 304
0.013230653 0.68599999 -0.076978341 1.0213147e-38 331 304
0.01443344 0.68599999 -0.076978341 9.6617749e-39 332 304
0.01559064 0.68400002 -0.076753922 9.3848279e-39 333 304
0.016789921 0.68400002 -0.076753922 8.9242197e-39 334 304
0.0179892 0.68400002 -0.076753922 8.9242197e-39 335 304
0.01918848 0.68400002 -0.076753922 8.6501566e-39 336 304
0.020387759 0.68400002 -0.076753922 8.834908e-39 337 304
0.02158704 0.68400002 -0.076753922 9.110769e-39 338 304
0.022786319 0.68400002 -0.076753922 9.3869957e-39 339 304
0.0239856 0.68400002 -0.076753922 9.2033177e-39 340 304
0.025184879 0.68400002 -0.076753922 9.3873489e-39 341 304
0.02638416 0.68400002 -0.076753922 9.3873517e-39 342 304
0.027583439 0.68400002 -0.076753922 9.3873517e-39 343 304
0.02886688 0.68599999 -0.076978341 9.2036835e-39 344 304
0.030069664 0.68599999 -0.076978341 9.2036835e-39 345 304
0.031318039 0.68699998 -0.077090554 9.2029618e-39 346 304
0.032522578 0.68699998 -0.077090554 9.2029618e-39 347 304
0.033727121 0.68699998 -0.077090554 8.8363401e-39 348 304
0.034931656 0.68699998 -0.077090554 8.9288944e-39 349 304
0.036136195 0.68699998 -0.077090554 9.020737e-39 350 304
0.037395094 0.68800002 -0.077202775 9.1129326e-39 351 304
0.038601387 0.68800002 -0.077202775 8.8377876e-39 352 304
0.0399234 0.69 -0.077427194 8.9303434e-39 353 304
0.041133199 0.69 -0.077427194 9.0221859e-39 354 304
0.042404365 0.69099998 -0.077539407 9.0221859e-39 355 304
0.043742158 0.69300002 -0.077763841 9.2973407e-39 356 304
0.045022093 0.69400001 -0.077876054 9.4820906e-39 357 304
0.046505414 0.69800001 -0.078324907 1.0035262e-38 358 304
0.047865998 0.69999999 -0.078549333 1.049624e-38 359 304
-0.0085667865 0.69800001 -0.079548739 1.3914678e-38 313 305
-0.0073429602 0.69800001 -0.079548739 1.4643206e-38 314 305
-0.006119133 0.69800001 -0.079548739 1.3629055e-38 315 305
-0.0048812795 0.69599998 -0.079320796 1.4362288e-38 316 305
-0.0036609597 0.69599998 -0.079320796 1.3993146e-38 317 305
-0.0024406398 0.69599998 -0.079320796 1.3808388e-38 318 305
-0.0012168133 0.69400001 -0.079092868 1.334741e-38 319 305
0 0.69300002 -0.078978904 1.2979704e-38 320 305
0.00121506 0.69300002 -0.078978904 1.2795312e-38 321 305
0.0024231065 0.69099998 -0.078750968 1.2609848e-38 322 305
0.0036293997 0.69 -0.078636996 1.2517293e-38 323 305
0.0048251734 0.68800002 -0.078409068 1.2148518e-38 324 305
0.0060314666 0.68800002 -0.078409068 1.1964125e-38 325 305
0.0072377604 0.68800002 -0.078409068 1.1779025e-38 326 305
0.0084317802 0.68699998 -0.078295097 1.1686829e-38 327 305
0.0096363192 0.68699998 -0.078295097 1.1226221e-38 328 305
0.010840859 0.68699998 -0.078295097 1.0949993e-38 329 305
0.012045399 0.68699998 -0.078295097 1.0489738e-38 330 305
0.013249939 0.68699998 -0.078295097 1.0305345e-38 331 305
0.01443344 0.68599999 -0.078181133 9.6621379e-39 332 305
0.015636226 0.68599999 -0.078181133 9.2937155e-39 333 305
0.016839013 0.68599999 -0.078181133 8.8338248e-39 334 305
0.018041799 0.68599999 -0.078181133 8.8338248e-39 335 305
0.01918848 0.68400002 -0.077953197 8.6508754e-39 336 305
0.020387759 0.68400002 -0.077953197 8.8356268e-39 337 305
0.02158704 0.68400002 -0.077953197 9.2958791e-39 338 305
0.022786319 0.68400002 -0.077953197 9.4802718e-39 339 305
0.0239856 0.68400002 -0.077953197 9.4806277e-39 340 305
0.025258519 0.68599999 -0.078181133 9.4806277e-39 341 305
0.02638416 0.68400002 -0.077953197 9.66394e-39 342 305
0.027583439 0.68400002 -0.077953197 9.5717429e-39 343 305
0.02886688 0.68599999 -0.078181133 9.3884307e-39 344 305
0.030113498 0.68699998 -0.078295097 9.3884307e-39 345 305
0.031318039 0.68699998 -0.078295097 9.112564e-39 346 305
0.032522578 0.68699998 -0.078295097 9.112564e-39 347 305
0.033727121 0.68699998 -0.078295097 8.8374247e-39 348 305
0.03498251 0.68800002 -0.078409068 8.8374247e-39 349 305
0.0361888 0.68800002 -0.078409068 9.0203838e-39 350 305
0.037503798 0.69 -0.078636996 9.0203838e-39 351 305
0.038713597 0.69 -0.078636996 8.8370744e-39 352 305
0.039981257 0.69099998 -0.078750968 8.92927e-39 353 305
0.041312039 0.69300002 -0.078978904 8.8374387e-39 354 305
0.042588469 0.69400001 -0.079092868 8.9296343e-39 355 305
0.043805279 0.69400001 -0.079092868 9.4810088e-39 356 305
0.045022093 0.69400001 -0.079092868 9.8501515e-39 357 305
0.046505414 0.69800001 -0.079548739 1.003598e-38 358 305
-0.0073429602 0.69800001 -0.080772556 1.4646465e-38 314 306
-0.0060840664 0.69400001 -0.080309682 1.3263531e-38 315 306
-0.0048672534 0.69400001 -0.080309682 1.3995666e-38 316 306
-0.0036609597 0.69599998 -0.080541112 1.3534689e-38 317 306
-0.0024336267 0.69400001 -0.080309682 1.3808741e-38 318 306
-0.0012168133 0.69400001 -0.080309682 1.343996e-38 319 306
0 0.69400001 -0.080309682 1.3255918e-38 320 306
0.00121506 0.69300002 -0.080193959 1.3071526e-38 321 306
0.0024231065 0.69099998 -0.079962514 1.2978259e-38 322 306
0.0036346598 0.69099998 -0.079962514 1.2793507e-38 323 306
0.0048391996 0.69 -0.079846799 1.2700243e-38 324 306
0.0060314666 0.68800002 -0.079615362 1.2515851e-38 325 306
0.0072377604 0.68800002 -0.079615362 1.2330031e-38 326 306
0.0084440531 0.68800002 -0.079615362 1.1961608e-38 327 306
0.0096363192 0.68699998 -0.079499632 1.1501362e-38 328 306
0.010840859 0.68699998 -0.079499632 1.1225135e-38 329 306
0.012045399 0.68699998 -0.079499632 1.0673047e-38 330 306
0.013249939 0.68699998 -0.079499632 1.0396819e-38 331 306
0.014454478 0.68699998 -0.079499632 9.937636e-39 332 306
0.015659019 0.68699998 -0.079499632 9.8454403e-39 333 306
0.016839013 0.68599999 -0.079383917 9.2944316e-39 334 306
0.018041799 0.68599999 -0.079383917 9.2944316e-39 335 306
0.019244585 0.68599999 -0.079383917 9.1107662e-39 336 306
0.020447372 0.68599999 -0.079383917 9.3873517e-39 337 306
0.021650158 0.68599999 -0.079383917 9.6642931e-39 338 306
0.022852944 0.68599999 -0.079383917 9.94088e-39 339 306
0.024055731 0.68599999 -0.079383917 1.0490807e-38 340 306
0.025258519 0.68599999 -0.079383917 1.0490807e-38 341 306
0.026461305 0.68599999 -0.079383917 1.0490088e-38 342 306
0.027664091 0.68599999 -0.079383917 1.0582284e-38 343 306
0.028908957 0.68699998 -0.079499632 1.0031628e-38 344 306
0.030113498 0.68699998 -0.079499632 1.0031628e-38 345 306
0.031363625 0.68800002 -0.079615362 9.8476025e-39 346 306
0.032569919 0.68800002 -0.079615362 9.8476025e-39 347 306
0.033776212 0.68800002 -0.079615362 9.571387e-39 348 306
0.035084199 0.69 -0.079846799 9.571387e-39 349 306
0.036293998 0.69 -0.079846799 9.4784879e-39 350 306
0.037666857 0.69300002 -0.080193959 9.3862923e-39 351 306
0.03888192 0.69300002 -0.080193959 8.7445228e-39 352 306
0.04009698 0.69300002 -0.080193959 8.8367184e-39 353 306
0.041312039 0.69300002 -0.080193959 8.9289155e-39 354 306
0.042588469 0.69400001 -0.080309682 9.205501e-39 355 306
0.043805279 0.69400001 -0.080309682 9.3898922e-39 356 306
0.045151837 0.69599998 -0.080541112 9.8508704e-39 357 306
-0.0060840664 0.69400001 -0.081526496 1.3634132e-38 315 307
-0.0048672534 0.69400001 -0.081526496 1.3906735e-38 316 307
-0.0036714801 0.69800001 -0.081996389 1.3261366e-38 317 307
-0.0024336267 0.69400001 -0.081526496 1.353362e-38 318 307
-0.0012168133 0.69400001 -0.081526496 1.3257032e-38 319 307
0 0.69400001 -0.081526496 1.3165184e-38 320 307
0.00121506 0.69300002 -0.081409015 1.279676e-38 321 307
0.00243012 0.69300002 -0.081409015 1.2795322e-38 322 307
0.0036346598 0.69099998 -0.081174068 1.2611291e-38 323 307
0.0048391996 0.69 -0.081056595 1.2426547e-38 324 307
0.0060314666 0.68800002 -0.080821648 1.2242154e-38 325 307
0.0072377604 0.68800002 -0.080821648 1.1964495e-38 326 307
0.0084440531 0.68800002 -0.080821648 1.1871939e-38 327 307
0.0096503468 0.68800002 -0.080821648 1.1318773e-38 328 307
0.010856641 0.68800002 -0.080821648 1.1042544e-38 329 307
0.012062933 0.68800002 -0.080821648 1.0582652e-38 330 307
0.013269227 0.68800002 -0.080821648 1.0490457e-38 331 307
0.014475521 0.68800002 -0.080821648 9.8476053e-39 332 307
0.015659019 0.68699998 -0.080704175 9.5713772e-39 333 307
0.01686356 0.68699998 -0.080704175 9.2036807e-39 334 307
0.018068098 0.68699998 -0.080704175 9.111485e-39 335 307
0.019272638 0.68699998 -0.080704175 9.2958763e-39 336 307
0.020477179 0.68699998 -0.080704175 9.4806277e-39 337 307
0.021681719 0.68699998 -0.080704175 1.0124548e-38 338 307
0.022886258 0.68699998 -0.080704175 1.0308939e-38 339 307
0.024090799 0.68699998 -0.080704175 1.0768471e-38 340 307
0.025295338 0.68699998 -0.080704175 1.0675917e-38 341 307
0.026499879 0.68699998 -0.080704175 1.0492608e-38 342 307
0.027704418 0.68699998 -0.080704175 1.0492608e-38 343 307
0.028908957 0.68699998 -0.080704175 1.0124548e-38 344 307
0.030157333 0.68800002 -0.080821648 1.0124548e-38 345 307
0.031363625 0.68800002 -0.080821648 9.8486843e-39 346 307
0.032569919 0.68800002 -0.080821648 9.8486843e-39 347 307
0.0338744 0.69 -0.081056595 9.4809906e-39 348 307
0.035135046 0.69099998 -0.081174068 9.388795e-39 349 307
0.036451802 0.69300002 -0.081409015 9.1122165e-39 350 307
0.037721213 0.69400001 -0.081526496 9.0200209e-39 351 307
0.03888192 0.69300002 -0.081409015 9.0200209e-39 352 307
0.04009698 0.69300002 -0.081409015 9.0200209e-39 353 307
0.041371655 0.69400001 -0.081526496 9.2051296e-39 354 307
0.042588469 0.69400001 -0.081526496 9.4817151e-39 355 307
0.043805279 0.69400001 -0.081526496 9.4831598e-39 356 307
-0.0036819996 0.69999999 -0.083458662 1.2895106e-38 317 308
-0.0024336267 0.69400001 -0.082743309 1.3259181e-38 318 308
-0.0012168133 0.69400001 -0.082743309 1.3074789e-38 319 308
0 0.69300002 -0.082624078 1.2981869e-38 320 308
0.00121506 0.69300002 -0.082624078 1.2797476e-38 321 308
0.00243012 0.69300002 -0.082624078 1.2887874e-38 322 308
0.0036346598 0.69099998 -0.082385622 1.2611647e-38 323 308
0.0048391996 0.69 -0.082266398 1.2610215e-38 324 308
0.0060314666 0.68800002 -0.082027942 1.2333628e-38 325 308
0.0072377604 0.68800002 -0.082027942 1.2148165e-38 326 308
0.0084440531 0.68800002 -0.082027942 1.1963772e-38 327 308
0.0096503468 0.68800002 -0.082027942 1.1686832e-38 328 308
0.010856641 0.68800002 -0.082027942 1.1502801e-38 329 308
0.012062933 0.68800002 -0.082027942 1.0859945e-38 330 308
0.013269227 0.68800002 -0.082027942 1.076775e-38 331 308
0.014475521 0.68800002 -0.082027942 1.0491157e-38 332 308
0.015681813 0.68800002 -0.082027942 1.0398962e-38 333 308
0.016888106 0.68800002 -0.082027942 1.0123099e-38 334 308
0.0180944 0.68800002 -0.082027942 1.0215296e-38 335 308
0.019300694 0.68800002 -0.082027942 1.0031984e-38 336 308
0.020477179 0.68699998 -0.081908718 1.0400406e-38 337 308
0.021681719 0.68699998 -0.081908718 1.1044334e-38 338 308
0.022919573 0.68800002 -0.082027942 1.1136529e-38 339 308
0.024125867 0.68800002 -0.082027942 1.1135808e-38 340 308
0.02533216 0.68800002 -0.082027942 1.1135808e-38 341 308
0.026538454 0.68800002 -0.082027942 1.0859943e-38 342 308
0.027744746 0.68800002 -0.082027942 1.0767747e-38 343 308
0.028951041 0.68800002 -0.082027942 1.0675198e-38 344 308
0.030157333 0.68800002 -0.082027942 1.0675198e-38 345 308
0.031363625 0.68800002 -0.082027942 1.0400412e-38 346 308
0.032569919 0.68800002 -0.082027942 1.0307858e-38 347 308
0.033923492 0.69099998 -0.082385622 9.8486843e-39 348 308
0.035135046 0.69099998 -0.082385622 9.6642931e-39 349 308
0.036451802 0.69300002 -0.082624078 9.4791914e-39 350 308
0.037666857 0.69300002 -0.082624078 9.3869957e-39 351 308
0.038938027 0.69400001 -0.082743309 8.9285413e-39 352 308
0.040154841 0.69400001 -0.082743309 9.020737e-39 353 308
0.041371655 0.69400001 -0.082743309 9.2047793e-39 354 308
0.042588469 0.69400001 -0.082743309 9.665756e-39 355 308
-0.0024336267 0.69400001 -0.083960123 1.3261716e-38 318 309
-0.0012168133 0.69400001 -0.083960123 1.280074e-38 319 309
0 0.69300002 -0.083839141 1.3075152e-38 320 309
0.00121506 0.69300002 -0.083839141 1.2614534e-38 321 309
0.00243012 0.69300002 -0.083839141 1.2796407e-38 322 309
0.0036451798 0.69300002 -0.083839141 1.2611657e-38 323 309
