# .PCD v.7 - Point Cloud Data file format
FIELDS x y z rgb imX imY
SIZE 4 4 4 4 4 4
TYPE F F F F F F
COUNT 1 1 1 1 1 1
WIDTH 832
HEIGHT 1
VIEWPOINT 0 0 0 1 0 0 0
POINTS 832
DATA ascii
0.026068559 0.708 -0.031034 1.6752827e-38 341 265
0.027309919 0.708 -0.031034 1.6845394e-38 342 265
0.028631933 0.70999998 -0.031121666 1.6937591e-38 343 265
0.029918881 0.71100003 -0.031165501 1.6479853e-38 344 265
0.031253166 0.713 -0.031253166 1.6664244e-38 345 265
0.032548878 0.71399999 -0.031296998 1.6390522e-38 346 265
0.03389544 0.71600002 -0.031384666 1.620649e-38 347 265
0.035150826 0.71600002 -0.031384666 1.6115367e-38 348 265
0.036406212 0.71600002 -0.031384666 1.6023171e-38 349 265
0.037661601 0.71600002 -0.031384666 1.5472165e-38 350 265
0.038916986 0.71600002 -0.031384666 1.4458013e-38 351 265
0.040228479 0.71700001 -0.031428497 1.372197e-38 352 265
0.041485619 0.71700001 -0.031428497 1.7501991e-38 353 265
-0.026510401 0.72000003 -0.0328224 1.1529142e-38 299 266
-0.025248 0.72000003 -0.0328224 1.3255963e-38 300 266
-0.0239856 0.72000003 -0.0328224 1.3901332e-38 301 266
-0.022691639 0.71899998 -0.032776814 1.6016376e-38 302 266
-0.021430992 0.71899998 -0.032776814 1.5924181e-38 303 266
-0.020170346 0.71899998 -0.032776814 1.6473774e-38 304 266
-0.018857099 0.71700001 -0.032685637 1.6566328e-38 305 266
-0.017575413 0.71600002 -0.032640055 1.6475224e-38 306 266
-0.016251646 0.713 -0.032503292 1.6659617e-38 307 266
-0.014959441 0.71100003 -0.032412119 1.666249e-38 308 266
-0.013693533 0.70999998 -0.032366529 1.6938718e-38 309 266
-0.012448666 0.70999998 -0.032366529 1.7031264e-38 310 266
-0.01117224 0.708 -0.03227536 1.7123818e-38 311 266
-0.0099308798 0.708 -0.03227536 1.7033064e-38 312 266
-0.008689519 0.708 -0.03227536 1.7125262e-38 313 266
-0.0074481601 0.708 -0.03227536 1.7125264e-38 314 266
-0.0061980332 0.70700002 -0.032229774 1.7125264e-38 315 266
-0.0049514128 0.70599997 -0.032184184 1.7217813e-38 316 266
-0.0037135598 0.70599997 -0.032184184 1.7125616e-38 317 266
-0.0024686933 0.704 -0.032093015 1.7125616e-38 318 266
-0.0012343467 0.704 -0.032093015 1.7125616e-38 319 266
0 0.704 -0.032093015 1.7309658e-38 320 266
0.0012325933 0.70300001 -0.032047424 1.7585885e-38 321 266
0.0024651866 0.70300001 -0.032047424 1.7492973e-38 322 266
0.0036977797 0.70300001 -0.032047424 1.7585169e-38 323 266
0.0049163462 0.70099998 -0.031956252 1.7678084e-38 324 266
0.0061454331 0.70099998 -0.031956252 1.7862476e-38 325 266
0.0073955595 0.70300001 -0.032047424 1.7955025e-38 326 266
0.0086036054 0.70099998 -0.031956252 1.823161e-38 327 266
0.0098326923 0.70099998 -0.031956252 1.8138693e-38 328 266
0.01109334 0.70300001 -0.032047424 1.7953942e-38 329 266
0.012325933 0.70300001 -0.032047424 1.7952129e-38 330 266
0.013558527 0.70300001 -0.032047424 1.7491509e-38 331 266
0.014791119 0.70300001 -0.032047424 1.7397143e-38 332 266
0.016023712 0.70300001 -0.032047424 1.7212752e-38 333 266
0.017256306 0.70300001 -0.032047424 1.6844689e-38 334 266
0.018515198 0.704 -0.032093015 1.6752492e-38 335 266
0.019749546 0.704 -0.032093015 1.6935436e-38 336 266
0.020983893 0.704 -0.032093015 1.6935436e-38 337 266
0.022281358 0.70599997 -0.032184184 1.6661e-38 338 266
0.023519212 0.70599997 -0.032184184 1.6753196e-38 339 266
0.024757065 0.70599997 -0.032184184 1.6753193e-38 340 266
0.02603174 0.70700002 -0.032229774 1.6660997e-38 341 266
0.027309919 0.708 -0.03227536 1.656953e-38 342 266
0.028631933 0.70999998 -0.032366529 1.6661727e-38 343 266
0.029918881 0.71100003 -0.032412119 1.6295834e-38 344 266
0.031253166 0.713 -0.032503292 1.638803e-38 345 266
0.032548878 0.71399999 -0.032548878 1.5930648e-38 346 266
0.033800758 0.71399999 -0.032548878 1.5838452e-38 347 266
0.035150826 0.71600002 -0.032640055 1.5655484e-38 348 266
0.036406212 0.71600002 -0.032640055 1.5655484e-38 349 266
0.037661601 0.71600002 -0.032640055 1.5563289e-38 350 266
0.038916986 0.71600002 -0.032640055 1.5194505e-38 351 266
0.040228479 0.71700001 -0.032685637 1.4640682e-38 352 266
0.041485619 0.71700001 -0.032685637 1.6208368e-38 353 266
-0.027849946 0.722 -0.034179479 1.6506961e-38 298 267
-0.026584039 0.722 -0.034179479 8.6703325e-39 299 267
-0.025248 0.72000003 -0.034084801 1.4170704e-38 300 267
-0.0239856 0.72000003 -0.034084801 1.5646192e-38 301 267
-0.022691639 0.71899998 -0.03403746 1.610677e-38 302 267
-0.021430992 0.71899998 -0.03403746 1.610677e-38 303 267
-0.020114239 0.71700001 -0.033942781 1.6198249e-38 304 267
-0.0188308 0.71600002 -0.03389544 1.6474477e-38 305 267
-0.017575413 0.71600002 -0.03389544 1.6566679e-38 306 267
-0.01620606 0.71100003 -0.033658739 1.7027298e-38 307 267
-0.014938398 0.70999998 -0.033611398 1.6753235e-38 308 267
-0.013693533 0.70999998 -0.033611398 1.7122016e-38 309 267
-0.0124136 0.708 -0.033516716 1.7031267e-38 310 267
-0.01117224 0.708 -0.033516716 1.7123462e-38 311 267
-0.0099308798 0.708 -0.033516716 1.7033067e-38 312 267
-0.008677247 0.70700002 -0.033469379 1.7033067e-38 313 267
-0.0074376399 0.70700002 -0.033469379 1.7308928e-38 314 267
-0.0061980332 0.70700002 -0.033469379 1.7308928e-38 315 267
-0.0049514128 0.70599997 -0.033422034 1.7308926e-38 316 267
-0.0037030398 0.704 -0.03332736 1.721673e-38 317 267
-0.0024686933 0.704 -0.03332736 1.7308209e-38 318 267
-0.0012343467 0.704 -0.03332736 1.7308209e-38 319 267
0 0.70300001 -0.033280019 1.7401478e-38 320 267
0.0012290865 0.70099998 -0.03318534 1.7493674e-38 321 267
0.0024546667 0.69999999 -0.033137999 1.7859566e-38 322 267
0.0036819996 0.69999999 -0.033137999 1.7951763e-38 323 267
0.0049093333 0.69999999 -0.033137999 1.7768819e-38 324 267
0.0061454331 0.70099998 -0.03318534 1.8045046e-38 325 267
0.0073745195 0.70099998 -0.03318534 1.8047201e-38 326 267
0.0086036054 0.70099998 -0.03318534 1.786245e-38 327 267
0.0098326923 0.70099998 -0.03318534 1.8044312e-38 328 267
0.011061779 0.70099998 -0.03318534 1.7859919e-38 329 267
0.012290866 0.70099998 -0.03318534 1.7582257e-38 330 267
0.013558527 0.70300001 -0.033280019 1.730531e-38 331 267
0.014791119 0.70300001 -0.033280019 1.7395342e-38 332 267
0.016023712 0.70300001 -0.033280019 1.6934723e-38 333 267
0.017256306 0.70300001 -0.033280019 1.6843591e-38 334 267
0.018488899 0.70300001 -0.033280019 1.665956e-38 335 267
0.019721493 0.70300001 -0.033280019 1.6750676e-38 336 267
0.020954086 0.70300001 -0.033280019 1.6842872e-38 337 267
0.022218239 0.704 -0.03332736 1.6659562e-38 338 267
0.023452586 0.704 -0.03332736 1.6659562e-38 339 267
0.024686933 0.704 -0.03332736 1.6660281e-38 340 267
0.025994917 0.70599997 -0.033422034 1.6660281e-38 341 267
0.027271347 0.70700002 -0.033469379 1.6476616e-38 342 267
0.028510952 0.70700002 -0.033469379 1.6660647e-38 343 267
0.029876797 0.70999998 -0.033611398 1.6294753e-38 344 267
0.031121666 0.70999998 -0.033611398 1.6387307e-38 345 267
0.032412119 0.71100003 -0.033658739 1.5928497e-38 346 267
0.033800758 0.71399999 -0.033800758 1.6020692e-38 347 267
0.035150826 0.71600002 -0.03389544 1.5745898e-38 348 267
0.036406212 0.71600002 -0.03389544 1.5838452e-38 349 267
0.037661601 0.71600002 -0.03389544 1.5287794e-38 350 267
0.038916986 0.71600002 -0.03389544 1.5195598e-38 351 267
0.040172372 0.71600002 -0.03389544 1.4642822e-38 352 267
0.041427758 0.71600002 -0.03389544 1.4365875e-38 353 267
0.042683143 0.71600002 -0.03389544 1.5022826e-38 354 267
-0.027772799 0.72000003 -0.035347197 1.4569035e-38 298 268
-0.026510401 0.72000003 -0.035347197 8.5763193e-39 299 268
-0.025248 0.72000003 -0.035347197 1.444872e-38 300 268
-0.023952285 0.71899998 -0.035298105 1.5555066e-38 301 268
-0.02262852 0.71700001 -0.035199918 1.5647599e-38 302 268
-0.021371379 0.71700001 -0.035199918 1.583163e-38 303 268
-0.020086186 0.71600002 -0.035150826 1.6106417e-38 304 268
-0.0188308 0.71600002 -0.035150826 1.6291168e-38 305 268
-0.017526319 0.71399999 -0.035052639 1.6475206e-38 306 268
-0.01620606 0.71100003 -0.034905359 1.6843989e-38 307 268
-0.014938398 0.70999998 -0.034856264 1.6569926e-38 308 268
-0.013654959 0.708 -0.034758076 1.6846152e-38 309 268
-0.0124136 0.708 -0.034758076 1.6755759e-38 310 268
-0.011156459 0.70700002 -0.034708988 1.694015e-38 311 268
-0.0099168532 0.70700002 -0.034708988 1.6757554e-38 312 268
-0.008677247 0.70700002 -0.034708988 1.7034139e-38 313 268
-0.0074271196 0.70599997 -0.034659892 1.6849749e-38 314 268
-0.0061892662 0.70599997 -0.034659892 1.6849749e-38 315 268
-0.0049373866 0.704 -0.034561705 1.7033064e-38 316 268
-0.0037030398 0.704 -0.034561705 1.6848673e-38 317 268
-0.0024651866 0.70300001 -0.034512613 1.7123462e-38 318 268
-0.0012325933 0.70300001 -0.034512613 1.7123462e-38 319 268
0 0.70099998 -0.034414422 1.7123818e-38 320 268
0.0012273333 0.69999999 -0.034365334 1.7031264e-38 321 268
0.0024546667 0.69999999 -0.034365334 1.712345e-38 322 268
0.0036819996 0.69999999 -0.034365334 1.7399676e-38 323 268
0.0049093333 0.69999999 -0.034365334 1.6757557e-38 324 268
0.0061366665 0.69999999 -0.034365334 1.731073e-38 325 268
0.0073639993 0.69999999 -0.034365334 1.8137592e-38 326 268
0.0085913334 0.69999999 -0.034365334 1.7400027e-38 327 268
0.0098186666 0.69999999 -0.034365334 1.7307796e-38 328 268
0.011061779 0.70099998 -0.034414422 1.7123405e-38 329 268
0.012290866 0.70099998 -0.034414422 1.6846843e-38 330 268
0.013558527 0.70300001 -0.034512613 1.6569898e-38 331 268
0.014791119 0.70300001 -0.034512613 1.6659225e-38 332 268
0.016023712 0.70300001 -0.034512613 1.6474833e-38 333 268
0.017256306 0.70300001 -0.034512613 1.6199676e-38 334 268
0.018488899 0.70300001 -0.034512613 1.6199676e-38 335 268
0.019665385 0.70099998 -0.034414422 1.6198602e-38 336 268
0.020894472 0.70099998 -0.034414422 1.6106407e-38 337 268
0.02218668 0.70300001 -0.034512613 1.61986e-38 338 268
0.023419274 0.70300001 -0.034512613 1.6475187e-38 339 268
0.024686933 0.704 -0.034561705 1.6109275e-38 340 268
0.02592128 0.704 -0.034561705 1.6109275e-38 341 268
0.027232772 0.70599997 -0.034659892 1.6201471e-38 342 268
0.028470624 0.70599997 -0.034659892 1.6477698e-38 343 268
0.029750559 0.70700002 -0.034708988 1.5835578e-38 344 268
0.030990168 0.70700002 -0.034708988 1.5743382e-38 345 268
0.032366529 0.70999998 -0.034856264 1.546789e-38 346 268
0.033658739 0.71100003 -0.034905359 1.5560087e-38 347 268
0.035052639 0.71399999 -0.035052639 1.5194894e-38 348 268
0.036406212 0.71600002 -0.035150826 1.528709e-38 349 268
0.037661601 0.71600002 -0.035150826 1.519525e-38 350 268
0.038971342 0.71700001 -0.035199918 1.519525e-38 351 268
0.040172372 0.71600002 -0.035150826 1.4826471e-38 352 268
0.041427758 0.71600002 -0.035150826 1.4181101e-38 353 268
0.042683143 0.71600002 -0.035150826 1.5106722e-38 354 268
-0.027772799 0.72000003 -0.036609601 1.216941e-38 298 269
-0.026510401 0.72000003 -0.036609601 9.2195083e-39 299 269
-0.025248 0.72000003 -0.036609601 1.5188057e-38 300 269
-0.023952285 0.71899998 -0.036558751 1.5188057e-38 301 269
-0.02262852 0.71700001 -0.036457058 1.573871e-38 302 269
-0.021371379 0.71700001 -0.036457058 1.573871e-38 303 269
-0.020086186 0.71600002 -0.036406212 1.6014577e-38 304 269
-0.018778199 0.71399999 -0.036304519 1.619897e-38 305 269
-0.017501773 0.713 -0.036253672 1.6199335e-38 306 269
-0.01620606 0.71100003 -0.036151983 1.6568477e-38 307 269
-0.014938398 0.70999998 -0.036101133 1.6385882e-38 308 269
-0.013654959 0.708 -0.03599944 1.6754663e-38 309 269
-0.012396066 0.70700002 -0.035948593 1.6571716e-38 310 269
-0.011156459 0.70700002 -0.035948593 1.6756109e-38 311 269
-0.0099168532 0.70700002 -0.035948593 1.6665358e-38 312 269
-0.0086649731 0.70599997 -0.035897743 1.7034139e-38 313 269
-0.0074271196 0.70599997 -0.035897743 1.6758629e-38 314 269
-0.0061892662 0.70599997 -0.035897743 1.6758629e-38 315 269
-0.0049373866 0.704 -0.035796054 1.6940503e-38 316 269
-0.0037030398 0.704 -0.035796054 1.6755753e-38 317 269
-0.0024651866 0.70300001 -0.035745207 1.6937985e-38 318 269
-0.0012325933 0.70300001 -0.035745207 1.6845789e-38 319 269
0 0.70099998 -0.035643511 1.7029099e-38 320 269
0.0012273333 0.69999999 -0.035592664 1.6844708e-38 321 269
0.0024546667 0.69999999 -0.035592664 1.6569194e-38 322 269
0.0036819996 0.69999999 -0.035592664 1.666139e-38 323 269
0.0049093333 0.69999999 -0.035592664 1.6478796e-38 324 269
0.0061366665 0.69999999 -0.035592664 1.6478796e-38 325 269
0.0073639993 0.69999999 -0.035592664 1.6937254e-38 326 269
0.0085913334 0.69999999 -0.035592664 1.6661027e-38 327 269
0.0098186666 0.69999999 -0.035592664 1.6293316e-38 328 269
0.011045999 0.69999999 -0.035592664 1.6293316e-38 329 269
0.012273333 0.69999999 -0.035592664 1.6476984e-38 330 269
0.013500666 0.69999999 -0.035592664 1.6292234e-38 331 269
0.014727999 0.69999999 -0.035592664 1.61986e-38 332 269
0.015978126 0.70099998 -0.035643511 1.6014208e-38 333 269
0.017207211 0.70099998 -0.035643511 1.6013843e-38 334 269
0.018436298 0.70099998 -0.035643511 1.6013843e-38 335 269
0.019637333 0.69999999 -0.035592664 1.601349e-38 336 269
0.020864666 0.69999999 -0.035592664 1.601349e-38 337 269
0.02218668 0.70300001 -0.035745207 1.6014208e-38 338 269
0.023419274 0.70300001 -0.035745207 1.6106404e-38 339 269
0.024686933 0.704 -0.035796054 1.5741213e-38 340 269
0.02592128 0.704 -0.035796054 1.5833767e-38 341 269
0.027232772 0.70599997 -0.035897743 1.5926682e-38 342 269
0.028470624 0.70599997 -0.035897743 1.5926682e-38 343 269
0.029750559 0.70700002 -0.035948593 1.5651184e-38 344 269
0.030990168 0.70700002 -0.035948593 1.5651184e-38 345 269
0.032229774 0.70700002 -0.035948593 1.537497e-38 346 269
0.033516716 0.708 -0.03599944 1.555972e-38 347 269
0.034905359 0.71100003 -0.036151983 1.5377841e-38 348 269
0.036304519 0.71399999 -0.036304519 1.5377841e-38 349 269
0.037661601 0.71600002 -0.036406212 1.5103049e-38 350 269
0.038916986 0.71600002 -0.036406212 1.5103049e-38 351 269
0.040228479 0.71700001 -0.036457058 1.4919734e-38 352 269
0.041485619 0.71700001 -0.036457058 1.4182168e-38 353 269
0.042742759 0.71700001 -0.036457058 1.464645e-38 354 269
-0.029035201 0.72000003 -0.037871998 1.4567635e-38 297 270
-0.027772799 0.72000003 -0.037871998 1.2710342e-38 298 270
-0.026510401 0.72000003 -0.037871998 1.2157168e-38 299 270
-0.025212931 0.71899998 -0.037819397 1.5097294e-38 300 270
-0.02388566 0.71700001 -0.037714198 1.4820348e-38 301 270
-0.02262852 0.71700001 -0.037714198 1.5553597e-38 302 270
-0.021371379 0.71700001 -0.037714198 1.5646152e-38 303 270
-0.020086186 0.71600002 -0.037661601 1.6013858e-38 304 270
-0.018778199 0.71399999 -0.037556399 1.6106054e-38 305 270
-0.017501773 0.713 -0.037503798 1.6015301e-38 306 270
-0.016183265 0.70999998 -0.037345998 1.6384083e-38 307 270
-0.014938398 0.70999998 -0.037345998 1.6293682e-38 308 270
-0.013654959 0.708 -0.0372408 1.6478433e-38 309 270
-0.012396066 0.70700002 -0.037188202 1.6478796e-38 310 270
-0.011140679 0.70599997 -0.037135597 1.6570992e-38 311 270
-0.0099028256 0.70599997 -0.037135597 1.6480597e-38 312 270
-0.0086649731 0.70599997 -0.037135597 1.6756825e-38 313 270
-0.0074271196 0.70599997 -0.037135597 1.6665708e-38 314 270
-0.0061892662 0.70599997 -0.037135597 1.6573513e-38 315 270
-0.0049373866 0.704 -0.037030395 1.6755386e-38 316 270
-0.0037030398 0.704 -0.037030395 1.6478799e-38 317 270
-0.0024581731 0.70099998 -0.036872596 1.666139e-38 318 270
-0.0012290865 0.70099998 -0.036872596 1.6476997e-38 319 270
0 0.70099998 -0.036872596 1.6568827e-38 320 270
0.0012273333 0.69999999 -0.036819998 1.6476631e-38 321 270
0.0024546667 0.69999999 -0.036819998 1.6384436e-38 322 270
0.0036819996 0.69999999 -0.036819998 1.6384436e-38 323 270
0.0049093333 0.69999999 -0.036819998 1.647591e-38 324 270
0.0061366665 0.69999999 -0.036819998 1.647591e-38 325 270
0.0073429602 0.69800001 -0.0367148 1.6568827e-38 326 270
0.0085667865 0.69800001 -0.0367148 1.6384436e-38 327 270
0.0097906133 0.69800001 -0.0367148 1.6108572e-38 328 270
0.011045999 0.69999999 -0.036819998 1.6016376e-38 329 270
0.012273333 0.69999999 -0.036819998 1.5831978e-38 330 270
0.013500666 0.69999999 -0.036819998 1.5647947e-38 331 270
0.014727999 0.69999999 -0.036819998 1.5739061e-38 332 270
0.015955333 0.69999999 -0.036819998 1.5554669e-38 333 270
0.017207211 0.70099998 -0.036872596 1.5737263e-38 334 270
0.018436298 0.70099998 -0.036872596 1.5737263e-38 335 270
0.019637333 0.69999999 -0.036819998 1.5737263e-38 336 270
0.020864666 0.69999999 -0.036819998 1.5737263e-38 337 270
0.02218668 0.70300001 -0.036977798 1.5554669e-38 338 270
0.023419274 0.70300001 -0.036977798 1.5646865e-38 339 270
0.024686933 0.704 -0.037030395 1.5556823e-38 340 270
0.02592128 0.704 -0.037030395 1.5649019e-38 341 270
0.027232772 0.70599997 -0.037135597 1.5558622e-38 342 270
0.028470624 0.70599997 -0.037135597 1.5650818e-38 343 270
0.029708479 0.70599997 -0.037135597 1.537532e-38 344 270
0.030990168 0.70700002 -0.037188202 1.5283124e-38 345 270
0.032229774 0.70700002 -0.037188202 1.5099815e-38 346 270
0.033469379 0.70700002 -0.037188202 1.5376042e-38 347 270
0.034856264 0.70999998 -0.037345998 1.5193445e-38 348 270
0.036151983 0.71100003 -0.037398599 1.5285641e-38 349 270
0.037661601 0.71600002 -0.037661601 1.5010136e-38 350 270
0.038916986 0.71600002 -0.037661601 1.5010136e-38 351 270
0.040228479 0.71700001 -0.037714198 1.4826465e-38 352 270
0.041485619 0.71700001 -0.037714198 1.4181096e-38 353 270
0.042742759 0.71700001 -0.037714198 1.4276226e-38 354 270
-0.029035201 0.72000003 -0.039134402 1.3092133e-38 297 271
-0.027734226 0.71899998 -0.039080046 1.3164836e-38 298 271
-0.02647358 0.71899998 -0.039080046 1.3717651e-38 299 271
-0.0251428 0.71700001 -0.038971342 1.5095862e-38 300 271
-0.02388566 0.71700001 -0.038971342 1.4819634e-38 301 271
-0.022596961 0.71600002 -0.038916986 1.5461047e-38 302 271
-0.021341572 0.71600002 -0.038916986 1.5553603e-38 303 271
-0.020086186 0.71600002 -0.038916986 1.5645799e-38 304 271
-0.018778199 0.71399999 -0.038808275 1.583019e-38 305 271
-0.01745268 0.71100003 -0.038645219 1.583163e-38 306 271
-0.016183265 0.70999998 -0.038590867 1.6108219e-38 307 271
-0.01489632 0.708 -0.038482159 1.6200414e-38 308 271
-0.013635674 0.70700002 -0.038427804 1.6477e-38 309 271
-0.012396066 0.70700002 -0.038427804 1.6293332e-38 310 271
-0.011140679 0.70599997 -0.038373452 1.6385529e-38 311 271
-0.0099028256 0.70599997 -0.038373452 1.6295134e-38 312 271
-0.0086649731 0.70599997 -0.038373452 1.6295134e-38 313 271
-0.0074060797 0.704 -0.038264744 1.6387332e-38 314 271
-0.0061717331 0.704 -0.038264744 1.6294778e-38 315 271
-0.0049373866 0.704 -0.038264744 1.6385894e-38 316 271
-0.0036977797 0.70300001 -0.038210396 1.6109668e-38 317 271
-0.0024581731 0.70099998 -0.038101684 1.629261e-38 318 271
-0.0012290865 0.70099998 -0.038101684 1.6108219e-38 319 271
0 0.70099998 -0.038101684 1.5925257e-38 320 271
0.0012273333 0.69999999 -0.038047329 1.5833061e-38 321 271
0.0024546667 0.69999999 -0.038047329 1.6199323e-38 322 271
0.0036819996 0.69999999 -0.038047329 1.6199323e-38 323 271
0.0048953067 0.69800001 -0.037938625 1.6015657e-38 324 271
0.006119133 0.69800001 -0.037938625 1.592346e-38 325 271
0.0073429602 0.69800001 -0.037938625 1.5832708e-38 326 271
0.0085667865 0.69800001 -0.037938625 1.5648315e-38 327 271
0.0097906133 0.69800001 -0.037938625 1.5923458e-38 328 271
0.01101444 0.69800001 -0.037938625 1.5831262e-38 329 271
0.012238266 0.69800001 -0.037938625 1.5646865e-38 330 271
0.013462093 0.69800001 -0.037938625 1.5554669e-38 331 271
0.01468592 0.69800001 -0.037938625 1.5555025e-38 332 271
0.015955333 0.69999999 -0.038047329 1.5370635e-38 333 271
0.017207211 0.70099998 -0.038101684 1.5278794e-38 334 271
0.018436298 0.70099998 -0.038101684 1.5370991e-38 335 271
0.019665385 0.70099998 -0.038101684 1.5462107e-38 336 271
0.020894472 0.70099998 -0.038101684 1.5369911e-38 337 271
0.02218668 0.70300001 -0.038210396 1.5278085e-38 338 271
0.023419274 0.70300001 -0.038210396 1.5278085e-38 339 271
0.024686933 0.704 -0.038264744 1.5371726e-38 340 271
0.02592128 0.704 -0.038264744 1.5463921e-38 341 271
0.027232772 0.70599997 -0.038373452 1.5190211e-38 342 271
0.028470624 0.70599997 -0.038373452 1.5282408e-38 343 271
0.029708479 0.70599997 -0.038373452 1.5007263e-38 344 271
0.030946331 0.70599997 -0.038373452 1.5007263e-38 345 271
0.032229774 0.70700002 -0.038427804 1.5099459e-38 346 271
0.033469379 0.70700002 -0.038427804 1.5099459e-38 347 271
0.034856264 0.70999998 -0.038590867 1.5009417e-38 348 271
0.036101133 0.70999998 -0.038590867 1.5193448e-38 349 271
0.037556399 0.71399999 -0.038808275 1.5009064e-38 350 271
0.038916986 0.71600002 -0.038916986 1.4916868e-38 351 271
0.040172372 0.71600002 -0.038916986 1.4732843e-38 352 271
0.041485619 0.71700001 -0.038971342 1.4271865e-38 353 271
0.042742759 0.71700001 -0.038971342 1.4181875e-38 354 271
-0.029035201 0.72000003 -0.040396802 1.2538956e-38 297 272
-0.027734226 0.71899998 -0.040340692 1.3256307e-38 298 272
-0.02647358 0.71899998 -0.040340692 1.3901677e-38 299 272
-0.0251428 0.71700001 -0.040228479 1.5186258e-38 300 272
-0.023852346 0.71600002 -0.040172372 1.5002227e-38 301 272
-0.022596961 0.71600002 -0.040172372 1.5369205e-38 302 272
-0.021341572 0.71600002 -0.040172372 1.54614e-38 303 272
-0.020030079 0.71399999 -0.040060159 1.5461756e-38 304 272
-0.018751899 0.713 -0.040004052 1.5646149e-38 305 272
-0.01745268 0.71100003 -0.039891839 1.5739063e-38 306 272
-0.016183265 0.70999998 -0.039835732 1.5923455e-38 307 272
-0.01489632 0.708 -0.039723519 1.6198249e-38 308 272
-0.013635674 0.70700002 -0.039667413 1.6382282e-38 309 272
-0.012396066 0.70700002 -0.039667413 1.6199691e-38 310 272
-0.011140679 0.70599997 -0.039611302 1.6291887e-38 311 272
-0.0099028256 0.70599997 -0.039611302 1.6109644e-38 312 272
-0.0086649731 0.70599997 -0.039611302 1.5925613e-38 313 272
-0.0074060797 0.704 -0.039499093 1.6201118e-38 314 272
-0.0061717331 0.704 -0.039499093 1.6201118e-38 315 272
-0.0049303733 0.70300001 -0.039442986 1.6108569e-38 316 272
-0.0036872597 0.70099998 -0.039330769 1.5831981e-38 317 272
-0.0024546667 0.69999999 -0.039274666 1.6106407e-38 318 272
-0.0012273333 0.69999999 -0.039274666 1.5921657e-38 319 272
0 0.69999999 -0.039274666 1.601349e-38 320 272
0.0012273333 0.69999999 -0.039274666 1.601349e-38 321 272
0.0024476533 0.69800001 -0.039162453 1.5921291e-38 322 272
0.0036714801 0.69800001 -0.039162453 1.6013487e-38 323 272
0.0048953067 0.69800001 -0.039162453 1.5738695e-38 324 272
0.006119133 0.69800001 -0.039162453 1.5738695e-38 325 272
0.0073429602 0.69800001 -0.039162453 1.5738345e-38 326 272
0.0085667865 0.69800001 -0.039162453 1.5646149e-38 327 272
0.0097906133 0.69800001 -0.039162453 1.5646865e-38 328 272
0.01101444 0.69800001 -0.039162453 1.5554669e-38 329 272
0.012238266 0.69800001 -0.039162453 1.5554657e-38 330 272
0.013462093 0.69800001 -0.039162453 1.546246e-38 331 272
0.01468592 0.69800001 -0.039162453 1.5462457e-38 332 272
0.015955333 0.69999999 -0.039274666 1.5462457e-38 333 272
0.017182667 0.69999999 -0.039274666 1.5279145e-38 334 272
0.018409999 0.69999999 -0.039274666 1.5279145e-38 335 272
0.019665385 0.70099998 -0.039330769 1.5369908e-38 336 272
0.020894472 0.70099998 -0.039330769 1.5185877e-38 337 272
0.022123558 0.70099998 -0.039330769 1.5185527e-38 338 272
0.023419274 0.70300001 -0.039442986 1.5369558e-38 339 272
0.024651866 0.70300001 -0.039442986 1.5278085e-38 340 272
0.02592128 0.704 -0.039499093 1.5554672e-38 341 272
0.027155625 0.704 -0.039499093 1.5188411e-38 342 272
0.028470624 0.70599997 -0.039611302 1.5280606e-38 343 272
0.029708479 0.70599997 -0.039611302 1.5097663e-38 344 272
0.030946331 0.70599997 -0.039611302 1.5189858e-38 345 272
0.032229774 0.70700002 -0.039667413 1.5098381e-38 346 272
0.033469379 0.70700002 -0.039667413 1.5282774e-38 347 272
0.034708988 0.70700002 -0.039667413 1.5099459e-38 348 272
0.036101133 0.70999998 -0.039835732 1.528349e-38 349 272
0.037556399 0.71399999 -0.040060159 1.5007985e-38 350 272
0.038916986 0.71600002 -0.040172372 1.4915789e-38 351 272
0.040172372 0.71600002 -0.040172372 1.4824317e-38 352 272
0.041485619 0.71700001 -0.040228479 1.4547729e-38 353 272
0.042742759 0.71700001 -0.040228479 1.3906364e-38 354 272
0.043999899 0.71700001 -0.040228479 1.5842472e-38 355 272
-0.028994869 0.71899998 -0.041601337 1.2353116e-38 297 273
-0.027734226 0.71899998 -0.041601337 1.3531818e-38 298 273
-0.02639994 0.71700001 -0.041485619 1.4177187e-38 299 273
-0.025107734 0.71600002 -0.041427758 1.5002594e-38 300 273
-0.023852346 0.71600002 -0.041427758 1.4910397e-38 301 273
-0.022596961 0.71600002 -0.041427758 1.5002224e-38 302 273
-0.021341572 0.71600002 -0.041427758 1.5186255e-38 303 273
-0.020030079 0.71399999 -0.041312039 1.509514e-38 304 273
-0.018751899 0.713 -0.041254178 1.5371726e-38 305 273
-0.01745268 0.71100003 -0.041138459 1.5555401e-38 306 273
-0.016183265 0.70999998 -0.041080594 1.5647596e-38 307 273
-0.01489632 0.708 -0.040964879 1.5647246e-38 308 273
-0.013635674 0.70700002 -0.040907022 1.5831279e-38 309 273
-0.012396066 0.70700002 -0.040907022 1.5831279e-38 310 273
-0.011140679 0.70599997 -0.040849157 1.5831279e-38 311 273
-0.0099028256 0.70599997 -0.040849157 1.5649036e-38 312 273
-0.0086404262 0.704 -0.040733438 1.5741231e-38 313 273
-0.0074060797 0.704 -0.040733438 1.5557919e-38 314 273
-0.0061717331 0.704 -0.040733438 1.5373526e-38 315 273
-0.0049303733 0.70300001 -0.040675577 1.5647246e-38 316 273
-0.0036872597 0.70099998 -0.040559858 1.5462496e-38 317 273
-0.0024546667 0.69999999 -0.040502001 1.5553613e-38 318 273
-0.0012273333 0.69999999 -0.040502001 1.5369582e-38 319 273
0 0.69999999 -0.040502001 1.5278458e-38 320 273
0.0012238267 0.69800001 -0.040386278 1.5278458e-38 321 273
0.0024476533 0.69800001 -0.040386278 1.5278088e-38 322 273
0.0036714801 0.69800001 -0.040386278 1.5370285e-38 323 273
0.0048953067 0.69800001 -0.040386278 1.509514e-38 324 273
0.006119133 0.69800001 -0.040386278 1.5002943e-38 325 273
0.0073429602 0.69800001 -0.040386278 1.5003663e-38 326 273
0.0085545136 0.69700003 -0.040328421 1.5003663e-38 327 273
0.0097765867 0.69700003 -0.040328421 1.5095846e-38 328 273
0.01101444 0.69800001 -0.040386278 1.5003649e-38 329 273
0.012273333 0.69999999 -0.040502001 1.5186243e-38 330 273
0.013500666 0.69999999 -0.040502001 1.5186243e-38 331 273
0.014727999 0.69999999 -0.040502001 1.5002575e-38 332 273
0.015955333 0.69999999 -0.040502001 1.5002575e-38 333 273
0.017182667 0.69999999 -0.040502001 1.5002931e-38 334 273
0.018409999 0.69999999 -0.040502001 1.4910735e-38 335 273
0.019637333 0.69999999 -0.040502001 1.4910379e-38 336 273
0.020864666 0.69999999 -0.040502001 1.4910379e-38 337 273
0.022123558 0.70099998 -0.040559858 1.4635237e-38 338 273
0.023352645 0.70099998 -0.040559858 1.4727432e-38 339 273
0.024651866 0.70300001 -0.040675577 1.5002946e-38 340 273
0.02592128 0.704 -0.040733438 1.5002946e-38 341 273
0.027155625 0.704 -0.040733438 1.4912196e-38 342 273
0.028389972 0.704 -0.040733438 1.5004392e-38 343 273
0.029708479 0.70599997 -0.040849157 1.4822164e-38 344 273
0.030946331 0.70599997 -0.040849157 1.4914361e-38 345 273
0.032184184 0.70599997 -0.040849157 1.4731405e-38 346 273
0.033469379 0.70700002 -0.040907022 1.4915436e-38 347 273
0.034708988 0.70700002 -0.040907022 1.4731768e-38 348 273
0.036101133 0.70999998 -0.041080594 1.4731768e-38 349 273
0.037503798 0.713 -0.041254178 1.4731049e-38 350 273
0.038808275 0.71399999 -0.041312039 1.491508e-38 351 273
0.040172372 0.71600002 -0.041427758 1.4456979e-38 352 273
0.041427758 0.71600002 -0.041427758 1.4456979e-38 353 273
0.042683143 0.71600002 -0.041427758 1.4089313e-38 354 273
0.043999899 0.71700001 -0.041485619 1.5287857e-38 355 273
-0.028914221 0.71700001 -0.042742759 1.1982891e-38 297 274
-0.027657079 0.71700001 -0.042742759 1.3715136e-38 298 274
-0.02639994 0.71700001 -0.042742759 1.4452701e-38 299 274
-0.025107734 0.71600002 -0.042683143 1.5002244e-38 300 274
-0.023852346 0.71600002 -0.042683143 1.5002244e-38 301 274
-0.022533838 0.71399999 -0.042563915 1.5093341e-38 302 274
-0.021281958 0.71399999 -0.042563915 1.5185537e-38 303 274
-0.020002026 0.713 -0.042504307 1.5278085e-38 304 274
-0.0186993 0.71100003 -0.042385083 1.5370641e-38 305 274
-0.017428132 0.70999998 -0.042325463 1.5554306e-38 306 274
-0.01613768 0.708 -0.042206239 1.5646502e-38 307 274
-0.01489632 0.708 -0.042206239 1.5646502e-38 308 274
-0.013635674 0.70700002 -0.042146627 1.5554306e-38 309 274
-0.012378532 0.70599997 -0.042087011 1.5554316e-38 310 274
-0.011140679 0.70599997 -0.042087011 1.5370285e-38 311 274
-0.0099028256 0.70599997 -0.042087011 1.5737991e-38 312 274
-0.0086404262 0.704 -0.041967787 1.5830546e-38 313 274
-0.0074060797 0.704 -0.041967787 1.5555754e-38 314 274
-0.0061629666 0.70300001 -0.041908171 1.5371004e-38 315 274
-0.0049163462 0.70099998 -0.041788943 1.54614e-38 316 274
-0.0036819996 0.69999999 -0.041729331 1.5185174e-38 317 274
-0.0024546667 0.69999999 -0.041729331 1.5276643e-38 318 274
-0.0012273333 0.69999999 -0.041729331 1.5368839e-38 319 274
0 0.69999999 -0.041729331 1.5093681e-38 320 274
0.0012238267 0.69800001 -0.041610107 1.5185877e-38 321 274
0.0024441467 0.69700003 -0.041550495 1.5094044e-38 322 274
0.00366622 0.69700003 -0.041550495 1.518624e-38 323 274
0.0048882933 0.69700003 -0.041550495 1.518589e-38 324 274
0.0061103669 0.69700003 -0.041550495 1.5093694e-38 325 274
0.00733244 0.69700003 -0.041550495 1.4911101e-38 326 274
0.0085545136 0.69700003 -0.041550495 1.5003296e-38 327 274
0.0097765867 0.69700003 -0.041550495 1.5186243e-38 328 274
0.01101444 0.69800001 -0.041610107 1.5094047e-38 329 274
0.012238266 0.69800001 -0.041610107 1.5093331e-38 330 274
0.013500666 0.69999999 -0.041729331 1.5093331e-38 331 274
0.014727999 0.69999999 -0.041729331 1.509405e-38 332 274
0.015955333 0.69999999 -0.041729331 1.509405e-38 333 274
0.017182667 0.69999999 -0.041729331 1.4910732e-38 334 274
0.018409999 0.69999999 -0.041729331 1.4818536e-38 335 274
0.019637333 0.69999999 -0.041729331 1.49093e-38 336 274
0.020864666 0.69999999 -0.041729331 1.49093e-38 337 274
0.022091998 0.69999999 -0.041729331 1.481783e-38 338 274
0.023352645 0.70099998 -0.041788943 1.481783e-38 339 274
0.024651866 0.70300001 -0.041908171 1.4818902e-38 340 274
0.025884461 0.70300001 -0.041908171 1.4818902e-38 341 274
0.027155625 0.704 -0.041967787 1.4635956e-38 342 274
0.028389972 0.704 -0.041967787 1.4820348e-38 343 274
0.029708479 0.70599997 -0.042087011 1.482072e-38 344 274
0.030946331 0.70599997 -0.042087011 1.5005111e-38 345 274
0.032184184 0.70599997 -0.042087011 1.4638849e-38 346 274
0.033469379 0.70700002 -0.042146627 1.4731405e-38 347 274
0.034708988 0.70700002 -0.042146627 1.4731405e-38 348 274
0.036101133 0.70999998 -0.042325463 1.4638849e-38 349 274
0.037398599 0.71100003 -0.042385083 1.4547373e-38 350 274
0.038753927 0.713 -0.042504307 1.4547373e-38 351 274
0.040060159 0.71399999 -0.042563915 1.4456979e-38 352 274
0.041427758 0.71600002 -0.042683143 1.4456979e-38 353 274
0.042683143 0.71600002 -0.042683143 1.4181506e-38 354 274
0.043938532 0.71600002 -0.042683143 1.4642484e-38 355 274
0.045193922 0.71600002 -0.042683143 1.6312496e-38 356 274
-0.028914221 0.71700001 -0.043999899 1.2350232e-38 297 275
-0.027657079 0.71700001 -0.043999899 1.4084273e-38 298 275
-0.02639994 0.71700001 -0.043999899 1.4453054e-38 299 275
-0.025107734 0.71600002 -0.043938532 1.500296e-38 300 275
-0.023852346 0.71600002 -0.043938532 1.4726732e-38 301 275
-0.022533838 0.71399999 -0.043815799 1.4909676e-38 302 275
-0.021281958 0.71399999 -0.043815799 1.500223e-38 303 275
-0.020002026 0.713 -0.043754432 1.5002227e-38 304 275
-0.0186993 0.71100003 -0.043631699 1.5186258e-38 305 275
-0.017428132 0.70999998 -0.043570329 1.5186611e-38 306 275
-0.01613768 0.708 -0.043447599 1.5186611e-38 307 275
-0.01487528 0.70700002 -0.043386232 1.5186611e-38 308 275
-0.013635674 0.70700002 -0.043386232 1.5186611e-38 309 275
-0.012378532 0.70599997 -0.043324865 1.5186262e-38 310 275
-0.011109119 0.704 -0.043202132 1.500223e-38 311 275
-0.0098747732 0.704 -0.043202132 1.5095146e-38 312 275
-0.0086404262 0.704 -0.043202132 1.500295e-38 313 275
-0.0073955595 0.70300001 -0.043140765 1.5186258e-38 314 275
-0.0061454331 0.70099998 -0.043018032 1.5186258e-38 315 275
-0.0049163462 0.70099998 -0.043018032 1.5002224e-38 316 275
-0.0036819996 0.69999999 -0.042956665 1.4817833e-38 317 275
-0.0024546667 0.69999999 -0.042956665 1.4818186e-38 318 275
-0.0012273333 0.69999999 -0.042956665 1.4818186e-38 319 275
0 0.69999999 -0.042956665 1.4818183e-38 320 275
0.0012238267 0.69800001 -0.042833932 1.4818183e-38 321 275
0.0024441467 0.69700003 -0.042772565 1.4818183e-38 322 275
0.00366622 0.69700003 -0.042772565 1.4910379e-38 323 275
0.0048882933 0.69700003 -0.042772565 1.4818902e-38 324 275
0.0061103669 0.69700003 -0.042772565 1.4818902e-38 325 275
0.00733244 0.69700003 -0.042772565 1.4635587e-38 326 275
0.0085545136 0.69700003 -0.042772565 1.4635587e-38 327 275
0.0097765867 0.69700003 -0.042772565 1.4818539e-38 328 275
0.01099866 0.69700003 -0.042772565 1.4725985e-38 329 275
0.012238266 0.69800001 -0.042833932 1.4726353e-38 330 275
0.013462093 0.69800001 -0.042833932 1.4726353e-38 331 275
0.014727999 0.69999999 -0.042956665 1.4725635e-38 332 275
0.015909746 0.69800001 -0.042833932 1.4725635e-38 333 275
0.017133573 0.69800001 -0.042833932 1.4542322e-38 334 275
0.018409999 0.69999999 -0.042956665 1.4450127e-38 335 275
0.019637333 0.69999999 -0.042956665 1.4357578e-38 336 275
0.020864666 0.69999999 -0.042956665 1.4449774e-38 337 275
0.022091998 0.69999999 -0.042956665 1.4450492e-38 338 275
0.023352645 0.70099998 -0.043018032 1.4542688e-38 339 275
0.024581732 0.70099998 -0.043018032 1.4267896e-38 340 275
0.025884461 0.70300001 -0.043140765 1.4267896e-38 341 275
0.027155625 0.704 -0.043202132 1.4359744e-38 342 275
0.028389972 0.704 -0.043202132 1.4544137e-38 343 275
0.029708479 0.70599997 -0.043324865 1.4269717e-38 344 275
0.030946331 0.70599997 -0.043324865 1.4454108e-38 345 275
0.032184184 0.70599997 -0.043324865 1.4362991e-38 346 275
0.033469379 0.70700002 -0.043386232 1.4547022e-38 347 275
0.034758076 0.708 -0.043447599 1.4362991e-38 348 275
0.036101133 0.70999998 -0.043570329 1.4362991e-38 349 275
0.037398599 0.71100003 -0.043631699 1.4270796e-38 350 275
0.038645219 0.71100003 -0.043631699 1.4362991e-38 351 275
0.040004052 0.713 -0.043754432 1.4179692e-38 352 275
0.041312039 0.71399999 -0.043815799 1.4548474e-38 353 275
0.042563915 0.71399999 -0.043815799 1.4182228e-38 354 275
0.043815799 0.71399999 -0.043815799 1.4274425e-38 355 275
0.045067675 0.71399999 -0.043815799 1.6034817e-38 356 275
-0.028914221 0.71700001 -0.045257039 1.2533541e-38 297 276
-0.027618507 0.71600002 -0.045193922 1.4453054e-38 298 276
-0.026363119 0.71600002 -0.045193922 1.454525e-38 299 276
-0.025107734 0.71600002 -0.045193922 1.5002247e-38 300 276
-0.023852346 0.71600002 -0.045193922 1.4909691e-38 301 276
-0.022533838 0.71399999 -0.045067675 1.481748e-38 302 276
-0.021281958 0.71399999 -0.045067675 1.4909676e-38 303 276
-0.020002026 0.713 -0.045004558 1.5093341e-38 304 276
-0.0186993 0.71100003 -0.044878319 1.5185537e-38 305 276
-0.017428132 0.70999998 -0.044815198 1.5002575e-38 306 276
-0.01613768 0.708 -0.044688959 1.5002575e-38 307 276
-0.01487528 0.70700002 -0.044625837 1.5094047e-38 308 276
-0.013635674 0.70700002 -0.044625837 1.5001852e-38 309 276
-0.012378532 0.70599997 -0.044562716 1.5001501e-38 310 276
-0.011109119 0.704 -0.044436477 1.4908947e-38 311 276
-0.0098747732 0.704 -0.044436477 1.5093344e-38 312 276
-0.0086404262 0.704 -0.044436477 1.5001148e-38 313 276
-0.0073745195 0.70099998 -0.044247117 1.4818555e-38 314 276
-0.0061454331 0.70099998 -0.044247117 1.4818555e-38 315 276
-0.0049093333 0.69999999 -0.044183996 1.4818905e-38 316 276
-0.0036819996 0.69999999 -0.044183996 1.454232e-38 317 276
-0.0024546667 0.69999999 -0.044183996 1.4725985e-38 318 276
-0.0012238267 0.69800001 -0.04405776 1.4725985e-38 319 276
0 0.69800001 -0.04405776 1.4725985e-38 320 276
0.0012238267 0.69800001 -0.04405776 1.4725985e-38 321 276
0.0024476533 0.69800001 -0.04405776 1.4725988e-38 322 276
0.00366622 0.69700003 -0.043994639 1.4818183e-38 323 276
0.0048882933 0.69700003 -0.043994639 1.4818902e-38 324 276
0.0061103669 0.69700003 -0.043994639 1.4818902e-38 325 276
0.00733244 0.69700003 -0.043994639 1.4727057e-38 326 276
0.0085545136 0.69700003 -0.043994639 1.4543026e-38 327 276
0.0097765867 0.69700003 -0.043994639 1.4726338e-38 328 276
0.01099866 0.69700003 -0.043994639 1.4634142e-38 329 276
0.012238266 0.69800001 -0.04405776 1.4725988e-38 330 276
0.013462093 0.69800001 -0.04405776 1.4541595e-38 331 276
0.01468592 0.69800001 -0.04405776 1.4540886e-38 332 276
0.015909746 0.69800001 -0.04405776 1.4540886e-38 333 276
0.017133573 0.69800001 -0.04405776 1.4356855e-38 334 276
0.018409999 0.69999999 -0.044183996 1.4540886e-38 335 276
0.019637333 0.69999999 -0.044183996 1.4265381e-38 336 276
0.020864666 0.69999999 -0.044183996 1.4357578e-38 337 276
0.022091998 0.69999999 -0.044183996 1.4357578e-38 338 276
0.023352645 0.70099998 -0.044247117 1.4357578e-38 339 276
0.024581732 0.70099998 -0.044247117 1.4082433e-38 340 276
0.025884461 0.70300001 -0.04437336 1.4082433e-38 341 276
0.027117053 0.70300001 -0.04437336 1.4174634e-38 342 276
0.028389972 0.704 -0.044436477 1.426683e-38 343 276
0.029708479 0.70599997 -0.044562716 1.4175723e-38 344 276
0.030946331 0.70599997 -0.044562716 1.445231e-38 345 276
0.032184184 0.70599997 -0.044562716 1.4268642e-38 346 276
0.033469379 0.70700002 -0.044625837 1.4453392e-38 347 276
0.034708988 0.70700002 -0.044625837 1.4454108e-38 348 276
0.03599944 0.708 -0.044688959 1.4454108e-38 349 276
0.037345998 0.70999998 -0.044815198 1.4361912e-38 350 276
0.038645219 0.71100003 -0.044878319 1.4361912e-38 351 276
0.040004052 0.713 -0.045004558 1.4087493e-38 352 276
0.041312039 0.71399999 -0.045067675 1.436408e-38 353 276
0.042563915 0.71399999 -0.045067675 1.3999263e-38 354 276
0.043815799 0.71399999 -0.045067675 1.3814872e-38 355 276
0.045067675 0.71399999 -0.045067675 1.5940817e-38 356 276
0.046319555 0.71399999 -0.045067675 1.9813033e-38 357 276
-0.028873893 0.71600002 -0.046449307 1.2624292e-38 297 277
-0.027618507 0.71600002 -0.046449307 1.4545967e-38 298 277
-0.026363119 0.71600002 -0.046449307 1.4177543e-38 299 277
-0.025107734 0.71600002 -0.046449307 1.5001524e-38 300 277
-0.02378572 0.71399999 -0.046319555 1.5001524e-38 301 277
-0.022533838 0.71399999 -0.046319555 1.4817483e-38 302 277
-0.021281958 0.71399999 -0.046319555 1.4817483e-38 303 277
-0.020002026 0.713 -0.046254687 1.4910029e-38 304 277
-0.0186993 0.71100003 -0.046124939 1.4910029e-38 305 277
-0.017428132 0.70999998 -0.046060063 1.4910379e-38 306 277
-0.01613768 0.708 -0.045930319 1.4818183e-38 307 277
-0.01487528 0.70700002 -0.045865446 1.5001133e-38 308 277
-0.013635674 0.70700002 -0.045865446 1.4908937e-38 309 277
-0.012378532 0.70599997 -0.04580057 1.4724916e-38 310 277
-0.011109119 0.704 -0.045670826 1.4724916e-38 311 277
-0.0098747732 0.704 -0.045670826 1.4633442e-38 312 277
-0.0086281532 0.70300001 -0.04560595 1.4633442e-38 313 277
-0.0073745195 0.70099998 -0.045476202 1.4542325e-38 314 277
-0.0061454331 0.70099998 -0.045476202 1.4542325e-38 315 277
-0.0049093333 0.69999999 -0.04541133 1.4725991e-38 316 277
-0.0036819996 0.69999999 -0.04541133 1.4633436e-38 317 277
-0.0024546667 0.69999999 -0.04541133 1.4633436e-38 318 277
-0.0012238267 0.69800001 -0.045281585 1.4541239e-38 319 277
0 0.69800001 -0.045281585 1.4633442e-38 320 277
0.0012273333 0.69999999 -0.04541133 1.4633442e-38 321 277
0.0024476533 0.69800001 -0.045281585 1.4449771e-38 322 277
0.00366622 0.69700003 -0.045216713 1.4542325e-38 323 277
0.0048882933 0.69700003 -0.045216713 1.4542322e-38 324 277
0.0061103669 0.69700003 -0.045216713 1.4542322e-38 325 277
0.0073429602 0.69800001 -0.045281585 1.4633789e-38 326 277
0.0085545136 0.69700003 -0.045216713 1.4633789e-38 327 277
0.0097765867 0.69700003 -0.045216713 1.4633789e-38 328 277
0.01101444 0.69800001 -0.045281585 1.4541592e-38 329 277
0.012220734 0.69700003 -0.045216713 1.4357211e-38 330 277
0.013442807 0.69700003 -0.045216713 1.4357211e-38 331 277
0.01468592 0.69800001 -0.045281585 1.4265381e-38 332 277
0.015909746 0.69800001 -0.045281585 1.4173185e-38 333 277
0.017133573 0.69800001 -0.045281585 1.4080631e-38 334 277
0.018409999 0.69999999 -0.04541133 1.4173185e-38 335 277
0.019637333 0.69999999 -0.04541133 1.4172829e-38 336 277
0.020864666 0.69999999 -0.04541133 1.4172829e-38 337 277
0.022091998 0.69999999 -0.04541133 1.4173185e-38 338 277
0.023319334 0.69999999 -0.04541133 1.4173185e-38 339 277
0.024581732 0.70099998 -0.045476202 1.3990239e-38 340 277
0.025810819 0.70099998 -0.045476202 1.3990239e-38 341 277
0.027039904 0.70099998 -0.045476202 1.3989886e-38 342 277
0.028349647 0.70300001 -0.04560595 1.4174278e-38 343 277
0.029624319 0.704 -0.045670826 1.3991688e-38 344 277
0.030858666 0.704 -0.045670826 1.4083883e-38 345 277
0.032184184 0.70599997 -0.04580057 1.4084246e-38 346 277
0.033469379 0.70700002 -0.045865446 1.4268998e-38 347 277
0.034708988 0.70700002 -0.045865446 1.4269711e-38 348 277
0.03599944 0.708 -0.045930319 1.4269711e-38 349 277
0.037345998 0.70999998 -0.046060063 1.4270067e-38 350 277
0.038645219 0.71100003 -0.046124939 1.4270067e-38 351 277
0.040004052 0.713 -0.046254687 1.3904174e-38 352 277
0.041254178 0.713 -0.046254687 1.4088565e-38 353 277
0.042563915 0.71399999 -0.046319555 1.409038e-38 354 277
0.043815799 0.71399999 -0.046319555 1.3721957e-38 355 277
0.045067675 0.71399999 -0.046319555 1.5572394e-38 356 277
0.046319555 0.71399999 -0.046319555 1.9444611e-38 357 277
-0.028873893 0.71600002 -0.047704693 1.3174945e-38 297 278
-0.027618507 0.71600002 -0.047704693 1.473143e-38 298 278
-0.026363119 0.71600002 -0.047704693 1.4178615e-38 299 278
-0.025107734 0.71600002 -0.047704693 1.5002597e-38 300 278
-0.02378572 0.71399999 -0.047571439 1.49104e-38 301 278
-0.022533838 0.71399999 -0.047571439 1.481748e-38 302 278
-0.021281958 0.71399999 -0.047571439 1.4909676e-38 303 278
-0.01994592 0.71100003 -0.047371563 1.4817833e-38 304 278
-0.018672999 0.70999998 -0.047304932 1.4817833e-38 305 278
-0.017428132 0.70999998 -0.047304932 1.4818186e-38 306 278
-0.01613768 0.708 -0.047171678 1.4633436e-38 307 278
-0.01487528 0.70700002 -0.047105055 1.4908581e-38 308 278
-0.013635674 0.70700002 -0.047105055 1.4908581e-38 309 278
-0.012378532 0.70599997 -0.047038425 1.4632716e-38 310 278
-0.011109119 0.704 -0.046905171 1.4632716e-38 311 278
-0.0098747732 0.704 -0.046905171 1.4541242e-38 312 278
-0.0086281532 0.70300001 -0.046838548 1.4357211e-38 313 278
-0.0073745195 0.70099998 -0.046705291 1.4449771e-38 314 278
-0.0061454331 0.70099998 -0.046705291 1.4357574e-38 315 278
-0.0049093333 0.69999999 -0.046638668 1.4449774e-38 316 278
-0.0036819996 0.69999999 -0.046638668 1.4357578e-38 317 278
-0.0024546667 0.69999999 -0.046638668 1.4356855e-38 318 278
-0.0012273333 0.69999999 -0.046638668 1.4356855e-38 319 278
0 0.69999999 -0.046638668 1.4540537e-38 320 278
0.0012273333 0.69999999 -0.046638668 1.4540537e-38 321 278
0.0024476533 0.69800001 -0.046505414 1.4357225e-38 322 278
0.0036714801 0.69800001 -0.046505414 1.444942e-38 323 278
0.0048953067 0.69800001 -0.046505414 1.4358297e-38 324 278
0.006119133 0.69800001 -0.046505414 1.4174266e-38 325 278
0.0073429602 0.69800001 -0.046505414 1.435793e-38 326 278
0.0085667865 0.69800001 -0.046505414 1.435793e-38 327 278
0.0097906133 0.69800001 -0.046505414 1.4357211e-38 328 278
0.01101444 0.69800001 -0.046505414 1.4357211e-38 329 278
0.012220734 0.69700003 -0.046438783 1.4172464e-38 330 278
0.013442807 0.69700003 -0.046438783 1.4172464e-38 331 278
0.01468592 0.69800001 -0.046505414 1.4080631e-38 332 278
0.015909746 0.69800001 -0.046505414 1.38966e-38 333 278
0.017133573 0.69800001 -0.046505414 1.4080634e-38 334 278
0.018409999 0.69999999 -0.046638668 1.4080634e-38 335 278
0.019637333 0.69999999 -0.046638668 1.4079915e-38 336 278
0.020864666 0.69999999 -0.046638668 1.417211e-38 337 278
0.022091998 0.69999999 -0.046638668 1.3897319e-38 338 278
0.023319334 0.69999999 -0.046638668 1.3897319e-38 339 278
0.024546666 0.69999999 -0.046638668 1.4080634e-38 340 278
0.025810819 0.70099998 -0.046705291 1.4172829e-38 341 278
0.027039904 0.70099998 -0.046705291 1.3897684e-38 342 278
0.028349647 0.70300001 -0.046838548 1.3990239e-38 343 278
0.029624319 0.704 -0.046905171 1.3623625e-38 344 278
0.030858666 0.704 -0.046905171 1.3808017e-38 345 278
0.032184184 0.70599997 -0.047038425 1.3808741e-38 346 278
0.033422034 0.70599997 -0.047038425 1.3993132e-38 347 278
0.034708988 0.70700002 -0.047105055 1.390165e-38 348 278
0.03599944 0.708 -0.047171678 1.3994206e-38 349 278
0.037345998 0.70999998 -0.047304932 1.3810891e-38 350 278
0.038645219 0.71100003 -0.047371563 1.3903086e-38 351 278
0.040004052 0.713 -0.047504812 1.3628313e-38 352 278
0.041254178 0.713 -0.047504812 1.39049e-38 353 278
0.042563915 0.71399999 -0.047571439 1.3631209e-38 354 278
0.043815799 0.71399999 -0.047571439 1.3538655e-38 355 278
0.045067675 0.71399999 -0.047571439 1.5755704e-38 356 278
0.046319555 0.71399999 -0.047571439 1.9535725e-38 357 278
-0.028873893 0.71600002 -0.048960082 1.3820317e-38 297 279
-0.027618507 0.71600002 -0.048960082 1.4640319e-38 298 279
-0.026363119 0.71600002 -0.048960082 1.4179343e-38 299 279
-0.025107734 0.71600002 -0.048960082 1.4819295e-38 300 279
-0.02378572 0.71399999 -0.048823316 1.4727099e-38 301 279
-0.022533838 0.71399999 -0.048823316 1.4726732e-38 302 279
-0.021281958 0.71399999 -0.048823316 1.4634536e-38 303 279
-0.01994592 0.71100003 -0.048618179 1.4725284e-38 304 279
-0.018672999 0.70999998 -0.048549797 1.4633089e-38 305 279
-0.017428132 0.70999998 -0.048549797 1.4725272e-38 306 279
-0.01613768 0.708 -0.048413038 1.4909303e-38 307 279
-0.01487528 0.70700002 -0.048344657 1.4725269e-38 308 279
-0.013635674 0.70700002 -0.048344657 1.4633072e-38 309 279
-0.012378532 0.70599997 -0.048276275 1.4540876e-38 310 279
-0.011109119 0.704 -0.048139516 1.4633072e-38 311 279
-0.0098747732 0.704 -0.048139516 1.4358277e-38 312 279
-0.0086036054 0.70099998 -0.047934376 1.4266082e-38 313 279
-0.0073745195 0.70099998 -0.047934376 1.4265366e-38 314 279
-0.0061366665 0.69999999 -0.047865998 1.4265366e-38 315 279
-0.0049093333 0.69999999 -0.047865998 1.4265015e-38 316 279
-0.0036819996 0.69999999 -0.047865998 1.4265015e-38 317 279
-0.0024546667 0.69999999 -0.047865998 1.4264659e-38 318 279
-0.0012273333 0.69999999 -0.047865998 1.4264659e-38 319 279
0 0.69999999 -0.047865998 1.4264659e-38 320 279
0.0012273333 0.69999999 -0.047865998 1.4356855e-38 321 279
0.0024546667 0.69999999 -0.047865998 1.4174261e-38 322 279
0.0036714801 0.69800001 -0.047729239 1.4358294e-38 323 279
0.0048953067 0.69800001 -0.047729239 1.4174617e-38 324 279
0.006119133 0.69800001 -0.047729239 1.4174617e-38 325 279
0.0073429602 0.69800001 -0.047729239 1.435793e-38 326 279
0.0085667865 0.69800001 -0.047729239 1.435793e-38 327 279
0.0097906133 0.69800001 -0.047729239 1.4265734e-38 328 279
0.01101444 0.69800001 -0.047729239 1.417318e-38 329 279
0.012238266 0.69800001 -0.047729239 1.4082069e-38 330 279
0.013462093 0.69800001 -0.047729239 1.3989514e-38 331 279
0.01468592 0.69800001 -0.047729239 1.3714006e-38 332 279
0.015909746 0.69800001 -0.047729239 1.3621811e-38 333 279
0.017133573 0.69800001 -0.047729239 1.389695e-38 334 279
0.018409999 0.69999999 -0.047865998 1.389695e-38 335 279
0.019637333 0.69999999 -0.047865998 1.4080621e-38 336 279
0.020864666 0.69999999 -0.047865998 1.3988067e-38 337 279
0.022091998 0.69999999 -0.047865998 1.3896953e-38 338 279
0.023319334 0.69999999 -0.047865998 1.4080984e-38 339 279
0.024546666 0.69999999 -0.047865998 1.3897675e-38 340 279
0.025810819 0.70099998 -0.047934376 1.3897675e-38 341 279
0.027039904 0.70099998 -0.047934376 1.3531413e-38 342 279
0.028349647 0.70300001 -0.048071139 1.3531413e-38 343 279
0.029624319 0.704 -0.048139516 1.353106e-38 344 279
0.030858666 0.704 -0.048139516 1.3807288e-38 345 279
0.032184184 0.70599997 -0.048276275 1.3807291e-38 346 279
0.033422034 0.70599997 -0.048276275 1.4083878e-38 347 279
0.034708988 0.70700002 -0.048344657 1.3809442e-38 348 279
0.03599944 0.708 -0.048413038 1.3809442e-38 349 279
0.037345998 0.70999998 -0.048549797 1.3809805e-38 350 279
0.038645219 0.71100003 -0.048618179 1.3902359e-38 351 279
0.039891839 0.71100003 -0.048618179 1.372014e-38 352 279
