# .PCD v.7 - Point Cloud Data file format
FIELDS x y z rgb imX imY
SIZE 4 4 4 4 4 4
TYPE F F F F F F
COUNT 1 1 1 1 1 1
WIDTH 836
HEIGHT 1
VIEWPOINT 0 0 0 1 0 0 0
POINTS 836
DATA ascii
0.01559064 0.68400002 -0.016789921 1.0861382e-38 333 254
0.016839013 0.68599999 -0.016839013 1.0585524e-38 334 254
0.018041799 0.68599999 -0.016839013 1.0493326e-38 335 254
0.019244585 0.68599999 -0.016839013 9.9419674e-39 336 254
0.020477179 0.68699998 -0.01686356 9.9419674e-39 337 254
0.021681719 0.68699998 -0.01686356 9.3920418e-39 338 254
0.022886258 0.68699998 -0.01686356 9.5760729e-39 339 254
0.024195999 0.69 -0.0169372 9.5771575e-39 340 254
0.025405798 0.69 -0.0169372 9.4849619e-39 341 254
0.02673132 0.69300002 -0.01701084 9.9430632e-39 342 254
0.027986705 0.69400001 -0.017035386 9.9430632e-39 343 254
0.029287677 0.69599998 -0.017084479 9.6664595e-39 344 254
0.030551834 0.69700003 -0.017109027 8.8363401e-39 345 254
0.03177391 0.69700003 -0.017109027 9.672237e-39 346 254
0.03299598 0.69700003 -0.017109027 1.4927388e-38 347 254
-0.043018032 0.70099998 -0.018436298 1.4567628e-38 285 255
-0.041788943 0.70099998 -0.018436298 1.4003949e-38 286 255
-0.040502001 0.69999999 -0.018409999 1.1238079e-38 287 255
-0.039274666 0.69999999 -0.018409999 1.3992017e-38 288 255
-0.037938625 0.69800001 -0.0183574 1.389982e-38 289 255
-0.036662199 0.69700003 -0.018331099 1.3716134e-38 290 255
-0.035287585 0.69400001 -0.0182522 1.3623939e-38 291 255
-0.034021679 0.69300002 -0.018225901 1.3716134e-38 292 255
-0.03280662 0.69300002 -0.018225901 1.3623939e-38 293 255
-0.031454802 0.69 -0.018146999 1.3348074e-38 294 255
-0.030157333 0.68800002 -0.0180944 1.3071491e-38 295 255
-0.028951041 0.68800002 -0.0180944 1.3160816e-38 296 255
-0.027704418 0.68699998 -0.018068098 1.2792398e-38 297 255
-0.026499879 0.68699998 -0.018068098 1.2883157e-38 298 255
-0.025258519 0.68599999 -0.018041799 1.2883157e-38 299 255
-0.023950534 0.68300003 -0.017962901 1.2699845e-38 300 255
-0.022753006 0.68300003 -0.017962901 1.2515456e-38 301 255
-0.021523919 0.68199998 -0.017936599 1.2696616e-38 302 255
-0.020328145 0.68199998 -0.017936599 1.2512228e-38 303 255
-0.019132372 0.68199998 -0.017936599 1.2235649e-38 304 255
-0.017883999 0.68000001 -0.017883999 1.2512235e-38 305 255
-0.016667187 0.67900002 -0.017857701 1.2236368e-38 306 255
-0.015476674 0.67900002 -0.017857701 1.2421119e-38 307 255
-0.01428616 0.67900002 -0.017857701 1.2236721e-38 308 255
-0.013095647 0.67900002 -0.017857701 1.2144527e-38 309 255
-0.011887599 0.67799997 -0.0178314 1.1592438e-38 310 255
-0.010698839 0.67799997 -0.0178314 1.1499885e-38 311 255
-0.0094820261 0.676 -0.017778801 1.1317649e-38 312 255
-0.0082967728 0.676 -0.017778801 1.1317649e-38 313 255
-0.0071115191 0.676 -0.017778801 1.159459e-38 314 255
-0.0059262668 0.676 -0.017778801 1.1410202e-38 315 255
-0.0047410131 0.676 -0.017778801 1.1410202e-38 316 255
-0.0035557596 0.676 -0.017778801 1.1317649e-38 317 255
-0.0023705065 0.676 -0.017778801 1.1317649e-38 318 255
-0.0011852533 0.676 -0.017778801 1.1317649e-38 319 255
0 0.67799997 -0.0178314 1.1133978e-38 320 255
0.0011887599 0.67799997 -0.0178314 1.0857395e-38 321 255
0.0023775198 0.67799997 -0.0178314 1.0398935e-38 322 255
0.0035662798 0.67799997 -0.0178314 1.0582965e-38 323 255
0.0047620535 0.67900002 -0.017857701 1.0307102e-38 324 255
0.0059525664 0.67900002 -0.017857701 1.0307102e-38 325 255
0.0071430802 0.67900002 -0.017857701 1.0214203e-38 326 255
0.0083458666 0.68000001 -0.017883999 1.0214203e-38 327 255
0.0095381327 0.68000001 -0.017883999 1.0123452e-38 328 255
0.0107304 0.68000001 -0.017883999 1.0400041e-38 329 255
0.011957732 0.68199998 -0.017936599 1.0676626e-38 330 255
0.013153506 0.68199998 -0.017936599 1.0768822e-38 331 255
0.01434928 0.68199998 -0.017936599 1.0768471e-38 332 255
0.01559064 0.68400002 -0.0179892 1.0768471e-38 333 255
0.016789921 0.68400002 -0.0179892 1.0309307e-38 334 255
0.018041799 0.68599999 -0.018041799 1.0401861e-38 335 255
0.019244585 0.68599999 -0.018041799 9.7582992e-39 336 255
0.020477179 0.68699998 -0.018068098 9.5739079e-39 337 255
0.021681719 0.68699998 -0.018068098 9.2069275e-39 338 255
0.022886258 0.68699998 -0.018068098 9.3913173e-39 339 255
0.024195999 0.69 -0.018146999 9.300921e-39 340 255
0.025405798 0.69 -0.018146999 9.300921e-39 341 255
0.02673132 0.69300002 -0.018225901 9.7590251e-39 342 255
0.027986705 0.69400001 -0.0182522 9.8512207e-39 343 255
0.029287677 0.69599998 -0.018304799 9.7586523e-39 344 255
0.030551834 0.69700003 -0.018331099 9.1132829e-39 345 255
0.03177391 0.69700003 -0.018331099 1.0038133e-38 346 255
0.03299598 0.69700003 -0.018331099 1.5201088e-38 347 255
-0.044436477 0.704 -0.019749546 1.8162539e-38 284 256
-0.043018032 0.70099998 -0.019665385 1.456691e-38 285 256
-0.041729331 0.69999999 -0.019637333 1.4004671e-38 286 256
-0.040502001 0.69999999 -0.019637333 1.0962215e-38 287 256
-0.039274666 0.69999999 -0.019637333 1.3625751e-38 288 256
-0.037938625 0.69800001 -0.019581227 1.3441719e-38 289 256
-0.036609598 0.69599998 -0.019525118 1.3440627e-38 290 256
-0.035287585 0.69400001 -0.019469013 1.3440627e-38 291 256
-0.034021679 0.69300002 -0.01944096 1.3623581e-38 292 256
-0.032711938 0.69099998 -0.019384852 1.3531386e-38 293 256
-0.031363625 0.68800002 -0.019300694 1.3256597e-38 294 256
-0.030113498 0.68699998 -0.019272638 1.2795626e-38 295 256
-0.028908957 0.68699998 -0.019272638 1.3068622e-38 296 256
-0.027704418 0.68699998 -0.019272638 1.2700203e-38 297 256
-0.026461305 0.68599999 -0.019244585 1.2699845e-38 298 256
-0.025258519 0.68599999 -0.019244585 1.260765e-38 299 256
-0.023950534 0.68300003 -0.019160427 1.2606933e-38 300 256
-0.022753006 0.68300003 -0.019160427 1.2422186e-38 301 256
-0.021523919 0.68199998 -0.019132372 1.2053409e-38 302 256
-0.020328145 0.68199998 -0.019132372 1.186902e-38 303 256
-0.019132372 0.68199998 -0.019132372 1.1408782e-38 304 256
-0.017883999 0.68000001 -0.019076265 1.1593172e-38 305 256
-0.016667187 0.67900002 -0.019048214 1.1408432e-38 306 256
-0.015476674 0.67900002 -0.019048214 1.1131844e-38 307 256
-0.01428616 0.67900002 -0.019048214 1.1499902e-38 308 256
-0.013076359 0.67799997 -0.019020159 1.1407706e-38 309 256
-0.011887599 0.67799997 -0.019020159 1.1040351e-38 310 256
-0.01066728 0.676 -0.018964052 1.0947797e-38 311 256
-0.0094820261 0.676 -0.018964052 1.0858112e-38 312 256
-0.0082967728 0.676 -0.018964052 1.0950307e-38 313 256
-0.0071115191 0.676 -0.018964052 1.1227607e-38 314 256
-0.0059262668 0.676 -0.018964052 1.1135413e-38 315 256
-0.0047410131 0.676 -0.018964052 1.1410919e-38 316 256
-0.0035557596 0.676 -0.018964052 1.1318366e-38 317 256
-0.0023705065 0.676 -0.018964052 1.1134695e-38 318 256
-0.0011852533 0.676 -0.018964052 1.0950307e-38 319 256
0 0.676 -0.018964052 1.0950307e-38 320 256
0.0011852533 0.676 -0.018964052 1.0858112e-38 321 256
0.0023775198 0.67799997 -0.019020159 1.021634e-38 322 256
0.0035662798 0.67799997 -0.019020159 1.021634e-38 323 256
0.0047550397 0.67799997 -0.019020159 1.03071e-38 324 256
0.0059525664 0.67900002 -0.019048214 1.0214905e-38 325 256
0.0071430802 0.67900002 -0.019048214 1.0031607e-38 326 256
0.0083335936 0.67900002 -0.019048214 1.0031607e-38 327 256
0.0095381327 0.68000001 -0.019076265 9.9401373e-39 328 256
0.0107304 0.68000001 -0.019076265 1.0216365e-38 329 256
0.011957732 0.68199998 -0.019132372 1.0399688e-38 330 256
0.013153506 0.68199998 -0.019132372 1.0399688e-38 331 256
0.01434928 0.68199998 -0.019132372 1.039934e-38 332 256
0.015567848 0.68300003 -0.019160427 1.0491536e-38 333 256
0.016789921 0.68400002 -0.01918848 1.0033447e-38 334 256
0.018041799 0.68599999 -0.019244585 1.0033447e-38 335 256
0.019244585 0.68599999 -0.019244585 9.6657532e-39 336 256
0.020447372 0.68599999 -0.019244585 9.481362e-39 337 256
0.021681719 0.68699998 -0.019272638 9.022902e-39 338 256
0.022886258 0.68699998 -0.019272638 9.1150976e-39 339 256
0.024125867 0.68800002 -0.019300694 9.3909614e-39 340 256
0.02533216 0.68800002 -0.019300694 9.3909614e-39 341 256
0.026654173 0.69099998 -0.019384852 9.5749925e-39 342 256
0.027946379 0.69300002 -0.01944096 9.5749925e-39 343 256
0.029203519 0.69400001 -0.019469013 1.003452e-38 344 256
0.030507999 0.69599998 -0.019525118 9.9419646e-39 345 256
0.03177391 0.69700003 -0.019553173 1.0958291e-38 346 256
0.03299598 0.69700003 -0.019553173 1.538368e-38 347 256
-0.044436477 0.704 -0.020983893 1.8162892e-38 284 257
-0.043018032 0.70099998 -0.020894472 1.4475067e-38 285 257
-0.041729331 0.69999999 -0.020864666 1.418797e-38 286 257
-0.040502001 0.69999999 -0.020864666 1.123771e-38 287 257
-0.039162453 0.69800001 -0.020805053 1.3442066e-38 288 257
-0.037884273 0.69700003 -0.020775247 1.3257675e-38 289 257
-0.036609598 0.69599998 -0.020745439 1.3532104e-38 290 257
-0.035287585 0.69400001 -0.020685827 1.3532104e-38 291 257
-0.033923492 0.69099998 -0.020596405 1.3348074e-38 292 257
-0.032664597 0.69 -0.020566599 1.3348074e-38 293 257
-0.031363625 0.68800002 -0.020506985 1.3163327e-38 294 257
-0.030113498 0.68699998 -0.020477179 1.2886744e-38 295 257
-0.028908957 0.68699998 -0.020477179 1.2793115e-38 296 257
-0.027664091 0.68599999 -0.020447372 1.2424338e-38 297 257
-0.02638416 0.68400002 -0.020387759 1.2331785e-38 298 257
-0.025184879 0.68400002 -0.020387759 1.2147397e-38 299 257
-0.023950534 0.68300003 -0.020357953 1.2054844e-38 300 257
-0.022753006 0.68300003 -0.020357953 1.196265e-38 301 257
-0.021523919 0.68199998 -0.020328145 1.1776826e-38 302 257
-0.020328145 0.68199998 -0.020328145 1.1500602e-38 303 257
-0.019132372 0.68199998 -0.020328145 1.1132547e-38 304 257
-0.017883999 0.68000001 -0.020268533 1.1132547e-38 305 257
-0.016667187 0.67900002 -0.020238725 1.0763428e-38 306 257
-0.015476674 0.67900002 -0.020238725 1.0579037e-38 307 257
-0.01428616 0.67900002 -0.020238725 1.0580122e-38 308 257
-0.013076359 0.67799997 -0.020208918 1.0580122e-38 309 257
-0.011887599 0.67799997 -0.020208918 1.0304601e-38 310 257
-0.01066728 0.676 -0.020149305 1.0120211e-38 311 257
-0.0094820261 0.676 -0.020149305 9.9386869e-39 312 257
-0.0082967728 0.676 -0.020149305 1.0491861e-38 313 257
-0.0071115191 0.676 -0.020149305 1.141021e-38 314 257
-0.0059262668 0.676 -0.020149305 1.1317656e-38 315 257
-0.0047410131 0.676 -0.020149305 1.1226895e-38 316 257
-0.0035557596 0.676 -0.020149305 1.1134699e-38 317 257
-0.0023705065 0.676 -0.020149305 1.1042864e-38 318 257
-0.0011852533 0.676 -0.020149305 1.0766636e-38 319 257
0 0.676 -0.020149305 1.0675159e-38 320 257
0.0011852533 0.676 -0.020149305 1.0675159e-38 321 257
0.0023705065 0.676 -0.020149305 1.0215983e-38 322 257
0.0035662798 0.67799997 -0.020208918 1.0123787e-38 323 257
0.0047550397 0.67799997 -0.020208918 1.0030885e-38 324 257
0.0059525664 0.67900002 -0.020238725 9.9386897e-39 325 257
0.0071430802 0.67900002 -0.020238725 9.6635476e-39 326 257
0.0083335936 0.67900002 -0.020238725 9.6635476e-39 327 257
0.009524107 0.67900002 -0.020238725 9.6646266e-39 328 257
0.0107304 0.68000001 -0.020268533 9.8486577e-39 329 257
0.011957732 0.68199998 -0.020328145 1.0215293e-38 330 257
0.013153506 0.68199998 -0.020328145 1.0215293e-38 331 257
0.01434928 0.68199998 -0.020328145 1.0122044e-38 332 257
0.015567848 0.68300003 -0.020357953 1.0306794e-38 333 257
0.016789921 0.68400002 -0.020387759 9.6650372e-39 334 257
0.0179892 0.68400002 -0.020387759 9.6650372e-39 335 257
0.019244585 0.68599999 -0.020447372 9.3898894e-39 336 257
0.020447372 0.68599999 -0.020447372 9.2054982e-39 337 257
0.021681719 0.68699998 -0.020477179 9.0221859e-39 338 257
0.022886258 0.68699998 -0.020477179 9.0221859e-39 339 257
0.024090799 0.68699998 -0.020477179 9.5735576e-39 340 257
0.02533216 0.68800002 -0.020506985 9.481362e-39 341 257
0.026654173 0.69099998 -0.020596405 9.2980497e-39 342 257
0.027946379 0.69300002 -0.020656019 9.482441e-39 343 257
0.029161438 0.69300002 -0.020656019 1.0127085e-38 344 257
0.030507999 0.69599998 -0.020745439 1.0680618e-38 345 257
0.03177391 0.69700003 -0.020775247 1.1604026e-38 346 257
0.03299598 0.69700003 -0.020775247 1.5200016e-38 347 257
-0.044436477 0.704 -0.022218239 1.8071422e-38 284 258
-0.042956665 0.69999999 -0.022091998 1.475238e-38 285 258
-0.041729331 0.69999999 -0.022091998 1.4280166e-38 286 258
-0.040386278 0.69800001 -0.02202888 1.123771e-38 287 258
-0.039106347 0.69700003 -0.02199732 1.3442066e-38 288 258
-0.037884273 0.69700003 -0.02199732 1.3349871e-38 289 258
-0.036504399 0.69400001 -0.021902639 1.3348792e-38 290 258
-0.035236739 0.69300002 -0.021871079 1.3348792e-38 291 258
-0.033923492 0.69099998 -0.021807959 1.3256597e-38 292 258
-0.032664597 0.69 -0.021776399 1.2980373e-38 293 258
-0.031318039 0.68699998 -0.021681719 1.3070415e-38 294 258
-0.030113498 0.68699998 -0.021681719 1.2793474e-38 295 258
-0.02886688 0.68599999 -0.021650158 1.2608368e-38 296 258
-0.027583439 0.68400002 -0.02158704 1.2239591e-38 297 258
-0.02638416 0.68400002 -0.02158704 1.2147038e-38 298 258
-0.025184879 0.68400002 -0.02158704 1.1962291e-38 299 258
-0.023950534 0.68300003 -0.02155548 1.1962291e-38 300 258
-0.022753006 0.68300003 -0.02155548 1.1686067e-38 301 258
-0.021523919 0.68199998 -0.021523919 1.1410202e-38 302 258
-0.020328145 0.68199998 -0.021523919 1.1225454e-38 303 258
-0.019132372 0.68199998 -0.021523919 1.076556e-38 304 258
-0.017857701 0.67900002 -0.021429239 1.058153e-38 305 258
-0.016667187 0.67900002 -0.021429239 1.0304601e-38 306 258
-0.015453878 0.67799997 -0.021397678 1.0028014e-38 307 258
-0.014265119 0.67799997 -0.021397678 9.8447215e-39 308 258
-0.013076359 0.67799997 -0.021397678 9.7525258e-39 309 258
-0.011852534 0.676 -0.021334561 9.5681276e-39 310 258
-0.01066728 0.676 -0.021334561 9.4759319e-39 311 258
-0.0094820261 0.676 -0.021334561 9.6606763e-39 312 258
-0.0082967728 0.676 -0.021334561 1.0675188e-38 313 258
-0.0071115191 0.676 -0.021334561 1.09514e-38 314 258
-0.0059262668 0.676 -0.021334561 1.09514e-38 315 258
-0.0047410131 0.676 -0.021334561 1.1226539e-38 316 258
-0.0035557596 0.676 -0.021334561 1.1134343e-38 317 258
-0.0023705065 0.676 -0.021334561 1.1042145e-38 318 258
-0.0011852533 0.676 -0.021334561 1.0949948e-38 319 258
0 0.676 -0.021334561 1.0674806e-38 320 258
0.0011852533 0.676 -0.021334561 1.058261e-38 321 258
0.0023705065 0.676 -0.021334561 1.0123437e-38 322 258
0.0035662798 0.67799997 -0.021397678 9.9386869e-39 323 258
0.0047550397 0.67799997 -0.021397678 9.8454221e-39 324 258
0.0059437994 0.67799997 -0.021397678 9.9376177e-39 325 258
0.0071430802 0.67900002 -0.021429239 9.5706429e-39 326 258
0.0083335936 0.67900002 -0.021429239 9.5706429e-39 327 258
0.009524107 0.67900002 -0.021429239 9.8468669e-39 328 258
0.0107304 0.68000001 -0.0214608 1.0031257e-38 329 258
0.011957732 0.68199998 -0.021523919 9.9397842e-39 330 258
0.013153506 0.68199998 -0.021523919 9.9397842e-39 331 258
0.01434928 0.68199998 -0.021523919 9.8465319e-39 332 258
0.015567848 0.68300003 -0.02155548 9.8465319e-39 333 258
0.016789921 0.68400002 -0.02158704 9.3877244e-39 334 258
0.0179892 0.68400002 -0.02158704 9.4799214e-39 335 258
0.019244585 0.68599999 -0.021650158 9.1136557e-39 336 258
0.020447372 0.68599999 -0.021650158 9.1136557e-39 337 258
0.021681719 0.68699998 -0.021681719 9.2058485e-39 338 258
0.022886258 0.68699998 -0.021681719 9.2058485e-39 339 258
0.024090799 0.68699998 -0.021681719 9.3887978e-39 340 258
0.02533216 0.68800002 -0.021713281 9.3887978e-39 341 258
0.026615599 0.69 -0.021776399 8.9296175e-39 342 258
0.027865725 0.69099998 -0.021807959 8.9296175e-39 343 258
0.029161438 0.69300002 -0.021871079 9.5757072e-39 344 258
0.030507999 0.69599998 -0.021965759 1.0221077e-38 345 258
0.03177391 0.69700003 -0.02199732 1.1512913e-38 346 258
0.03299598 0.69700003 -0.02199732 1.5200738e-38 347 258
-0.044436477 0.704 -0.023452586 1.8163262e-38 284 259
-0.042956665 0.69999999 -0.023319334 1.5120805e-38 285 259
-0.041729331 0.69999999 -0.023319334 1.437164e-38 286 259
-0.040386278 0.69800001 -0.023252707 1.1329183e-38 287 259
-0.039106347 0.69700003 -0.023219392 1.3533898e-38 288 259
-0.037884273 0.69700003 -0.023219392 1.3441703e-38 289 259
-0.036504399 0.69400001 -0.023119451 1.3440986e-38 290 259
-0.035236739 0.69300002 -0.02308614 1.3256597e-38 291 259
-0.033923492 0.69099998 -0.023019511 1.3164403e-38 292 259
-0.032664597 0.69 -0.022986198 1.2980373e-38 293 259
-0.031318039 0.68699998 -0.022886258 1.2886027e-38 294 259
-0.030113498 0.68699998 -0.022886258 1.270128e-38 295 259
-0.02886688 0.68599999 -0.022852944 1.2515456e-38 296 259
-0.027583439 0.68400002 -0.022786319 1.2146679e-38 297 259
-0.02638416 0.68400002 -0.022786319 1.1686426e-38 298 259
-0.025184879 0.68400002 -0.022786319 1.1686426e-38 299 259
-0.023950534 0.68300003 -0.022753006 1.1502755e-38 300 259
-0.022753006 0.68300003 -0.022753006 1.1318366e-38 301 259
-0.021523919 0.68199998 -0.022719691 1.1225454e-38 302 259
-0.020328145 0.68199998 -0.022719691 1.113326e-38 303 259
-0.019132372 0.68199998 -0.022719691 1.03975e-38 304 259
-0.017857701 0.67900002 -0.022619752 1.0121276e-38 305 259
-0.016667187 0.67900002 -0.022619752 9.7532251e-39 306 259
-0.015453878 0.67799997 -0.022586439 9.7532251e-39 307 259
-0.014265119 0.67799997 -0.022586439 9.3844594e-39 308 259
-0.013037786 0.676 -0.022519812 9.2922638e-39 309 259
-0.011852534 0.676 -0.022519812 9.2911918e-39 310 259
-0.01066728 0.676 -0.022519812 9.5677772e-39 311 259
-0.0094820261 0.676 -0.022519812 9.57028e-39 312 259
-0.0082967728 0.676 -0.022519812 1.0215649e-38 313 259
-0.0071115191 0.676 -0.022519812 1.0676239e-38 314 259
-0.0059262668 0.676 -0.022519812 1.086027e-38 315 259
-0.0047410131 0.676 -0.022519812 1.1227248e-38 316 259
-0.0035557596 0.676 -0.022519812 1.104286e-38 317 259
-0.0023705065 0.676 -0.022519812 1.0766283e-38 318 259
-0.0011852533 0.676 -0.022519812 1.0674087e-38 319 259
0 0.676 -0.022519812 9.8468669e-39 320 259
0.0011852533 0.676 -0.022519812 9.7546712e-39 321 259
0.0023775198 0.67799997 -0.022586439 9.5706457e-39 322 259
0.0035662798 0.67799997 -0.022586439 9.2944175e-39 323 259
0.0047550397 0.67799997 -0.022586439 9.294063e-39 324 259
0.0059437994 0.67799997 -0.022586439 9.201866e-39 325 259
0.0071430802 0.67900002 -0.022619752 8.7430585e-39 326 259
0.0083335936 0.67900002 -0.022619752 8.8352555e-39 327 259
0.009524107 0.67900002 -0.022619752 9.1118382e-39 328 259
0.0107304 0.68000001 -0.022653066 9.2040338e-39 329 259
0.011922667 0.68000001 -0.022653066 9.2965798e-39 330 259
0.013153506 0.68199998 -0.022719691 9.2965798e-39 331 259
0.014370319 0.68300003 -0.022753006 9.2029646e-39 332 259
0.015567848 0.68300003 -0.022753006 9.3869957e-39 333 259
0.016789921 0.68400002 -0.022786319 8.9278351e-39 334 259
0.0179892 0.68400002 -0.022786319 8.9278351e-39 335 259
0.019244585 0.68599999 -0.022852944 8.7452389e-39 336 259
0.020447372 0.68599999 -0.022852944 8.9299903e-39 337 259
0.021681719 0.68699998 -0.022886258 8.9303406e-39 338 259
0.022886258 0.68699998 -0.022886258 8.8381436e-39 339 259
0.024090799 0.68699998 -0.022886258 9.1129298e-39 340 259
0.02533216 0.68800002 -0.022919573 9.0207341e-39 341 259
0.026615599 0.69 -0.022986198 8.74452e-39 342 259
0.027865725 0.69099998 -0.023019511 8.8370744e-39 343 259
0.029077278 0.69099998 -0.023019511 9.2087211e-39 344 259
0.0303765 0.69300002 -0.02308614 9.4853094e-39 345 259
0.031728316 0.69599998 -0.023186078 1.1513266e-38 346 259
0.032948639 0.69599998 -0.023186078 1.5569873e-38 347 259
-0.044183996 0.69999999 -0.024546666 1.8163981e-38 284 260
-0.042956665 0.69999999 -0.024546666 1.4844938e-38 285 260
-0.041729331 0.69999999 -0.024546666 1.4279816e-38 286 260
-0.040502001 0.69999999 -0.024546666 1.1329556e-38 287 260
-0.039162453 0.69800001 -0.024476532 1.3717947e-38 288 260
-0.037884273 0.69700003 -0.024441468 1.3625751e-38 289 260
-0.036504399 0.69400001 -0.024336265 1.3440268e-38 290 260
-0.035236739 0.69300002 -0.024301201 1.3348074e-38 291 260
-0.033923492 0.69099998 -0.024231065 1.3073285e-38 292 260
-0.032664597 0.69 -0.024195999 1.2796344e-38 293 260
-0.031363625 0.68800002 -0.024125867 1.2703073e-38 294 260
-0.030113498 0.68699998 -0.024090799 1.2242102e-38 295 260
-0.028908957 0.68699998 -0.024090799 1.2240308e-38 296 260
-0.027583439 0.68400002 -0.0239856 1.1964085e-38 297 260
-0.02638416 0.68400002 -0.0239856 1.1595308e-38 298 260
-0.025184879 0.68400002 -0.0239856 1.1503113e-38 299 260
-0.023950534 0.68300003 -0.023950534 1.1593155e-38 300 260
-0.022753006 0.68300003 -0.023950534 1.1500961e-38 301 260
-0.021523919 0.68199998 -0.023915464 1.1133266e-38 302 260
-0.020328145 0.68199998 -0.023915464 1.0764485e-38 303 260
-0.019132372 0.68199998 -0.023915464 1.0303879e-38 304 260
-0.017857701 0.67900002 -0.023810266 1.0119487e-38 305 260
-0.016667187 0.67900002 -0.023810266 9.7525062e-39 306 260
-0.015453878 0.67799997 -0.023775198 9.9365373e-39 307 260
-0.014265119 0.67799997 -0.023775198 9.3855314e-39 308 260
-0.013037786 0.676 -0.023705067 9.2015002e-39 309 260
-0.011852534 0.676 -0.023705067 9.4770081e-39 310 260
-0.01066728 0.676 -0.023705067 9.5695625e-39 311 260
-0.0094820261 0.676 -0.023705067 9.8486451e-39 312 260
-0.0082967728 0.676 -0.023705067 1.0217069e-38 313 260
-0.0071115191 0.676 -0.023705067 1.1044299e-38 314 260
-0.0059262668 0.676 -0.023705067 1.122833e-38 315 260
-0.0047410131 0.676 -0.023705067 1.1227614e-38 316 260
-0.0035557596 0.676 -0.023705067 1.0950668e-38 317 260
-0.0023705065 0.676 -0.023705067 1.0581541e-38 318 260
-0.0011852533 0.676 -0.023705067 1.0304595e-38 319 260
0 0.676 -0.023705067 9.9358381e-39 320 260
0.0011852533 0.676 -0.023705067 9.4748599e-39 321 260
0.0023775198 0.67799997 -0.023775198 9.3844622e-39 322 260
0.0035662798 0.67799997 -0.023775198 9.4766578e-39 323 260
0.0047550397 0.67799997 -0.023775198 9.0174719e-39 324 260
0.0059437994 0.67799997 -0.023775198 9.0174719e-39 325 260
0.0071325595 0.67799997 -0.023775198 9.0171244e-39 326 260
0.0083335936 0.67900002 -0.023810266 8.9249288e-39 327 260
0.009524107 0.67900002 -0.023810266 8.9267266e-39 328 260
0.010714619 0.67900002 -0.023810266 9.2033149e-39 329 260
0.011922667 0.68000001 -0.023845334 9.387702e-39 330 260
0.013153506 0.68199998 -0.023915464 9.387702e-39 331 260
0.01434928 0.68199998 -0.023915464 9.1114878e-39 332 260
0.015567848 0.68300003 -0.023950534 8.8349024e-39 333 260
0.016765373 0.68300003 -0.023950534 9.0185832e-39 334 260
0.0179892 0.68400002 -0.0239856 9.1111375e-39 335 260
0.019244585 0.68599999 -0.024055731 8.9274665e-39 336 260
0.020447372 0.68599999 -0.024055731 9.1122165e-39 337 260
0.021681719 0.68699998 -0.024090799 8.9296231e-39 338 260
0.022886258 0.68699998 -0.024090799 8.8370688e-39 339 260
0.024090799 0.68699998 -0.024090799 9.0200153e-39 340 260
0.025295338 0.68699998 -0.024090799 8.9278197e-39 341 260
0.026538454 0.68800002 -0.024125867 8.4697184e-39 342 260
0.027865725 0.69099998 -0.024231065 8.4697184e-39 343 260
0.029077278 0.69099998 -0.024231065 9.4831444e-39 344 260
0.0303765 0.69300002 -0.024301201 1.0036318e-38 345 260
0.031637147 0.69400001 -0.024336265 1.1973885e-38 346 260
0.032853961 0.69400001 -0.024336265 1.6215243e-38 347 260
-0.044183996 0.69999999 -0.025773998 1.8072141e-38 284 261
-0.042956665 0.69999999 -0.025773998 1.5121883e-38 285 261
-0.041729331 0.69999999 -0.025773998 1.4648246e-38 286 261
-0.040502001 0.69999999 -0.025773998 1.1697985e-38 287 261
-0.039106347 0.69700003 -0.025663542 1.371795e-38 288 261
-0.037884273 0.69700003 -0.025663542 1.3441363e-38 289 261
-0.036504399 0.69400001 -0.025553079 1.3440627e-38 290 261
-0.035236739 0.69300002 -0.02551626 1.3256239e-38 291 261
-0.0338744 0.69 -0.025405798 1.3164403e-38 292 261
-0.032569919 0.68800002 -0.02533216 1.288782e-38 293 261
-0.031363625 0.68800002 -0.02533216 1.2885668e-38 294 261
-0.030113498 0.68699998 -0.025295338 1.2609085e-38 295 261
-0.028908957 0.68699998 -0.025295338 1.2239591e-38 296 261
-0.027583439 0.68400002 -0.025184879 1.2055203e-38 297 261
-0.02638416 0.68400002 -0.025184879 1.1777902e-38 298 261
-0.025184879 0.68400002 -0.025184879 1.1593514e-38 299 261
-0.023950534 0.68300003 -0.02514806 1.1593157e-38 300 261
-0.022753006 0.68300003 -0.02514806 1.1408408e-38 301 261
-0.021523919 0.68199998 -0.025111238 1.1040351e-38 302 261
-0.020328145 0.68199998 -0.025111238 1.0763766e-38 303 261
-0.019132372 0.68199998 -0.025111238 1.0211326e-38 304 261
-0.017857701 0.67900002 -0.025000781 1.0119131e-38 305 261
-0.016667187 0.67900002 -0.025000781 9.5699128e-39 306 261
-0.015453878 0.67799997 -0.024963958 9.5699128e-39 307 261
-0.014265119 0.67799997 -0.024963958 9.5699128e-39 308 261
-0.013037786 0.676 -0.024890319 9.5699128e-39 309 261
-0.011852534 0.676 -0.024890319 9.387318e-39 310 261
-0.01066728 0.676 -0.024890319 9.7557404e-39 311 261
-0.0094820261 0.676 -0.024890319 1.0217069e-38 312 261
-0.0082967728 0.676 -0.024890319 1.0494015e-38 313 261
-0.0071115191 0.676 -0.024890319 1.1044667e-38 314 261
-0.0059262668 0.676 -0.024890319 1.0952472e-38 315 261
-0.0047410131 0.676 -0.024890319 1.1042867e-38 316 261
-0.0035557596 0.676 -0.024890319 1.0674443e-38 317 261
-0.0023705065 0.676 -0.024890319 1.012093e-38 318 261
-0.0011852533 0.676 -0.024890319 9.7525062e-39 319 261
0 0.676 -0.024890319 9.0160496e-39 320 261
0.0011852533 0.676 -0.024890319 9.1082452e-39 321 261
0.0023705065 0.676 -0.024890319 8.7419823e-39 322 261
0.0035662798 0.67799997 -0.024963958 8.7419823e-39 323 261
0.0047550397 0.67799997 -0.024963958 8.4653996e-39 324 261
0.0059437994 0.67799997 -0.024963958 8.3732039e-39 325 261
0.0071325595 0.67799997 -0.024963958 8.1895386e-39 326 261
0.0083335936 0.67900002 -0.025000781 8.3735697e-39 327 261
0.009524107 0.67900002 -0.025000781 8.0998597e-39 328 261
0.010714619 0.67900002 -0.025000781 8.2842509e-39 329 261
0.011922667 0.68000001 -0.025037598 8.6523118e-39 330 261
0.013153506 0.68199998 -0.025111238 8.5601161e-39 331 261
0.01434928 0.68199998 -0.025111238 8.8349052e-39 332 261
0.015567848 0.68300003 -0.02514806 9.0189363e-39 333 261
0.016765373 0.68300003 -0.02514806 8.6519586e-39 334 261
0.0179892 0.68400002 -0.025184879 8.8359898e-39 335 261
0.019244585 0.68599999 -0.025258519 8.4690093e-39 336 261
0.020447372 0.68599999 -0.025258519 8.6533992e-39 337 261
0.021681719 0.68699998 -0.025295338 8.7459479e-39 338 261
0.022886258 0.68699998 -0.025295338 8.6533936e-39 339 261
0.024090799 0.68699998 -0.025295338 9.0207243e-39 340 261
0.025295338 0.68699998 -0.025295338 9.0207243e-39 341 261
0.026538454 0.68800002 -0.02533216 9.296598e-39 342 261
0.027865725 0.69099998 -0.025442619 9.4809906e-39 343 261
0.029077278 0.69099998 -0.025442619 9.9437694e-39 344 261
0.0303765 0.69300002 -0.02551626 1.0404389e-38 345 261
0.031637147 0.69400001 -0.025553079 1.2897283e-38 346 261
0.032853961 0.69400001 -0.025553079 1.6493272e-38 347 261
-0.044183996 0.69999999 -0.027001332 1.797959e-38 284 262
-0.042956665 0.69999999 -0.027001332 1.5582862e-38 285 262
-0.041610107 0.69800001 -0.026924185 1.5295056e-38 286 262
-0.040386278 0.69800001 -0.026924185 1.1607231e-38 287 262
-0.039106347 0.69700003 -0.026885614 1.3626477e-38 288 262
-0.037884273 0.69700003 -0.026885614 1.3349889e-38 289 262
-0.036609598 0.69599998 -0.026847038 1.3532464e-38 290 262
-0.035236739 0.69300002 -0.02673132 1.3348074e-38 291 262
-0.0338744 0.69 -0.026615599 1.2980732e-38 292 262
-0.032569919 0.68800002 -0.026538454 1.2703791e-38 293 262
-0.031318039 0.68699998 -0.026499879 1.2701997e-38 294 262
-0.030113498 0.68699998 -0.026499879 1.2425414e-38 295 262
-0.028908957 0.68699998 -0.026499879 1.2240308e-38 296 262
-0.027664091 0.68599999 -0.026461305 1.1963726e-38 297 262
-0.02638416 0.68400002 -0.02638416 1.1686784e-38 298 262
-0.025184879 0.68400002 -0.02638416 1.159459e-38 299 262
-0.023950534 0.68300003 -0.026345588 1.1593514e-38 300 262
-0.022753006 0.68300003 -0.026345588 1.150132e-38 301 262
-0.02155548 0.68300003 -0.026345588 1.0949589e-38 302 262
-0.020328145 0.68199998 -0.026307013 1.0672648e-38 303 262
-0.019132372 0.68199998 -0.026307013 1.0029085e-38 304 262
-0.017857701 0.67900002 -0.026191294 1.0029085e-38 305 262
-0.016667187 0.67900002 -0.026191294 9.846141e-39 306 262
-0.015453878 0.67799997 -0.026152719 9.846141e-39 307 262
-0.014265119 0.67799997 -0.026152719 9.7535922e-39 308 262
-0.013037786 0.676 -0.026075572 9.7535922e-39 309 262
-0.011852534 0.676 -0.026075572 9.6624728e-39 310 262
-0.01066728 0.676 -0.026075572 1.0031254e-38 311 262
-0.0094820261 0.676 -0.026075572 1.030927e-38 312 262
-0.0082967728 0.676 -0.026075572 1.0493661e-38 313 262
-0.0071115191 0.676 -0.026075572 1.0861366e-38 314 262
-0.0059262668 0.676 -0.026075572 1.0676974e-38 315 262
-0.0047410131 0.676 -0.026075572 1.0675539e-38 316 262
-0.0035557596 0.676 -0.026075572 1.0306396e-38 317 262
-0.0023705065 0.676 -0.026075572 9.9361842e-39 318 262
-0.0011852533 0.676 -0.026075572 9.4755662e-39 319 262
0 0.676 -0.026075572 9.1075194e-39 320 262
0.0011852533 0.676 -0.026075572 9.199715e-39 321 262
0.0023705065 0.676 -0.026075572 8.7419766e-39 322 262
0.0035662798 0.67799997 -0.026152719 8.5579455e-39 323 262
0.0047550397 0.67799997 -0.026152719 8.3724809e-39 324 262
0.0059437994 0.67799997 -0.026152719 8.2802852e-39 325 262
0.0071325595 0.67799997 -0.026152719 8.0973359e-39 326 262
0.0083335936 0.67900002 -0.026191294 8.1895329e-39 327 262
0.009524107 0.67900002 -0.026191294 8.2828034e-39 328 262
0.010714619 0.67900002 -0.026191294 8.374999e-39 329 262
0.011922667 0.68000001 -0.026229866 8.6505097e-39 330 262
0.013114933 0.68000001 -0.026229866 8.7427053e-39 331 262
0.01434928 0.68199998 -0.026307013 8.6508754e-39 332 262
0.015567848 0.68300003 -0.026345588 8.7430725e-39 333 262
0.016765373 0.68300003 -0.026345588 8.6519558e-39 334 262
0.0179892 0.68400002 -0.02638416 8.6519558e-39 335 262
0.019244585 0.68599999 -0.026461305 8.6530278e-39 336 262
0.020447372 0.68599999 -0.026461305 8.6530278e-39 337 262
0.021681719 0.68699998 -0.026499879 8.7455794e-39 338 262
0.022886258 0.68699998 -0.026499879 8.7455794e-39 339 262
0.024090799 0.68699998 -0.026499879 9.113636e-39 340 262
0.02533216 0.68800002 -0.026538454 9.2058331e-39 341 262
0.026615599 0.69 -0.026615599 9.2987504e-39 342 262
0.027865725 0.69099998 -0.026654173 9.5753373e-39 343 262
0.029077278 0.69099998 -0.026654173 1.0404375e-38 344 262
0.0303765 0.69300002 -0.02673132 1.0496572e-38 345 262
0.031637147 0.69400001 -0.026769891 1.3912866e-38 346 262
0.032853961 0.69400001 -0.026769891 1.7231909e-38 347 262
-0.044183996 0.69999999 -0.028228667 1.7704082e-38 284 263
-0.042956665 0.69999999 -0.028228667 1.6044561e-38 285 263
-0.041610107 0.69800001 -0.028148014 1.6033703e-38 286 263
-0.040386278 0.69800001 -0.028148014 1.18849e-38 287 263
-0.039106347 0.69700003 -0.028107686 1.3811237e-38 288 263
-0.037884273 0.69700003 -0.028107686 1.3626846e-38 289 263
-0.036609598 0.69599998 -0.028067358 1.3624665e-38 290 263
-0.035236739 0.69300002 -0.027946379 1.334772e-38 291 263
-0.0338744 0.69 -0.027825398 1.3164044e-38 292 263
-0.032569919 0.68800002 -0.027744746 1.2795267e-38 293 263
-0.031318039 0.68699998 -0.027704418 1.2701997e-38 294 263
-0.030113498 0.68699998 -0.027704418 1.233322e-38 295 263
-0.028908957 0.68699998 -0.027704418 1.2332144e-38 296 263
-0.027664091 0.68599999 -0.027664091 1.2147397e-38 297 263
-0.02638416 0.68400002 -0.027583439 1.1963008e-38 298 263
-0.025184879 0.68400002 -0.027583439 1.177862e-38 299 263
-0.023950534 0.68300003 -0.027543113 1.1686067e-38 300 263
-0.022753006 0.68300003 -0.027543113 1.1686067e-38 301 263
-0.02155548 0.68300003 -0.027543113 1.1133978e-38 302 263
-0.020328145 0.68199998 -0.027502786 1.0857754e-38 303 263
-0.019132372 0.68199998 -0.027502786 1.03975e-38 304 263
-0.017883999 0.68000001 -0.027422134 1.0305306e-38 305 263
-0.016667187 0.67900002 -0.027381808 9.8464913e-39 306 263
-0.015453878 0.67799997 -0.027341479 9.8464913e-39 307 263
-0.014265119 0.67799997 -0.027341479 9.8454221e-39 308 263
-0.013037786 0.676 -0.027260827 9.9376177e-39 309 263
-0.011852534 0.676 -0.027260827 9.7550244e-39 310 263
-0.01066728 0.676 -0.027260827 1.0031251e-38 311 263
-0.0094820261 0.676 -0.027260827 1.0308917e-38 312 263
-0.0082967728 0.676 -0.027260827 1.0493308e-38 313 263
-0.0071115191 0.676 -0.027260827 1.0585151e-38 314 263
-0.0059262668 0.676 -0.027260827 1.040076e-38 315 263
-0.0047410131 0.676 -0.027260827 1.0490438e-38 316 263
-0.0035662798 0.67799997 -0.027341479 1.0029819e-38 317 263
-0.0023705065 0.676 -0.027260827 9.4770081e-39 318 263
-0.0011852533 0.676 -0.027260827 9.2004212e-39 319 263
0 0.67799997 -0.027341479 8.7419668e-39 320 263
0.0011887599 0.67799997 -0.027341479 8.7419668e-39 321 263
0.0023775198 0.67799997 -0.027341479 8.5582986e-39 322 263
0.0035662798 0.67799997 -0.027341479 8.466103e-39 323 263
0.0047550397 0.67799997 -0.027341479 8.3735543e-39 324 263
0.0059437994 0.67799997 -0.027341479 8.1888029e-39 325 263
0.0071325595 0.67799997 -0.027341479 8.097689e-39 326 263
0.0083335936 0.67900002 -0.027381808 8.097689e-39 327 263
0.009524107 0.67900002 -0.027381808 8.1895329e-39 328 263
0.010714619 0.67900002 -0.027381808 8.3739228e-39 329 263
0.011922667 0.68000001 -0.027422134 8.4657653e-39 330 263
0.013114933 0.68000001 -0.027422134 8.5579609e-39 331 263
0.01434928 0.68199998 -0.027502786 8.3746515e-39 332 263
0.015567848 0.68300003 -0.027543113 8.4668471e-39 333 263
0.016765373 0.68300003 -0.027543113 8.6508782e-39 334 263
0.0179892 0.68400002 -0.027583439 8.7430753e-39 335 263
0.019244585 0.68599999 -0.027664091 8.7434256e-39 336 263
0.020447372 0.68599999 -0.027664091 8.9281756e-39 337 263
0.021681719 0.68699998 -0.027704418 9.0217935e-39 338 263
0.022886258 0.68699998 -0.027704418 9.0217935e-39 339 263
0.024090799 0.68699998 -0.027704418 9.1139892e-39 340 263
0.02533216 0.68800002 -0.027744746 9.2983818e-39 341 263
0.026615599 0.69 -0.027825398 9.6660937e-39 342 263
0.027946379 0.69300002 -0.027946379 1.0126713e-38 343 263
0.029161438 0.69300002 -0.027946379 1.0955395e-38 344 263
0.030420333 0.69400001 -0.027986705 1.1324536e-38 345 263
0.031728316 0.69599998 -0.028067358 1.5481997e-38 346 263
0.032948639 0.69599998 -0.028067358 1.797092e-38 347 263
-0.042956665 0.69999999 -0.029455997 1.6688854e-38 285 264
-0.041729331 0.69999999 -0.029455997 1.6496846e-38 286 264
-0.040386278 0.69800001 -0.029371841 1.1794868e-38 287 264
-0.039106347 0.69700003 -0.02932976 1.3904156e-38 288 264
-0.037884273 0.69700003 -0.02932976 1.3535732e-38 289 264
-0.036609598 0.69599998 -0.029287677 1.3624662e-38 290 264
-0.035236739 0.69300002 -0.029161438 1.3440271e-38 291 264
-0.0338744 0.69 -0.029035198 1.3256239e-38 292 264
-0.032664597 0.69 -0.029035198 1.288782e-38 293 264
-0.031363625 0.68800002 -0.028951041 1.2702356e-38 294 264
-0.030113498 0.68699998 -0.028908957 1.2425414e-38 295 264
-0.028908957 0.68699998 -0.028908957 1.2424338e-38 296 264
-0.027664091 0.68599999 -0.02886688 1.223995e-38 297 264
-0.02638416 0.68400002 -0.02878272 1.2238874e-38 298 264
-0.025184879 0.68400002 -0.02878272 1.2054485e-38 299 264
-0.023950534 0.68300003 -0.028740639 1.1961932e-38 300 264
-0.022753006 0.68300003 -0.028740639 1.1869738e-38 301 264
-0.02155548 0.68300003 -0.028740639 1.1318007e-38 302 264
-0.020357953 0.68300003 -0.028740639 1.113326e-38 303 264
-0.019132372 0.68199998 -0.02869856 1.0581889e-38 304 264
-0.017883999 0.68000001 -0.028614398 1.0489336e-38 305 264
-0.016667187 0.67900002 -0.028572321 1.0214188e-38 306 264
-0.015453878 0.67799997 -0.028530238 1.0121994e-38 307 264
-0.014265119 0.67799997 -0.028530238 9.9379681e-39 308 264
-0.013037786 0.676 -0.028446076 9.9379681e-39 309 264
-0.011852534 0.676 -0.028446076 1.0030532e-38 310 264
-0.01066728 0.676 -0.028446076 1.0215282e-38 311 264
-0.0094820261 0.676 -0.028446076 1.021745e-38 312 264
-0.0082967728 0.676 -0.028446076 1.0309646e-38 313 264
-0.0071115191 0.676 -0.028446076 1.0492608e-38 314 264
-0.0059262668 0.676 -0.028446076 1.0307858e-38 315 264
-0.0047410131 0.676 -0.028446076 1.0123102e-38 316 264
-0.0035557596 0.676 -0.028446076 9.6621253e-39 317 264
-0.0023705065 0.676 -0.028446076 9.2022219e-39 318 264
-0.0011852533 0.676 -0.028446076 9.0174719e-39 319 264
0 0.67799997 -0.028530238 8.467175e-39 320 264
0.0011887599 0.67799997 -0.028530238 8.467175e-39 321 264
0.0023775198 0.67799997 -0.028530238 8.7419668e-39 322 264
0.0035662798 0.67799997 -0.028530238 8.6494125e-39 323 264
0.0047550397 0.67799997 -0.028530238 8.5572196e-39 324 264
0.0059437994 0.67799997 -0.028530238 8.5572196e-39 325 264
0.0071430802 0.67900002 -0.028572321 8.2813572e-39 326 264
0.0083335936 0.67900002 -0.028572321 8.2813572e-39 327 264
0.0095381327 0.68000001 -0.028614398 8.1898861e-39 328 264
0.0107304 0.68000001 -0.028614398 8.3739172e-39 329 264
0.011922667 0.68000001 -0.028614398 8.37392e-39 330 264
0.013153506 0.68199998 -0.02869856 8.37392e-39 331 264
0.014370319 0.68300003 -0.028740639 8.1899015e-39 332 264
0.015567848 0.68300003 -0.028740639 8.3746515e-39 333 264
0.016789921 0.68400002 -0.02878272 8.3750172e-39 334 264
0.0179892 0.68400002 -0.02878272 8.4672142e-39 335 264
0.019244585 0.68599999 -0.02886688 8.8359771e-39 336 264
0.020447372 0.68599999 -0.02886688 9.0203684e-39 337 264
0.021681719 0.68699998 -0.028908957 9.2972986e-39 338 264
0.022886258 0.68699998 -0.028908957 9.389853e-39 339 264
0.024090799 0.68699998 -0.028908957 9.4816997e-39 340 264
0.02533216 0.68800002 -0.028951041 9.4816997e-39 341 264
0.026615599 0.69 -0.029035198 9.6661092e-39 342 264
0.027946379 0.69300002 -0.029161438 1.0218924e-38 343 264
0.029161438 0.69300002 -0.029161438 1.0864296e-38 344 264
0.030420333 0.69400001 -0.029203519 1.1971004e-38 345 264
0.031728316 0.69599998 -0.029287677 1.6221379e-38 346 264
0.032948639 0.69599998 -0.029287677 1.8710302e-38 347 264
-0.042956665 0.69999999 -0.030683333 1.7148753e-38 285 265
-0.041729331 0.69999999 -0.030683333 1.6775954e-38 286 265
-0.040386278 0.69800001 -0.030595668 1.1520803e-38 287 265
-0.039162453 0.69800001 -0.030595668 1.3720843e-38 288 265
-0.037884273 0.69700003 -0.030551834 1.3443896e-38 289 265
-0.036662199 0.69700003 -0.030551834 1.3534632e-38 290 265
-0.035287585 0.69400001 -0.030420333 1.3258044e-38 291 265
-0.033923492 0.69099998 -0.030288832 1.3165479e-38 292 265
-0.032664597 0.69 -0.030244999 1.2612314e-38 293 265
-0.031363625 0.68800002 -0.030157333 1.2702715e-38 294 265
-0.030157333 0.68800002 -0.030157333 1.2426132e-38 295 265
-0.028908957 0.68699998 -0.030113498 1.2425056e-38 296 265
-0.027704418 0.68699998 -0.030113498 1.2240667e-38 297 265
-0.02638416 0.68400002 -0.029982001 1.2239232e-38 298 265
-0.025184879 0.68400002 -0.029982001 1.2147038e-38 299 265
-0.023950534 0.68300003 -0.029938167 1.1962291e-38 300 265
-0.022753006 0.68300003 -0.029938167 1.1778261e-38 301 265
-0.02155548 0.68300003 -0.029938167 1.1410202e-38 302 265
-0.020357953 0.68300003 -0.029938167 1.1318007e-38 303 265
-0.019132372 0.68199998 -0.029894331 1.06748e-38 304 265
-0.017883999 0.68000001 -0.029806666 1.0490053e-38 305 265
-0.016691733 0.68000001 -0.029806666 1.0214905e-38 306 265
-0.015453878 0.67799997 -0.029718997 1.0030876e-38 307 265
-0.014265119 0.67799997 -0.029718997 1.0030167e-38 308 265
-0.013037786 0.676 -0.029631332 1.0030167e-38 309 265
-0.011852534 0.676 -0.029631332 1.0031251e-38 310 265
-0.01066728 0.676 -0.029631332 1.0216003e-38 311 265
-0.0094820261 0.676 -0.029631332 1.021745e-38 312 265
-0.0082967728 0.676 -0.029631332 1.0493677e-38 313 265
-0.0071115191 0.676 -0.029631332 1.0309295e-38 314 265
-0.0059262668 0.676 -0.029631332 9.9401541e-39 315 265
-0.0047410131 0.676 -0.029631332 9.7546866e-39 316 265
-0.0035557596 0.676 -0.029631332 9.2940686e-39 317 265
-0.0023705065 0.676 -0.029631332 8.9260022e-39 318 265
-0.0011852533 0.676 -0.029631332 8.6494153e-39 319 265
0 0.67799997 -0.029718997 8.6486964e-39 320 265
0.0011887599 0.67799997 -0.029718997 8.740892e-39 321 265
0.0023775198 0.67799997 -0.029718997 8.8320087e-39 322 265
0.0035662798 0.67799997 -0.029718997 8.8320087e-39 323 265
0.0047550397 0.67799997 -0.029718997 8.5572196e-39 324 265
0.0059525664 0.67900002 -0.029762832 8.6494153e-39 325 265
0.0071430802 0.67900002 -0.029762832 8.4657471e-39 326 265
0.0083458666 0.68000001 -0.029806666 8.3735515e-39 327 265
0.0095381327 0.68000001 -0.029806666 8.1902392e-39 328 265
0.0107304 0.68000001 -0.029806666 8.3742703e-39 329 265
0.011922667 0.68000001 -0.029806666 8.2831565e-39 330 265
0.013153506 0.68199998 -0.029894331 8.1909609e-39 331 265
0.014370319 0.68300003 -0.029938167 8.0076612e-39 332 265
0.01559064 0.68400002 -0.029982001 8.0076612e-39 333 265
0.016789921 0.68400002 -0.029982001 8.3753647e-39 334 265
0.018041799 0.68599999 -0.030069664 8.5601161e-39 335 265
0.019244585 0.68599999 -0.030069664 8.8370491e-39 336 265
0.020477179 0.68699998 -0.030113498 9.2058331e-39 337 265
0.021681719 0.68699998 -0.030113498 9.48205e-39 338 265
0.022919573 0.68800002 -0.030157333 9.5742456e-39 339 265
0.024125867 0.68800002 -0.030157333 9.4820626e-39 340 265
0.025442619 0.69099998 -0.030288832 9.2980315e-39 341 265
0.026654173 0.69099998 -0.030288832 9.6646616e-39 342 265
0.027865725 0.69099998 -0.030288832 1.0125641e-38 343 265
0.029203519 0.69400001 -0.030420333 1.1141238e-38 344 265
0.030420333 0.69400001 -0.030420333 1.2616727e-38 345 265
0.031637147 0.69400001 -0.030420333 1.5946234e-38 346 265
0.032853961 0.69400001 -0.030420333 1.7790147e-38 347 265
-0.042956665 0.69999999 -0.031910665 1.7609015e-38 285 266
-0.041729331 0.69999999 -0.031910665 1.7514238e-38 286 266
-0.040386278 0.69800001 -0.031819493 1.2351283e-38 287 266
-0.039162453 0.69800001 -0.031819493 1.3538603e-38 288 266
-0.037938625 0.69800001 -0.031819493 1.3261656e-38 289 266
-0.036662199 0.69700003 -0.03177391 1.3809774e-38 290 266
-0.035287585 0.69400001 -0.031637147 1.3533186e-38 291 266
-0.033923492 0.69099998 -0.031500384 1.3348433e-38 292 266
-0.032664597 0.69 -0.031454802 1.3164044e-38 293 266
-0.031454802 0.69 -0.031454802 1.2795267e-38 294 266
-0.030157333 0.68800002 -0.031363625 1.2610879e-38 295 266
-0.028908957 0.68699998 -0.031318039 1.2608727e-38 296 266
-0.027704418 0.68699998 -0.031318039 1.2332144e-38 297 266
-0.026499879 0.68699998 -0.031318039 1.2422903e-38 298 266
-0.025184879 0.68400002 -0.03118128 1.2146679e-38 299 266
-0.0239856 0.68400002 -0.03118128 1.2054126e-38 300 266
-0.022753006 0.68300003 -0.031135695 1.1961932e-38 301 266
-0.02155548 0.68300003 -0.031135695 1.1593873e-38 302 266
-0.020357953 0.68300003 -0.031135695 1.1501678e-38 303 266
-0.019132372 0.68199998 -0.031090107 1.1134336e-38 304 266
-0.017883999 0.68000001 -0.030998932 1.0950307e-38 305 266
-0.016691733 0.68000001 -0.030998932 1.0582606e-38 306 266
-0.015453878 0.67799997 -0.030907756 1.0490412e-38 307 266
-0.014265119 0.67799997 -0.030907756 1.0030522e-38 308 266
-0.013037786 0.676 -0.030816587 1.0214554e-38 309 266
-0.011852534 0.676 -0.030816587 9.8483046e-39 310 266
-0.01066728 0.676 -0.030816587 1.0125252e-38 311 266
-0.0094820261 0.676 -0.030816587 1.0034504e-38 312 266
-0.0082967728 0.676 -0.030816587 1.0034504e-38 313 266
-0.0071115191 0.676 -0.030816587 1.0124545e-38 314 266
-0.0059262668 0.676 -0.030816587 9.6639259e-39 315 266
-0.0047410131 0.676 -0.030816587 9.4795319e-39 316 266
-0.0035662798 0.67799997 -0.030907756 9.0185537e-39 317 266
-0.0023705065 0.676 -0.030816587 8.9242043e-39 318 266
-0.0011852533 0.676 -0.030816587 8.7398116e-39 319 266
0 0.67799997 -0.030907756 8.3724781e-39 320 266
0.0011887599 0.67799997 -0.030907756 8.2802824e-39 321 266
0.0023810267 0.67900002 -0.030953348 8.5561463e-39 322 266
0.0035715401 0.67900002 -0.030953348 8.5561463e-39 323 266
0.0047620535 0.67900002 -0.030953348 8.5575728e-39 324 266
0.0059525664 0.67900002 -0.030953348 8.741964e-39 325 266
0.0071430802 0.67900002 -0.030953348 8.4661002e-39 326 266
0.0083458666 0.68000001 -0.030998932 8.4661002e-39 327 266
0.0095381327 0.68000001 -0.030998932 8.466466e-39 328 266
0.0107304 0.68000001 -0.030998932 8.5590203e-39 329 266
0.011922667 0.68000001 -0.030998932 8.5590175e-39 330 266
0.013153506 0.68199998 -0.031090107 8.5590175e-39 331 266
0.014370319 0.68300003 -0.031135695 8.5590203e-39 332 266
0.01559064 0.68400002 -0.03118128 8.5590203e-39 333 266
0.016789921 0.68400002 -0.03118128 8.6512258e-39 334 266
0.018041799 0.68599999 -0.031272452 8.8359771e-39 335 266
0.019272638 0.68699998 -0.031318039 9.0214404e-39 336 266
0.020477179 0.68699998 -0.031318039 9.2058331e-39 337 266
0.021681719 0.68699998 -0.031318039 9.2983846e-39 338 266
0.022919573 0.68800002 -0.031363625 9.4824157e-39 339 266
0.024195999 0.69 -0.031454802 9.573545e-39 340 266
0.025442619 0.69099998 -0.031500384 9.573545e-39 341 266
0.026654173 0.69099998 -0.031500384 9.5742611e-39 342 266
0.027865725 0.69099998 -0.031500384 1.0588773e-38 343 266
0.029161438 0.69300002 -0.031591557 1.151252e-38 344 266
0.030420333 0.69400001 -0.031637147 1.2342282e-38 345 266
0.031637147 0.69400001 -0.031637147 1.4198107e-38 346 266
0.032853961 0.69400001 -0.031637147 1.5673239e-38 347 266
-0.041610107 0.69800001 -0.033043321 1.8434046e-38 286 267
-0.040386278 0.69800001 -0.033043321 1.4285243e-38 287 267
-0.039162453 0.69800001 -0.033043321 1.3723374e-38 288 267
-0.037938625 0.69800001 -0.033043321 1.2617385e-38 289 267
-0.036662199 0.69700003 -0.03299598 1.3811593e-38 290 267
-0.035287585 0.69400001 -0.032853961 1.3442452e-38 291 267
-0.034021679 0.69300002 -0.03280662 1.3166927e-38 292 267
-0.032711938 0.69099998 -0.032711938 1.2613754e-38 293 267
-0.031454802 0.69 -0.032664597 1.2797423e-38 294 267
-0.030157333 0.68800002 -0.032569919 1.2244255e-38 295 267
-0.028951041 0.68800002 -0.032569919 1.2517609e-38 296 267
-0.027704418 0.68699998 -0.032522578 1.2241385e-38 297 267
-0.026499879 0.68699998 -0.032522578 1.223995e-38 298 267
-0.025258519 0.68599999 -0.032475237 1.2055561e-38 299 267
-0.0239856 0.68400002 -0.032380559 1.187046e-38 300 267
-0.022786319 0.68400002 -0.032380559 1.187046e-38 301 267
-0.02155548 0.68300003 -0.032333218 1.1502759e-38 302 267
-0.020357953 0.68300003 -0.032333218 1.1410204e-38 303 267
-0.019132372 0.68199998 -0.032285877 1.1134695e-38 304 267
-0.017883999 0.68000001 -0.032191198 1.0950307e-38 305 267
-0.016691733 0.68000001 -0.032191198 1.0674087e-38 306 267
-0.015476674 0.67900002 -0.032143861 1.0581891e-38 307 267
-0.014265119 0.67799997 -0.03209652 1.0030532e-38 308 267
-0.013037786 0.676 -0.032001842 9.9383366e-39 309 267
-0.011852534 0.676 -0.032001842 9.8475885e-39 310 267
-0.01066728 0.676 -0.032001842 1.0031981e-38 311 267
-0.0094820261 0.676 -0.032001842 1.0124901e-38 312 267
-0.0082967728 0.676 -0.032001842 1.0032347e-38 313 267
-0.0071115191 0.676 -0.032001842 9.7564859e-39 314 267
-0.0059262668 0.676 -0.032001842 9.4798976e-39 315 267
-0.0047410131 0.676 -0.032001842 9.3869831e-39 316 267
-0.0035662798 0.67799997 -0.03209652 8.926005e-39 317 267
-0.0023705065 0.676 -0.032001842 8.6490622e-39 318 267
-0.0011852533 0.676 -0.032001842 8.1884427e-39 319 267
0 0.67799997 -0.03209652 8.371755e-39 320 267
0.0011887599 0.67799997 -0.03209652 8.4639506e-39 321 267
0.0023810267 0.67900002 -0.032143861 8.3731843e-39 322 267
0.0035715401 0.67900002 -0.032143861 8.6494125e-39 323 267
0.0047620535 0.67900002 -0.032143861 8.6501215e-39 324 267
0.0059525664 0.67900002 -0.032143861 8.7423172e-39 325 267
0.0071430802 0.67900002 -0.032143861 8.5586462e-39 326 267
0.0083458666 0.68000001 -0.032191198 8.5586462e-39 327 267
0.0095381327 0.68000001 -0.032191198 8.5586518e-39 328 267
0.010761959 0.68199998 -0.032285877 8.5586518e-39 329 267
0.011957732 0.68199998 -0.032285877 8.5590175e-39 330 267
0.013153506 0.68199998 -0.032285877 8.6512131e-39 331 267
0.014370319 0.68300003 -0.032333218 8.3760682e-39 332 267
0.01559064 0.68400002 -0.032380559 8.5608196e-39 333 267
0.016839013 0.68599999 -0.032475237 8.4689869e-39 334 267
0.018041799 0.68599999 -0.032475237 8.6533782e-39 335 267
0.019272638 0.68699998 -0.032522578 9.1129172e-39 336 267
0.020477179 0.68699998 -0.032522578 9.3891453e-39 337 267
0.021713281 0.68800002 -0.032569919 9.2983846e-39 338 267
0.022986198 0.69 -0.032664597 9.4824157e-39 339 267
0.024195999 0.69 -0.032664597 9.6660909e-39 340 267
0.025442619 0.69099998 -0.032711938 9.4816997e-39 341 267
0.026654173 0.69099998 -0.032711938 1.0034148e-38 342 267
