# .PCD v.7 - Point Cloud Data file format
FIELDS x y z rgb imX imY
SIZE 4 4 4 4 4 4
TYPE F F F F F F
COUNT 1 1 1 1 1 1
WIDTH 846
HEIGHT 1
VIEWPOINT 0 0 0 1 0 0 0
POINTS 846
DATA ascii
-0.0013237667 0.755 -0.014561433 1.0946749e-38 319 251
0 0.75700003 -0.014600007 1.0579768e-38 320 251
0.0013272733 0.75700003 -0.014600007 1.0395018e-38 321 251
0.0026545466 0.75700003 -0.014600007 9.9347675e-39 322 251
0.0039818203 0.75700003 -0.014600007 9.7500175e-39 323 251
0.0053090933 0.75700003 -0.014600007 9.1068159e-39 324 251
0.0066363667 0.75700003 -0.014600007 9.1068159e-39 325 251
0.0079636406 0.75700003 -0.014600007 8.7409075e-39 326 251
0.0092909131 0.75700003 -0.014600007 8.8331031e-39 327 251
0.01064624 0.759 -0.014638579 8.8341751e-39 328 251
0.012008579 0.76099998 -0.014677152 8.8341751e-39 329 251
0.013342866 0.76099998 -0.014677152 8.7412578e-39 330 251
0.014677152 0.76099998 -0.014677152 8.5568665e-39 331 251
0.01603248 0.76200002 -0.01469644 8.2802852e-39 332 251
0.01736852 0.76200002 -0.01469644 8.1880896e-39 333 251
0.018753653 0.764 -0.014735013 8.0959038e-39 334 251
0.020093199 0.764 -0.014735013 8.1884581e-39 335 251
0.021488851 0.76599997 -0.014773586 7.8214917e-39 336 251
0.022861714 0.76700002 -0.014792874 8.3746641e-39 337 251
0.024269639 0.76899999 -0.014831445 8.3797032e-39 338 251
0.025617953 0.76899999 -0.014831445 7.918725e-39 339 251
0.027036399 0.77100003 -0.01487002 9.8559291e-39 340 251
-0.047497798 0.77399999 -0.016284959 1.8162915e-38 285 252
-0.046140719 0.77399999 -0.016284959 1.7053282e-38 286 252
-0.044725779 0.773 -0.016263919 1.1890327e-38 287 252
-0.043258239 0.77100003 -0.016221842 1.3353897e-38 288 252
-0.041797712 0.76899999 -0.016179759 1.3076951e-38 289 252
-0.0404494 0.76899999 -0.016179759 1.344248e-38 290 252
-0.038999394 0.76700002 -0.01613768 1.3165534e-38 291 252
-0.037654586 0.76700002 -0.01613768 1.3255918e-38 292 252
-0.036262438 0.76599997 -0.016116638 1.3163722e-38 293 252
-0.034919381 0.76599997 -0.016116638 1.2886056e-38 294 252
-0.033357166 0.76099998 -0.016011439 1.2793861e-38 295 252
-0.032022879 0.76099998 -0.016011439 1.2700959e-38 296 252
-0.030607941 0.759 -0.015969358 1.2516928e-38 297 252
-0.029277159 0.759 -0.015969358 1.2606972e-38 298 252
-0.027872739 0.75700003 -0.015927281 1.2606972e-38 299 252
-0.026545467 0.75700003 -0.015927281 1.2789917e-38 300 252
-0.025151566 0.755 -0.015885198 1.2789917e-38 301 252
-0.023827799 0.755 -0.015885198 1.2698441e-38 302 252
-0.022504034 0.755 -0.015885198 1.2606245e-38 303 252
-0.021180267 0.755 -0.015885198 1.2421135e-38 304 252
-0.0198565 0.755 -0.015885198 1.2237104e-38 305 252
-0.018532733 0.755 -0.015885198 1.2053421e-38 306 252
-0.017208965 0.755 -0.015885198 1.1777195e-38 307 252
-0.015885198 0.755 -0.015885198 1.1961582e-38 308 252
-0.014542146 0.75400001 -0.01586416 1.1777551e-38 309 252
-0.013220133 0.75400001 -0.01586416 1.1776844e-38 310 252
-0.01189812 0.75400001 -0.01586416 1.1684649e-38 311 252
-0.010576107 0.75400001 -0.01586416 1.1498482e-38 312 252
-0.0092540924 0.75400001 -0.01586416 1.1221535e-38 313 252
-0.00793208 0.75400001 -0.01586416 1.094604e-38 314 252
-0.0066100666 0.75400001 -0.01586416 1.0762009e-38 315 252
-0.0052950666 0.755 -0.015885198 1.0487217e-38 316 252
-0.0039712996 0.755 -0.015885198 1.0763802e-38 317 252
-0.0026475333 0.755 -0.015885198 1.0764153e-38 318 252
-0.0013237667 0.755 -0.015885198 1.0764153e-38 319 252
0 0.75700003 -0.015927281 1.0395018e-38 320 252
0.0013272733 0.75700003 -0.015927281 1.0210627e-38 321 252
0.0026545466 0.75700003 -0.015927281 9.8414971e-39 322 252
0.0039818203 0.75700003 -0.015927281 9.6571058e-39 323 252
0.0053090933 0.75700003 -0.015927281 8.831308e-39 324 252
0.0066363667 0.75700003 -0.015927281 8.9235037e-39 325 252
0.0079636406 0.75700003 -0.015927281 8.7419823e-39 326 252
0.0092909131 0.75700003 -0.015927281 8.7419823e-39 327 252
0.010674292 0.76099998 -0.016011439 8.9245756e-39 328 252
0.012008579 0.76099998 -0.016011439 8.9245756e-39 329 252
0.013342866 0.76099998 -0.016011439 8.739111e-39 330 252
0.01469644 0.76200002 -0.01603248 8.4625255e-39 331 252
0.01603248 0.76200002 -0.01603248 8.0029921e-39 332 252
0.017414106 0.764 -0.016074561 7.9107965e-39 333 252
0.018753653 0.764 -0.016074561 7.727494e-39 334 252
0.020093199 0.764 -0.016074561 7.8196896e-39 335 252
0.021488851 0.76599997 -0.016116638 7.4548798e-39 336 252
0.022861714 0.76700002 -0.01613768 8.0080536e-39 337 252
0.024269639 0.76899999 -0.016179759 7.4620699e-39 338 252
0.025617953 0.76899999 -0.016179759 8.2914704e-39 339 252
0.026966266 0.76899999 -0.016179759 1.1144869e-38 340 252
-0.047497798 0.77399999 -0.01764204 1.8070719e-38 285 253
-0.046140719 0.77399999 -0.01764204 1.7514631e-38 286 253
-0.044725779 0.773 -0.017619247 1.2720456e-38 287 253
-0.043258239 0.77100003 -0.01757366 1.3446828e-38 288 253
-0.04190642 0.77100003 -0.01757366 1.2525232e-38 289 253
-0.0404494 0.76899999 -0.017528072 1.3442494e-38 290 253
-0.039101087 0.76899999 -0.017528072 1.307407e-38 291 253
-0.037654586 0.76700002 -0.017482487 1.3165168e-38 292 253
-0.036309779 0.76700002 -0.017482487 1.2611994e-38 293 253
-0.034919381 0.76599997 -0.017459691 1.2794944e-38 294 253
-0.033488665 0.764 -0.017414106 1.2425801e-38 295 253
-0.032022879 0.76099998 -0.017345725 1.2515126e-38 296 253
-0.030607941 0.759 -0.017300138 1.2330734e-38 297 253
-0.029277159 0.759 -0.017300138 1.2605529e-38 298 253
-0.027872739 0.75700003 -0.017254554 1.2605529e-38 299 253
-0.026545467 0.75700003 -0.017254554 1.2605882e-38 300 253
-0.025151566 0.755 -0.017208965 1.2605882e-38 301 253
-0.023827799 0.755 -0.017208965 1.2513684e-38 302 253
-0.022504034 0.755 -0.017208965 1.2421488e-38 303 253
-0.021180267 0.755 -0.017208965 1.232822e-38 304 253
-0.0198565 0.755 -0.017208965 1.2236023e-38 305 253
-0.018532733 0.755 -0.017208965 1.2143469e-38 306 253
-0.017208965 0.755 -0.017208965 1.2143469e-38 307 253
-0.015885198 0.755 -0.017208965 1.196051e-38 308 253
-0.014561433 0.755 -0.017208965 1.2052705e-38 309 253
-0.013237666 0.755 -0.017208965 1.1777566e-38 310 253
-0.01189812 0.75400001 -0.017186172 1.1685012e-38 311 253
-0.010576107 0.75400001 -0.017186172 1.1224053e-38 312 253
-0.0092540924 0.75400001 -0.017186172 1.1131858e-38 313 253
-0.00793208 0.75400001 -0.017186172 1.0670882e-38 314 253
-0.0066188332 0.755 -0.017208965 1.0670882e-38 315 253
-0.0052950666 0.755 -0.017208965 1.0488642e-38 316 253
-0.0039712996 0.755 -0.017208965 1.0580838e-38 317 253
-0.0026475333 0.755 -0.017208965 1.0488642e-38 318 253
-0.0013237667 0.755 -0.017208965 1.0303892e-38 319 253
0 0.75700003 -0.017254554 1.0395018e-38 320 253
0.0013272733 0.75700003 -0.017254554 9.934399e-39 321 253
0.0026545466 0.75700003 -0.017254554 9.7492986e-39 322 253
0.0039818203 0.75700003 -0.017254554 9.5649074e-39 323 253
0.0053090933 0.75700003 -0.017254554 8.7405417e-39 324 253
0.0066538998 0.759 -0.017300138 8.7405417e-39 325 253
0.0079846792 0.759 -0.017300138 8.5583015e-39 326 253
0.00931546 0.759 -0.017300138 8.7423326e-39 327 253
0.010674292 0.76099998 -0.017345725 8.9249288e-39 328 253
0.012008579 0.76099998 -0.017345725 8.6483433e-39 329 253
0.0133604 0.76200002 -0.01736852 8.3710487e-39 330 253
0.01469644 0.76200002 -0.01736852 8.0026264e-39 331 253
0.016074561 0.764 -0.017414106 7.8175246e-39 332 253
0.017414106 0.764 -0.017414106 7.8175246e-39 333 253
0.018753653 0.764 -0.017414106 7.7271311e-39 334 253
0.020145798 0.76599997 -0.017459691 8.0955535e-39 335 253
0.021488851 0.76599997 -0.017459691 7.4555861e-39 336 253
0.022861714 0.76700002 -0.017482487 7.8240084e-39 337 253
0.024269639 0.76899999 -0.017528072 7.2755108e-39 338 253
0.025617953 0.76899999 -0.017528072 1.0133215e-38 339 253
0.026966266 0.76899999 -0.017528072 1.2529958e-38 340 253
-0.047497798 0.77399999 -0.018999118 1.7885249e-38 285 254
-0.046081103 0.773 -0.018974574 1.6874302e-38 286 254
-0.044494338 0.76899999 -0.018876385 1.3094281e-38 287 254
-0.043146025 0.76899999 -0.018876385 1.3908535e-38 288 254
-0.041797712 0.76899999 -0.018876385 1.25256e-38 289 254
-0.0404494 0.76899999 -0.018876385 1.3166982e-38 290 254
-0.039101087 0.76899999 -0.018876385 1.298259e-38 291 254
-0.037654586 0.76700002 -0.018827293 1.2889653e-38 292 254
-0.036309779 0.76700002 -0.018827293 1.2613066e-38 293 254
-0.034964975 0.76700002 -0.018827293 1.2793145e-38 294 254
-0.033488665 0.764 -0.018753653 1.2424002e-38 295 254
-0.032022879 0.76099998 -0.018680012 1.2147425e-38 296 254
-0.030607941 0.759 -0.01863092 1.205487e-38 297 254
-0.029277159 0.759 -0.01863092 1.1871561e-38 298 254
-0.027872739 0.75700003 -0.018581826 1.1871561e-38 299 254
-0.026545467 0.75700003 -0.018581826 1.1962322e-38 300 254
-0.025151566 0.755 -0.018532733 1.1870126e-38 301 254
-0.023827799 0.755 -0.018532733 1.2053075e-38 302 254
-0.022504034 0.755 -0.018532733 1.2053075e-38 303 254
-0.021180267 0.755 -0.018532733 1.1776491e-38 304 254
-0.0198565 0.755 -0.018532733 1.1776491e-38 305 254
-0.018532733 0.755 -0.018532733 1.1776491e-38 306 254
-0.017208965 0.755 -0.018532733 1.1776491e-38 307 254
-0.015885198 0.755 -0.018532733 1.1592819e-38 308 254
-0.014561433 0.755 -0.018532733 1.1685015e-38 309 254
-0.013237666 0.755 -0.018532733 1.1502421e-38 310 254
-0.01189812 0.75400001 -0.018508185 1.1410225e-38 311 254
-0.010576107 0.75400001 -0.018508185 1.1316236e-38 312 254
-0.0092540924 0.75400001 -0.018508185 1.1039648e-38 313 254
-0.00793208 0.75400001 -0.018508185 1.0946743e-38 314 254
-0.0066188332 0.755 -0.018532733 1.0762712e-38 315 254
-0.0052950666 0.755 -0.018532733 1.030533e-38 316 254
-0.0039712996 0.755 -0.018532733 1.0212775e-38 317 254
-0.0026475333 0.755 -0.018532733 9.8454347e-39 318 254
-0.0013272733 0.75700003 -0.018581826 9.5692066e-39 319 254
0 0.75700003 -0.018581826 9.6592568e-39 320 254
0.0013272733 0.75700003 -0.018581826 9.4745068e-39 321 254
0.0026545466 0.75700003 -0.018581826 8.9231379e-39 322 254
0.0039818203 0.75700003 -0.018581826 8.9231379e-39 323 254
0.0053090933 0.75700003 -0.018581826 8.5568693e-39 324 254
0.0066538998 0.759 -0.01863092 8.649065e-39 325 254
0.0079846792 0.759 -0.01863092 8.6490622e-39 326 254
0.00931546 0.759 -0.01863092 8.7412578e-39 327 254
0.010674292 0.76099998 -0.018680012 8.9242099e-39 328 254
0.01202436 0.76200002 -0.01870456 8.7394585e-39 329 254
0.0133604 0.76200002 -0.01870456 8.2792062e-39 330 254
0.01469644 0.76200002 -0.01870456 8.0951751e-39 331 254
0.016074561 0.764 -0.018753653 7.4516176e-39 332 254
0.017414106 0.764 -0.018753653 7.3594206e-39 333 254
0.018802745 0.76599997 -0.018802745 7.3615856e-39 334 254
0.020145798 0.76599997 -0.018802745 7.5463355e-39 335 254
0.021516906 0.76700002 -0.018827293 7.4566679e-39 336 254
0.022861714 0.76700002 -0.018827293 7.7336149e-39 337 254
0.024206521 0.76700002 -0.018827293 8.4683087e-39 338 254
0.02568458 0.77100003 -0.018925481 1.2063937e-38 339 254
0.027036399 0.77100003 -0.018925481 1.2259132e-38 340 254
-0.047497798 0.77399999 -0.020356199 1.7332798e-38 285 255
-0.045961879 0.77100003 -0.020277301 1.6688488e-38 286 255
-0.044494338 0.76899999 -0.0202247 1.4199206e-38 287 255
-0.043146025 0.76899999 -0.0202247 1.4462797e-38 288 255
-0.041797712 0.76899999 -0.0202247 1.2250102e-38 289 255
-0.0404494 0.76899999 -0.0202247 1.3259897e-38 290 255
-0.039101087 0.76899999 -0.0202247 1.2891474e-38 291 255
-0.03775277 0.76899999 -0.0202247 1.2890379e-38 292 255
-0.036309779 0.76700002 -0.020172099 1.2337205e-38 293 255
-0.034964975 0.76700002 -0.020172099 1.2518e-38 294 255
-0.033576332 0.76599997 -0.020145798 1.1964826e-38 295 255
-0.032022879 0.76099998 -0.020014299 1.2055224e-38 296 255
-0.030688593 0.76099998 -0.020014299 1.1870832e-38 297 255
-0.029277159 0.759 -0.0199617 1.1961956e-38 298 255
-0.027872739 0.75700003 -0.019909101 1.186976e-38 299 255
-0.026545467 0.75700003 -0.019909101 1.1777213e-38 300 255
-0.025218192 0.75700003 -0.019909101 1.1592463e-38 301 255
-0.023827799 0.755 -0.0198565 1.1775415e-38 302 255
-0.022504034 0.755 -0.0198565 1.1867611e-38 303 255
-0.021180267 0.755 -0.0198565 1.1684293e-38 304 255
-0.0198565 0.755 -0.0198565 1.1776847e-38 305 255
-0.018532733 0.755 -0.0198565 1.1684296e-38 306 255
-0.017208965 0.755 -0.0198565 1.15921e-38 307 255
-0.015885198 0.755 -0.0198565 1.1408435e-38 308 255
-0.014561433 0.755 -0.0198565 1.1408435e-38 309 255
-0.013237666 0.755 -0.0198565 1.1408798e-38 310 255
-0.011913899 0.755 -0.0198565 1.1316602e-38 311 255
-0.010590133 0.755 -0.0198565 1.1041097e-38 312 255
-0.0092663663 0.755 -0.0198565 1.0856345e-38 313 255
-0.0079425992 0.755 -0.0198565 1.0580119e-38 314 255
-0.0066188332 0.755 -0.0198565 1.0395727e-38 315 255
-0.0052950666 0.755 -0.0198565 1.0120936e-38 316 255
-0.0039712996 0.755 -0.0198565 1.0028381e-38 317 255
-0.0026475333 0.755 -0.0198565 9.6606791e-39 318 255
-0.0013237667 0.755 -0.0198565 9.291898e-39 319 255
0 0.755 -0.0198565 9.3823084e-39 320 255
0.0013272733 0.75700003 -0.019909101 9.1060802e-39 321 255
0.0026545466 0.75700003 -0.019909101 8.7383865e-39 322 255
0.0039818203 0.75700003 -0.019909101 8.7383865e-39 323 255
0.0053090933 0.75700003 -0.019909101 8.3724809e-39 324 255
0.0066538998 0.759 -0.0199617 8.3724809e-39 325 255
0.0080057196 0.76099998 -0.020014299 8.648709e-39 326 255
0.0093400059 0.76099998 -0.020014299 8.5565134e-39 327 255
0.01068832 0.76200002 -0.0200406 8.5565134e-39 328 255
0.01202436 0.76200002 -0.0200406 8.3724809e-39 329 255
0.0133604 0.76200002 -0.0200406 8.0951849e-39 330 255
0.014735013 0.764 -0.020093199 7.9107937e-39 331 255
0.016074561 0.764 -0.020093199 7.4516176e-39 332 255
0.017414106 0.764 -0.020093199 7.5438132e-39 333 255
0.018802745 0.76599997 -0.020145798 7.4541371e-39 334 255
0.020145798 0.76599997 -0.020145798 7.8225609e-39 335 255
0.021516906 0.76700002 -0.020172099 7.7328946e-39 336 255
0.022861714 0.76700002 -0.020172099 8.2860684e-39 337 255
0.024206521 0.76700002 -0.020172099 8.9314532e-39 338 255
0.025551327 0.76700002 -0.020172099 1.2434889e-38 339 255
-0.045961879 0.77100003 -0.021629119 1.6320074e-38 286 256
-0.044494338 0.76899999 -0.021573013 1.4660194e-38 287 256
-0.043146025 0.76899999 -0.021573013 1.455788e-38 288 256
-0.041797712 0.76899999 -0.021573013 1.2068958e-38 289 256
-0.0404494 0.76899999 -0.021573013 1.3444647e-38 290 256
-0.039101087 0.76899999 -0.021573013 1.3075505e-38 291 256
-0.03775277 0.76899999 -0.021573013 1.2890379e-38 292 256
-0.036309779 0.76700002 -0.021516906 1.2337205e-38 293 256
-0.034964975 0.76700002 -0.021516906 1.2518002e-38 294 256
-0.033620168 0.76700002 -0.021516906 1.1964829e-38 295 256
-0.032149121 0.764 -0.021432746 1.1962678e-38 296 256
-0.030688593 0.76099998 -0.021348584 1.1593895e-38 297 256
-0.029277159 0.759 -0.02129248 1.1593545e-38 298 256
-0.027946379 0.759 -0.02129248 1.1501349e-38 299 256
-0.026545467 0.75700003 -0.021236373 1.1408082e-38 300 256
-0.025218192 0.75700003 -0.021236373 1.122369e-38 301 256
-0.023827799 0.755 -0.021180267 1.131445e-38 302 256
-0.022504034 0.755 -0.021180267 1.1407005e-38 303 256
-0.021236373 0.75700003 -0.021236373 1.1223687e-38 304 256
-0.019909101 0.75700003 -0.021236373 1.1408079e-38 305 256
-0.018532733 0.755 -0.021180267 1.1408432e-38 306 256
-0.017208965 0.755 -0.021180267 1.1316236e-38 307 256
-0.015885198 0.755 -0.021180267 1.1132211e-38 308 256
-0.014561433 0.755 -0.021180267 1.1132211e-38 309 256
-0.013237666 0.755 -0.021180267 1.0949264e-38 310 256
-0.011913899 0.755 -0.021180267 1.0765233e-38 311 256
-0.010590133 0.755 -0.021180267 1.0855992e-38 312 256
-0.0092663663 0.755 -0.021180267 1.0579766e-38 313 256
-0.0079425992 0.755 -0.021180267 1.0303542e-38 314 256
-0.0066188332 0.755 -0.021180267 1.011951e-38 315 256
-0.0052950666 0.755 -0.021180267 9.7532391e-39 316 256
-0.0039712996 0.755 -0.021180267 9.4770109e-39 317 256
-0.0026475333 0.755 -0.021180267 9.2000709e-39 318 256
-0.0013237667 0.755 -0.021180267 8.9234854e-39 319 256
0 0.755 -0.021180267 8.7383865e-39 320 256
0.0013272733 0.75700003 -0.021236373 8.7383865e-39 321 256
0.0026545466 0.75700003 -0.021236373 8.4628814e-39 322 256
0.0039818203 0.75700003 -0.021236373 8.4628814e-39 323 256
0.0053090933 0.75700003 -0.021236373 8.280288e-39 324 256
0.0066538998 0.759 -0.02129248 8.280288e-39 325 256
0.0080057196 0.76099998 -0.021348584 8.3724809e-39 326 256
0.0093400059 0.76099998 -0.021348584 8.2802852e-39 327 256
0.01068832 0.76200002 -0.02137664 8.4632444e-39 328 256
0.01202436 0.76200002 -0.02137664 8.3710487e-39 329 256
0.013395466 0.764 -0.021432746 8.0029921e-39 330 256
0.014735013 0.764 -0.021432746 7.9107965e-39 331 256
0.016074561 0.764 -0.021432746 7.5438132e-39 332 256
0.017459691 0.76599997 -0.021488851 7.8203987e-39 333 256
0.018827293 0.76700002 -0.021516906 7.5466999e-39 334 256
0.020172099 0.76700002 -0.021516906 8.0076766e-39 335 256
0.021516906 0.76700002 -0.021516906 7.8261763e-39 336 256
0.022861714 0.76700002 -0.021516906 8.6562957e-39 337 256
0.024206521 0.76700002 -0.021516906 9.6693854e-39 338 256
-0.044320758 0.76599997 -0.022831906 1.4845307e-38 287 257
-0.042977702 0.76599997 -0.022831906 1.4836638e-38 288 257
-0.041797712 0.76899999 -0.022921326 1.2623942e-38 289 257
-0.0404494 0.76899999 -0.022921326 1.3630125e-38 290 257
-0.039101087 0.76899999 -0.022921326 1.2984755e-38 291 257
-0.03775277 0.76899999 -0.022921326 1.3074768e-38 292 257
-0.036404461 0.76899999 -0.022921326 1.2337203e-38 293 257
-0.034964975 0.76700002 -0.022861714 1.2518002e-38 294 257
-0.033620168 0.76700002 -0.022861714 1.1872633e-38 295 257
-0.032149121 0.764 -0.022772292 1.1686461e-38 296 257
-0.030688593 0.76099998 -0.022682872 1.1502068e-38 297 257
-0.029354304 0.76099998 -0.022682872 1.1225485e-38 298 257
-0.027946379 0.759 -0.02262326 1.1041094e-38 299 257
-0.026615599 0.759 -0.02262326 1.1131493e-38 300 257
-0.025284819 0.759 -0.02262326 1.0762712e-38 301 257
-0.02389092 0.75700003 -0.022563647 1.0578687e-38 302 257
-0.022563647 0.75700003 -0.022563647 1.0670882e-38 303 257
-0.021236373 0.75700003 -0.022563647 1.0488292e-38 304 257
-0.019909101 0.75700003 -0.022563647 1.0580487e-38 305 257
-0.018581826 0.75700003 -0.022563647 1.0673036e-38 306 257
-0.017254554 0.75700003 -0.022563647 1.0580482e-38 307 257
-0.015885198 0.755 -0.022504034 1.0304977e-38 308 257
-0.014561433 0.755 -0.022504034 1.0397172e-38 309 257
-0.013237666 0.755 -0.022504034 1.0213147e-38 310 257
-0.011913899 0.755 -0.022504034 1.0305342e-38 311 257
-0.010590133 0.755 -0.022504034 1.039574e-38 312 257
-0.0092663663 0.755 -0.022504034 1.0119513e-38 313 257
-0.0079425992 0.755 -0.022504034 1.0026962e-38 314 257
-0.0066188332 0.755 -0.022504034 9.9347647e-39 315 257
-0.0052950666 0.755 -0.022504034 9.5674213e-39 316 257
-0.0039712996 0.755 -0.022504034 9.2911946e-39 317 257
-0.0026475333 0.755 -0.022504034 9.1068033e-39 318 257
-0.0013237667 0.755 -0.022504034 8.8298563e-39 319 257
0 0.755 -0.022504034 8.4628758e-39 320 257
0.0013272733 0.75700003 -0.022563647 8.5554302e-39 321 257
0.0026545466 0.75700003 -0.022563647 8.280288e-39 322 257
0.0039923396 0.759 -0.02262326 8.1877337e-39 323 257
0.0053231199 0.759 -0.02262326 8.0966128e-39 324 257
0.0066714329 0.76099998 -0.022682872 8.1888085e-39 325 257
0.0080057196 0.76099998 -0.022682872 8.2802852e-39 326 257
0.0093522798 0.76200002 -0.02271268 8.1880896e-39 327 257
0.01068832 0.76200002 -0.02271268 8.2785e-39 328 257
0.01202436 0.76200002 -0.02271268 8.0944689e-39 329 257
0.013395466 0.764 -0.022772292 7.544179e-39 330 257
0.014735013 0.764 -0.022772292 7.544179e-39 331 257
0.016116638 0.76599997 -0.022831906 7.3615856e-39 332 257
0.017482487 0.76700002 -0.022861714 7.6385326e-39 333 257
0.018827293 0.76700002 -0.022861714 7.5485006e-39 334 257
0.020172099 0.76700002 -0.022861714 8.0094787e-39 335 257
0.021516906 0.76700002 -0.022861714 8.1034862e-39 336 257
0.022921326 0.76899999 -0.022921326 8.8410513e-39 337 257
-0.042977702 0.76599997 -0.024174958 1.4655495e-38 288 258
-0.041634649 0.76599997 -0.024174958 1.3180365e-38 289 258
-0.040554602 0.77100003 -0.02433276 1.4091481e-38 290 258
-0.03920278 0.77100003 -0.02433276 1.3169165e-38 291 258
-0.03775277 0.76899999 -0.024269639 1.2982943e-38 292 258
-0.036404461 0.76899999 -0.024269639 1.2521965e-38 293 258
-0.034964975 0.76700002 -0.024206521 1.2152108e-38 294 258
-0.033620168 0.76700002 -0.024206521 1.1414541e-38 295 258
-0.032233275 0.76599997 -0.024174958 1.1503151e-38 296 258
-0.030688593 0.76099998 -0.024017159 1.1134009e-38 297 258
-0.029354304 0.76099998 -0.024017159 1.1041463e-38 298 258
-0.027946379 0.759 -0.023954039 1.067268e-38 299 258
-0.026615599 0.759 -0.023954039 1.0488289e-38 300 258
-0.025284819 0.759 -0.023954039 1.0119508e-38 301 258
-0.02389092 0.75700003 -0.02389092 9.9358381e-39 302 258
-0.022563647 0.75700003 -0.02389092 9.9358381e-39 303 258
-0.021236373 0.75700003 -0.02389092 9.7514524e-39 304 258
-0.019909101 0.75700003 -0.02389092 9.935485e-39 305 258
-0.018581826 0.75700003 -0.02389092 1.0210274e-38 306 258
-0.017254554 0.75700003 -0.02389092 1.030247e-38 307 258
-0.015927281 0.75700003 -0.02389092 1.011808e-38 308 258
-0.014561433 0.755 -0.023827799 1.011808e-38 309 258
-0.013237666 0.755 -0.023827799 1.0027683e-38 310 258
-0.011913899 0.755 -0.023827799 1.0119879e-38 311 258
-0.010590133 0.755 -0.023827799 1.0120232e-38 312 258
-0.0092663663 0.755 -0.023827799 9.9354822e-39 313 258
-0.0079425992 0.755 -0.023827799 9.659254e-39 314 258
-0.0066188332 0.755 -0.023827799 9.5670584e-39 315 258
-0.0052950666 0.755 -0.023827799 9.2911946e-39 316 258
-0.0039712996 0.755 -0.023827799 9.1989989e-39 317 258
-0.0026475333 0.755 -0.023827799 8.8309409e-39 318 258
-0.0013272733 0.75700003 -0.02389092 8.6461909e-39 319 258
0 0.75700003 -0.02389092 8.2799321e-39 320 258
0.0013272733 0.75700003 -0.02389092 8.0955409e-39 321 258
0.0026545466 0.75700003 -0.02389092 8.095538e-39 322 258
0.0039923396 0.759 -0.023954039 8.095538e-39 323 258
0.0053371461 0.76099998 -0.024017159 7.8207462e-39 324 258
0.0066714329 0.76099998 -0.024017159 7.9129419e-39 325 258
0.0080162399 0.76200002 -0.02404872 8.095538e-39 326 258
0.0093522798 0.76200002 -0.02404872 8.095538e-39 327 258
0.01068832 0.76200002 -0.02404872 7.8196798e-39 328 258
0.01205592 0.764 -0.024111839 7.7271255e-39 329 258
0.013430533 0.76599997 -0.024174958 7.0860805e-39 330 258
0.014773586 0.76599997 -0.024174958 7.1782761e-39 331 258
0.016116638 0.76599997 -0.024174958 7.4545057e-39 332 258
0.017482487 0.76700002 -0.024206521 7.8232896e-39 333 258
0.018827293 0.76700002 -0.024206521 7.9169243e-39 334 258
0.020172099 0.76700002 -0.024206521 8.3782612e-39 335 258
0.021516906 0.76700002 -0.024206521 8.380429e-39 336 258
0.022861714 0.76700002 -0.024206521 9.0257984e-39 337 258
-0.0406598 0.773 -0.025751207 1.4186213e-38 290 259
-0.039101087 0.76899999 -0.025617953 1.3079866e-38 291 259
-0.03775277 0.76899999 -0.025617953 1.2983683e-38 292 259
-0.036404461 0.76899999 -0.025617953 1.2430868e-38 293 259
-0.034964975 0.76700002 -0.025551327 1.2335775e-38 294 259
-0.033620168 0.76700002 -0.025551327 1.1782602e-38 295 259
-0.032233275 0.76599997 -0.025518013 1.168717e-38 296 259
-0.030809574 0.764 -0.025451386 1.1410223e-38 297 259
-0.029354304 0.76099998 -0.025351444 1.0765949e-38 298 259
-0.028020019 0.76099998 -0.025351444 1.0397525e-38 299 259
-0.026615599 0.759 -0.025284819 1.039609e-38 300 259
-0.025284819 0.759 -0.025284819 1.0119864e-38 301 259
-0.023954039 0.759 -0.025284819 9.4766606e-39 302 259
-0.022563647 0.75700003 -0.025218192 9.2919106e-39 303 259
-0.021236373 0.75700003 -0.025218192 9.1068187e-39 304 259
-0.019909101 0.75700003 -0.025218192 9.1990143e-39 305 259
-0.018581826 0.75700003 -0.025218192 9.0149958e-39 306 259
-0.017254554 0.75700003 -0.025218192 8.9228002e-39 307 259
-0.015927281 0.75700003 -0.025218192 8.9227974e-39 308 259
-0.014561433 0.755 -0.025151566 8.9227974e-39 309 259
-0.013237666 0.755 -0.025151566 9.0164181e-39 310 259
-0.011913899 0.755 -0.025151566 9.2008094e-39 311 259
-0.010590133 0.755 -0.025151566 9.5688605e-39 312 259
-0.0092663663 0.755 -0.025151566 9.3841091e-39 313 259
-0.0079425992 0.755 -0.025151566 9.8429222e-39 314 259
-0.0066188332 0.755 -0.025151566 9.7503678e-39 315 259
-0.0052950666 0.755 -0.025151566 9.2911918e-39 316 259
-0.0039712996 0.755 -0.025151566 9.1989961e-39 317 259
-0.0026475333 0.755 -0.025151566 8.8316555e-39 318 259
-0.0013272733 0.75700003 -0.025218192 8.5554274e-39 319 259
0 0.75700003 -0.025218192 8.2781342e-39 320 259
0.0013272733 0.75700003 -0.025218192 8.2781342e-39 321 259
0.0026545466 0.75700003 -0.025218192 7.4516204e-39 322 259
0.0039923396 0.759 -0.025284819 7.4516204e-39 323 259
0.0053231199 0.759 -0.025284819 7.4523364e-39 324 259
0.0066714329 0.76099998 -0.025351444 7.5445321e-39 325 259
0.0080162399 0.76200002 -0.02538476 7.5441691e-39 326 259
0.0093522798 0.76200002 -0.02538476 7.7282003e-39 327 259
0.010716373 0.764 -0.025451386 7.5445349e-39 328 259
0.012087479 0.76599997 -0.025518013 7.5445349e-39 329 259
0.013430533 0.76599997 -0.025518013 7.1779202e-39 330 259
0.014792874 0.76700002 -0.025551327 7.4545057e-39 331 259
0.01613768 0.76700002 -0.025551327 7.4563049e-39 332 259
0.017482487 0.76700002 -0.025551327 7.6406962e-39 333 259
0.018876385 0.76899999 -0.025617953 8.2860684e-39 334 259
0.020172099 0.76700002 -0.025551327 8.7466878e-39 335 259
0.021516906 0.76700002 -0.025551327 8.6566614e-39 336 259
-0.0406598 0.773 -0.027106533 1.4188751e-38 290 260
-0.039101087 0.76899999 -0.026966266 1.3174598e-38 291 260
-0.03775277 0.76899999 -0.026966266 1.3260647e-38 292 260
-0.036404461 0.76899999 -0.026966266 1.2615278e-38 293 260
-0.034964975 0.76700002 -0.026896132 1.2062802e-38 294 260
-0.033620168 0.76700002 -0.026896132 1.1325237e-38 295 260
-0.03227536 0.76700002 -0.026896132 1.1414191e-38 296 260
-0.030890226 0.76599997 -0.026861066 1.0861019e-38 297 260
-0.029354304 0.76099998 -0.026685731 1.0583358e-38 298 260
-0.028020019 0.76099998 -0.026685731 1.0398609e-38 299 260
-0.026685731 0.76099998 -0.026685731 9.8454403e-39 300 260
-0.025284819 0.759 -0.026615599 9.5688548e-39 301 260
-0.023954039 0.759 -0.026615599 9.2919162e-39 302 260
-0.02262326 0.759 -0.026615599 9.1071662e-39 303 260
-0.02129248 0.759 -0.026615599 8.9213485e-39 304 260
-0.0199617 0.759 -0.026615599 8.8291528e-39 305 260
-0.01863092 0.759 -0.026615599 8.9213513e-39 306 260
-0.017300138 0.759 -0.026615599 8.9213513e-39 307 260
-0.015969358 0.759 -0.026615599 8.6447686e-39 308 260
-0.014638579 0.759 -0.026615599 8.8291584e-39 309 260
-0.0133078 0.759 -0.026615599 8.9227876e-39 310 260
-0.01194546 0.75700003 -0.026545467 9.1990143e-39 311 260
-0.010590133 0.755 -0.026475333 9.3841091e-39 312 260
-0.0092663663 0.755 -0.026475333 9.4763047e-39 313 260
-0.0079425992 0.755 -0.026475333 9.3844622e-39 314 260
-0.0066188332 0.755 -0.026475333 9.2922666e-39 315 260
-0.0053090933 0.75700003 -0.026545467 9.0164027e-39 316 260
-0.0039818203 0.75700003 -0.026545467 8.8320115e-39 317 260
-0.0026545466 0.75700003 -0.026545467 8.7394613e-39 318 260
-0.00133078 0.759 -0.026615599 8.3706802e-39 319 260
0 0.759 -0.026615599 8.0944689e-39 320 260
0.00133078 0.759 -0.026615599 7.8178806e-39 321 260
0.00266156 0.759 -0.026615599 7.5423797e-39 322 260
0.0039923396 0.759 -0.026615599 7.4501841e-39 323 260
0.0053231199 0.759 -0.026615599 7.5427356e-39 324 260
0.0066714329 0.76099998 -0.026685731 7.6349326e-39 325 260
0.0080162399 0.76200002 -0.0267208 7.5445349e-39 326 260
0.0093522798 0.76200002 -0.0267208 7.5445349e-39 327 260
0.010716373 0.764 -0.026790932 7.3615856e-39 328 260
0.012087479 0.76599997 -0.026861066 7.3615856e-39 329 260
0.013430533 0.76599997 -0.026861066 7.2708347e-39 330 260
0.014792874 0.76700002 -0.026896132 7.6396172e-39 331 260
0.01613768 0.76700002 -0.026896132 7.4581028e-39 332 260
0.017482487 0.76700002 -0.026896132 8.0112766e-39 333 260
0.018876385 0.76899999 -0.026966266 8.3789843e-39 334 260
0.0202247 0.76899999 -0.026966266 8.8396023e-39 335 260
0.021573013 0.76899999 -0.026966266 8.6566586e-39 336 260
-0.039101087 0.76899999 -0.028314579 1.2901981e-38 291 261
-0.03775277 0.76899999 -0.028314579 1.307951e-38 292 261
-0.036404461 0.76899999 -0.028314579 1.2341945e-38 293 261
-0.03514732 0.77100003 -0.028388219 1.2613815e-38 294 261
-0.033707831 0.76899999 -0.028314579 1.2060641e-38 295 261
-0.03227536 0.76700002 -0.02824094 1.1782235e-38 296 261
-0.030890226 0.76599997 -0.028204117 1.1321258e-38 297 261
-0.029470026 0.764 -0.028130481 1.1226557e-38 298 261
-0.028056841 0.76200002 -0.028056841 1.0765581e-38 299 261
-0.026685731 0.76099998 -0.028020019 1.0580122e-38 300 261
-0.025284819 0.759 -0.027946379 1.0210979e-38 301 261
-0.023954039 0.759 -0.027946379 9.4752285e-39 302 261
-0.02262326 0.759 -0.027946379 9.1064474e-39 303 261
-0.02129248 0.759 -0.027946379 8.8291528e-39 304 261
-0.020014299 0.76099998 -0.028020019 8.8291528e-39 305 261
-0.018680012 0.76099998 -0.028020019 8.4625311e-39 306 261
-0.017345725 0.76099998 -0.028020019 8.4625311e-39 307 261
-0.015969358 0.759 -0.027946379 8.3706984e-39 308 261
-0.014638579 0.759 -0.027946379 8.462894e-39 309 261
-0.0133078 0.759 -0.027946379 8.6479958e-39 310 261
-0.01197702 0.759 -0.027946379 9.0164181e-39 311 261
-0.010590133 0.755 -0.027799098 9.1085984e-39 312 261
-0.0092663663 0.755 -0.027799098 9.3851839e-39 313 261
-0.0079425992 0.755 -0.027799098 9.3844622e-39 314 261
-0.0066188332 0.755 -0.027799098 9.1078753e-39 315 261
-0.0053090933 0.75700003 -0.027872739 8.7394613e-39 316 261
-0.0039818203 0.75700003 -0.027872739 8.4628758e-39 317 261
-0.00266156 0.759 -0.027946379 8.0029893e-39 318 261
-0.00133078 0.759 -0.027946379 7.9107937e-39 319 261
0 0.759 -0.027946379 7.3590674e-39 320 261
0.00133078 0.759 -0.027946379 7.3590674e-39 321 261
0.00266156 0.759 -0.027946379 6.7162218e-39 322 261
0.0039923396 0.759 -0.027946379 6.7162218e-39 323 261
0.0053231199 0.759 -0.027946379 6.7165819e-39 324 261
0.0066714329 0.76099998 -0.028020019 6.9013333e-39 325 261
0.0080162399 0.76200002 -0.028056841 6.9935261e-39 326 261
0.0093768267 0.764 -0.028130481 7.1782761e-39 327 261
0.010716373 0.764 -0.028130481 7.3615884e-39 328 261
0.012087479 0.76599997 -0.028204117 7.453784e-39 329 261
0.013448066 0.76700002 -0.02824094 7.3641093e-39 330 261
0.014792874 0.76700002 -0.02824094 7.6406962e-39 331 261
0.01613768 0.76700002 -0.02824094 8.1023904e-39 332 261
0.017482487 0.76700002 -0.02824094 8.2867817e-39 333 261
0.018876385 0.76899999 -0.028314579 8.2885865e-39 334 261
0.0202247 0.76899999 -0.028314579 8.5648133e-39 335 261
0.021573013 0.76899999 -0.028314579 8.1978483e-39 336 261
-0.037949149 0.773 -0.029817186 1.2898368e-38 292 262
-0.036593821 0.773 -0.029817186 1.2160803e-38 293 262
-0.035238493 0.773 -0.029817186 1.2798943e-38 294 262
-0.033883166 0.773 -0.029817186 1.2245769e-38 295 262
-0.032359518 0.76899999 -0.02966289 1.187589e-38 296 262
-0.030930554 0.76700002 -0.029585747 1.123052e-38 297 262
-0.029547172 0.76599997 -0.029547172 1.1228003e-38 298 262
-0.028130481 0.764 -0.029470026 1.085922e-38 299 262
-0.026790932 0.764 -0.029470026 1.0581201e-38 300 262
-0.025351444 0.76099998 -0.029354304 1.0212778e-38 301 262
-0.023954039 0.759 -0.029277159 9.4766606e-39 302 262
-0.02262326 0.759 -0.029277159 9.199715e-39 303 262
-0.02129248 0.759 -0.029277159 8.8316583e-39 304 262
-0.020014299 0.76099998 -0.029354304 8.7394613e-39 305 262
-0.018680012 0.76099998 -0.029354304 8.5568693e-39 306 262
-0.017345725 0.76099998 -0.029354304 8.3724781e-39 307 262
-0.016011439 0.76099998 -0.029354304 8.2810041e-39 308 262
-0.014638579 0.759 -0.029277159 8.4653968e-39 309 262
-0.0133078 0.759 -0.029277159 9.0167685e-39 310 262
-0.01197702 0.759 -0.029277159 9.1089641e-39 311 262
-0.01064624 0.759 -0.029277159 9.2018688e-39 312 262
-0.00931546 0.759 -0.029277159 9.2018688e-39 313 262
-0.0079846792 0.759 -0.029277159 9.0164055e-39 314 262
-0.0066538998 0.759 -0.029277159 8.7394585e-39 315 262
-0.0053231199 0.759 -0.029277159 8.3703299e-39 316 262
-0.0039923396 0.759 -0.029277159 8.0937416e-39 317 262
-0.00266156 0.759 -0.029277159 7.8178806e-39 318 262
-0.00133078 0.759 -0.029277159 7.8178806e-39 319 262
0 0.759 -0.029277159 7.0835595e-39 320 262
0.00133078 0.759 -0.029277159 6.9913639e-39 321 262
0.0026685731 0.76099998 -0.029354304 6.7162218e-39 322 262
0.0040028598 0.76099998 -0.029354304 6.7162218e-39 323 262
0.0053371461 0.76099998 -0.029354304 6.7165819e-39 324 262
0.0066801999 0.76200002 -0.029392879 6.9935289e-39 325 262
0.0080162399 0.76200002 -0.029392879 7.0864462e-39 326 262
0.0093768267 0.764 -0.029470026 7.0864462e-39 327 262
0.010716373 0.764 -0.029470026 7.361601e-39 328 262
0.012087479 0.76599997 -0.029547172 7.638548e-39 329 262
0.013448066 0.76700002 -0.029585747 7.3655568e-39 330 262
0.014792874 0.76700002 -0.029585747 7.5499495e-39 331 262
0.01613768 0.76700002 -0.029585747 8.0109262e-39 332 262
0.017482487 0.76700002 -0.029585747 8.1953189e-39 333 262
0.018876385 0.76899999 -0.02966289 8.1964035e-39 334 262
0.0202247 0.76899999 -0.02966289 8.2885991e-39 335 262
-0.036641158 0.77399999 -0.031212838 1.1978575e-38 293 263
-0.035238493 0.773 -0.03117251 1.2892585e-38 294 263
-0.033883166 0.773 -0.03117251 1.2247215e-38 295 263
-0.032443684 0.77100003 -0.031091858 1.2060641e-38 296 263
-0.030930554 0.76700002 -0.030930554 1.1599303e-38 297 263
-0.029547172 0.76599997 -0.030890226 1.1413472e-38 298 263
-0.028204117 0.76599997 -0.030890226 1.1044331e-38 299 263
-0.026790932 0.764 -0.030809574 1.0674832e-38 300 263
-0.025451386 0.764 -0.030809574 1.0398244e-38 301 263
-0.024017159 0.76099998 -0.030688593 9.6621253e-39 302 263
-0.022682872 0.76099998 -0.030688593 9.477734e-39 303 263
-0.021348584 0.76099998 -0.030688593 8.926005e-39 304 263
-0.0200406 0.76200002 -0.030728921 8.7416137e-39 305 263
-0.018680012 0.76099998 -0.030688593 8.5579455e-39 306 263
-0.017345725 0.76099998 -0.030688593 8.3735543e-39 307 263
-0.016011439 0.76099998 -0.030688593 8.649065e-39 308 263
-0.014677152 0.76099998 -0.030688593 8.7412606e-39 309 263
-0.013342866 0.76099998 -0.030688593 9.1093172e-39 310 263
-0.01197702 0.759 -0.030607941 9.2015129e-39 311 263
-0.01064624 0.759 -0.030607941 9.2011499e-39 312 263
-0.00931546 0.759 -0.030607941 9.2011499e-39 313 263
-0.0079846792 0.759 -0.030607941 8.8316583e-39 314 263
-0.0066538998 0.759 -0.030607941 8.4628758e-39 315 263
-0.0053371461 0.76099998 -0.030688593 7.9107965e-39 316 263
-0.0040028598 0.76099998 -0.030688593 7.6342096e-39 317 263
-0.0026685731 0.76099998 -0.030688593 7.3601436e-39 318 263
-0.0013342865 0.76099998 -0.030688593 7.2675879e-39 319 263
0 0.76099998 -0.030688593 6.9009661e-39 320 263
0.0013342865 0.76099998 -0.030688593 6.8084118e-39 321 263
0.0026685731 0.76099998 -0.030688593 6.6258212e-39 322 263
0.0040081199 0.76200002 -0.030728921 6.6258212e-39 323 263
0.0053441599 0.76200002 -0.030728921 6.7180182e-39 324 263
0.0066801999 0.76200002 -0.030728921 7.0867993e-39 325 263
0.0080372803 0.764 -0.030809574 7.1793607e-39 326 263
0.0093768267 0.764 -0.030809574 7.1793607e-39 327 263
0.010744425 0.76599997 -0.030890226 7.2715605e-39 328 263
0.012087479 0.76599997 -0.030890226 7.5481474e-39 329 263
0.013448066 0.76700002 -0.030930554 7.3662757e-39 330 263
0.014792874 0.76700002 -0.030930554 7.5506684e-39 331 263
0.01613768 0.76700002 -0.030930554 8.0102172e-39 332 263
0.017482487 0.76700002 -0.030930554 8.1027716e-39 333 263
0.018876385 0.76899999 -0.031011207 7.8279937e-39 334 263
-0.035056144 0.76899999 -0.032359518 1.2434493e-38 294 264
-0.033707831 0.76899999 -0.032359518 1.188132e-38 295 264
-0.032359518 0.76899999 -0.032359518 1.224612e-38 296 264
-0.030930554 0.76700002 -0.03227536 1.1692947e-38 297 264
-0.029585747 0.76700002 -0.03227536 1.1690782e-38 298 264
-0.028204117 0.76599997 -0.032233275 1.132164e-38 299 264
-0.026861066 0.76599997 -0.032233275 1.1044331e-38 300 264
-0.025451386 0.764 -0.032149121 1.0675907e-38 301 264
-0.02404872 0.76200002 -0.032064959 1.0215293e-38 302 264
-0.022682872 0.76099998 -0.032022879 9.8468697e-39 303 264
-0.021348584 0.76099998 -0.032022879 9.2947819e-39 304 264
-0.0200406 0.76200002 -0.032064959 9.0185537e-39 305 264
-0.01870456 0.76200002 -0.032064959 8.8345282e-39 306 264
-0.01736852 0.76200002 -0.032064959 8.5583015e-39 307 264
-0.016011439 0.76099998 -0.032022879 8.7412578e-39 308 264
-0.014677152 0.76099998 -0.032022879 8.8334534e-39 309 264
-0.013342866 0.76099998 -0.032022879 8.9260078e-39 310 264
-0.012008579 0.76099998 -0.032022879 8.9260078e-39 311 264
-0.010674292 0.76099998 -0.032022879 9.10932e-39 312 264
-0.00931546 0.759 -0.031938717 8.9249288e-39 313 264
-0.0079846792 0.759 -0.031938717 8.55544e-39 314 264
-0.0066714329 0.76099998 -0.032022879 8.2788531e-39 315 264
-0.0053371461 0.76099998 -0.032022879 7.543816e-39 316 264
-0.0040028598 0.76099998 -0.032022879 7.543816e-39 317 264
-0.0026685731 0.76099998 -0.032022879 7.1771915e-39 318 264
-0.0013342865 0.76099998 -0.032022879 7.1771915e-39 319 264
0 0.76200002 -0.032064959 6.993882e-39 320 264
0.00133604 0.76200002 -0.032064959 6.9016864e-39 321 264
0.00267208 0.76200002 -0.032064959 6.8105698e-39 322 264
0.0040081199 0.76200002 -0.032064959 6.8105698e-39 323 264
0.0053441599 0.76200002 -0.032064959 7.1789922e-39 324 264
0.006697733 0.764 -0.032149121 7.3633848e-39 325 264
0.0080372803 0.764 -0.032149121 7.6388955e-39 326 264
0.0093768267 0.764 -0.032149121 7.7314499e-39 327 264
0.010758453 0.76700002 -0.03227536 7.4566679e-39 328 264
0.012134819 0.76899999 -0.032359518 7.6414179e-39 329 264
0.013483133 0.76899999 -0.032359518 7.5506684e-39 330 264
0.014792874 0.76700002 -0.03227536 7.5506684e-39 331 264
0.01613768 0.76700002 -0.03227536 7.7343562e-39 332 264
0.017482487 0.76700002 -0.03227536 7.9183873e-39 333 264
-0.034964975 0.76700002 -0.033620168 1.2251917e-38 294 265
-0.033620168 0.76700002 -0.033620168 1.1790939e-38 295 265
-0.032359518 0.76899999 -0.033707831 1.2247937e-38 296 265
-0.030930554 0.76700002 -0.033620168 1.1694763e-38 297 265
-0.029547172 0.76599997 -0.033576332 1.1600045e-38 298 265
-0.028204117 0.76599997 -0.033576332 1.1415653e-38 299 265
-0.026861066 0.76599997 -0.033576332 1.1137624e-38 300 265
-0.025518013 0.76599997 -0.033576332 1.0953233e-38 301 265
-0.024111839 0.764 -0.033488665 1.0492254e-38 302 265
-0.022772292 0.764 -0.033488665 1.0215309e-38 303 265
-0.02137664 0.76200002 -0.033401001 9.3884279e-39 304 265
-0.0200406 0.76200002 -0.033401001 9.111841e-39 305 265
-0.018753653 0.764 -0.033488665 8.7437815e-39 306 265
-0.01736852 0.76200002 -0.033401001 8.4671946e-39 307 265
-0.016011439 0.76099998 -0.033357166 8.8341779e-39 308 265
-0.014677152 0.76099998 -0.033357166 8.8341779e-39 309 265
-0.013342866 0.76099998 -0.033357166 8.8341751e-39 310 265
-0.012008579 0.76099998 -0.033357166 8.8341751e-39 311 265
-0.010674292 0.76099998 -0.033357166 8.7412634e-39 312 265
-0.00931546 0.759 -0.033269498 8.648709e-39 313 265
-0.0079846792 0.759 -0.033269498 8.188105e-39 314 265
-0.0066714329 0.76099998 -0.033357166 7.8193239e-39 315 265
-0.0053371461 0.76099998 -0.033357166 7.3597905e-39 316 265
-0.0040028598 0.76099998 -0.033357166 7.5441818e-39 317 265
-0.00267208 0.76200002 -0.033401001 7.0857245e-39 318 265
-0.00133604 0.76200002 -0.033401001 7.0857245e-39 319 265
0 0.76200002 -0.033401001 6.9942478e-39 320 265
0.00133604 0.76200002 -0.033401001 7.0864434e-39 321 265
0.0026790933 0.764 -0.033488665 6.995324e-39 322 265
0.0040186401 0.764 -0.033488665 7.2719109e-39 323 265
0.0053581866 0.764 -0.033488665 7.4559392e-39 324 265
0.0067152665 0.76599997 -0.033576332 7.7321659e-39 325 265
0.00806884 0.76700002 -0.033620168 8.0076766e-39 326 265
0.0094136465 0.76700002 -0.033620168 8.0998723e-39 327 265
0.010786506 0.76899999 -0.033707831 7.4577497e-39 328 265
0.01216638 0.77100003 -0.033795502 7.5499467e-39 329 265
0.013518199 0.77100003 -0.033795502 7.5495964e-39 330 265
0.01487002 0.77100003 -0.033795502 7.7336275e-39 331 265
-0.033620168 0.76700002 -0.034964975 1.1242793e-38 295 266
-0.032443684 0.77100003 -0.03514732 1.2066774e-38 296 266
-0.030930554 0.76700002 -0.034964975 1.1605436e-38 297 266
-0.029547172 0.76599997 -0.034919381 1.2061726e-38 298 266
-0.028204117 0.76599997 -0.034919381 1.1600747e-38 299 266
-0.026861066 0.76599997 -0.034919381 1.1690779e-38 300 266
-0.025518013 0.76599997 -0.034919381 1.1321637e-38 301 266
-0.024111839 0.764 -0.034828212 1.1136527e-38 302 266
-0.022772292 0.764 -0.034828212 1.0768103e-38 303 266
-0.021432746 0.764 -0.034828212 1.0216012e-38 304 266
-0.020093199 0.764 -0.034828212 9.9397842e-39 305 266
-0.018753653 0.764 -0.034828212 9.3880523e-39 306 266
-0.017414106 0.764 -0.034828212 9.1118256e-39 307 266
-0.016074561 0.764 -0.034828212 8.8356086e-39 308 266
-0.01469644 0.76200002 -0.034737039 8.8356086e-39 309 266
-0.0133604 0.76200002 -0.034737039 9.0182034e-39 310 266
-0.01202436 0.76200002 -0.034737039 8.8334534e-39 311 266
-0.01068832 0.76200002 -0.034737039 8.7405445e-39 312 266
-0.0093522798 0.76200002 -0.034737039 8.6479902e-39 313 266
-0.0080162399 0.76200002 -0.034737039 8.1881022e-39 314 266
-0.0066801999 0.76200002 -0.034737039 7.9118755e-39 315 266
-0.0053441599 0.76200002 -0.034737039 7.5449034e-39 316 266
-0.0040081199 0.76200002 -0.034737039 7.3608723e-39 317 266
-0.0026790933 0.764 -0.034828212 7.3615912e-39 318 266
-0.0013395466 0.764 -0.034828212 7.4537868e-39 319 266
0 0.764 -0.034828212 7.729645e-39 320 266
0.0013395466 0.764 -0.034828212 7.729645e-39 321 266
0.0026861064 0.76599997 -0.034919381 8.1895386e-39 322 266
0.0040291594 0.76599997 -0.034919381 8.4657653e-39 323 266
0.0053722127 0.76599997 -0.034919381 8.3746459e-39 324 266
0.0067152665 0.76599997 -0.034919381 8.6512314e-39 325 266
0.0080898795 0.76899999 -0.035056144 8.4682862e-39 326 266
0.0094381925 0.76899999 -0.035056144 8.4682862e-39 327 266
0.01081456 0.77100003 -0.03514732 8.0091256e-39 328 266
0.012197939 0.773 -0.035238493 7.9169299e-39 329 266
0.013553266 0.773 -0.035238493 7.550318e-39 330 266
-0.032527838 0.773 -0.036593821 1.1700544e-38 296 267
-0.031091858 0.77100003 -0.036499143 1.1239567e-38 297 267
-0.02966289 0.76899999 -0.036404461 1.1695859e-38 298 267
-0.02824094 0.76700002 -0.036309779 1.1511468e-38 299 267
-0.026896132 0.76700002 -0.036309779 1.1416383e-38 300 267
-0.025518013 0.76599997 -0.036262438 1.1139436e-38 301 267
-0.024174958 0.76599997 -0.036262438 1.0954679e-38 302 267
-0.022831906 0.76599997 -0.036262438 1.0585896e-38 303 267
-0.021488851 0.76599997 -0.036262438 9.8512053e-39 304 267
-0.020145798 0.76599997 -0.036262438 9.5742583e-39 305 267
-0.018802745 0.76599997 -0.036262438 9.0232425e-39 306 267
-0.017459691 0.76599997 -0.036262438 8.7462954e-39 307 267
-0.016116638 0.76599997 -0.036262438 8.7455794e-39 308 267
-0.014735013 0.764 -0.036167759 8.6533838e-39 309 267
-0.013395466 0.764 -0.036167759 8.7437815e-39 310 267
-0.01205592 0.764 -0.036167759 8.6512258e-39 311 267
-0.010716373 0.764 -0.036167759 8.5579609e-39 312 267
-0.0093768267 0.764 -0.036167759 8.4657653e-39 313 267
-0.0080372803 0.764 -0.036167759 8.0966339e-39 314 267
-0.0067152665 0.76599997 -0.036262438 7.9122412e-39 315 267
-0.0053792265 0.76700002 -0.036309779 7.3615884e-39 316 267
-0.00403442 0.76700002 -0.036309779 7.453784e-39 317 267
-0.0026861064 0.76599997 -0.036262438 7.2715437e-39 318 267
-0.0013430532 0.76599997 -0.036262438 7.6399675e-39 319 267
0 0.76599997 -0.036262438 7.549204e-39 320 267
0.0013430532 0.76599997 -0.036262438 7.7335953e-39 321 267
0.0026896133 0.76700002 -0.036309779 8.1920525e-39 322 267
0.00403442 0.76700002 -0.036309779 8.2842481e-39 323 267
0.0053932532 0.76899999 -0.036404461 8.4682806e-39 324 267
0.0067415666 0.76899999 -0.036404461 8.560835e-39 325 267
0.0080898795 0.76899999 -0.036404461 8.1942175e-39 326 267
0.0094381925 0.76899999 -0.036404461 8.1942175e-39 327 267
0.01081456 0.77100003 -0.036499143 7.8265294e-39 328 267
0.01221372 0.77399999 -0.036641158 7.7343338e-39 329 267
-0.026861066 0.76599997 -0.037605491 1.1602565e-38 300 268
-0.025518013 0.76599997 -0.037605491 1.1141588e-38 301 268
-0.024174958 0.76599997 -0.037605491 1.1231975e-38 302 268
-0.022831906 0.76599997 -0.037605491 1.0955028e-38 303 268
-0.021488851 0.76599997 -0.037605491 1.05866e-38 304 268
-0.020145798 0.76599997 -0.037605491 1.0310011e-38 305 268
-0.018802745 0.76599997 -0.037605491 9.9423051e-39 306 268
-0.017482487 0.76700002 -0.037654586 9.7575551e-39 307 268
-0.01613768 0.76700002 -0.037654586 9.5720904e-39 308 268
-0.014773586 0.76599997 -0.037605491 9.4798948e-39 309 268
-0.013430533 0.76599997 -0.037605491 9.2040366e-39 310 268
-0.012087479 0.76599997 -0.037605491 9.111841e-39 311 268
-0.010744425 0.76599997 -0.037605491 8.6508754e-39 312 268
-0.0094013726 0.76599997 -0.037605491 8.4668443e-39 313 268
-0.0080583189 0.76599997 -0.037605491 8.3732165e-39 314 268
-0.006724033 0.76700002 -0.037654586 8.0969898e-39 315 268
-0.0053932532 0.76899999 -0.03775277 7.7296478e-39 316 268
-0.00403442 0.76700002 -0.037654586 7.8218448e-39 317 268
-0.0026896133 0.76700002 -0.037654586 7.7318002e-39 318 268
-0.0013430532 0.76599997 -0.037605491 8.1002226e-39 319 268
0 0.76599997 -0.037605491 8.5608294e-39 320 268
0.0013448066 0.76700002 -0.037654586 8.5608294e-39 321 268
0.0026896133 0.76700002 -0.037654586 8.92817e-39 322 268
0.00403442 0.76700002 -0.037654586 8.92817e-39 323 268
0.0054072798 0.77100003 -0.037850961 8.8363429e-39 324 268
0.0067590997 0.77100003 -0.037850961 8.6523118e-39 325 268
0.0081109209 0.77100003 -0.037850961 8.5601315e-39 326 268
0.0094627403 0.77100003 -0.037850961 8.5601315e-39 327 268
0.010842613 0.773 -0.037949149 7.642864e-39 328 268
-0.022831906 0.76599997 -0.038948543 1.0497669e-38 303 269
-0.021488851 0.76599997 -0.038948543 1.0404389e-38 304 269
-0.020145798 0.76599997 -0.038948543 1.0035965e-38 305 269
-0.018827293 0.76700002 -0.038999394 9.9441198e-39 306 269
-0.017482487 0.76700002 -0.038999394 9.5753373e-39 307 269
-0.01613768 0.76700002 -0.038999394 9.6660909e-39 308 269
-0.014792874 0.76700002 -0.038999394 9.3891453e-39 309 269
-0.013483133 0.76899999 -0.039101087 9.1125668e-39 310 269
-0.01210326 0.76700002 -0.038999394 9.0203712e-39 311 269
-0.010758453 0.76700002 -0.038999394 8.9274693e-39 312 269
-0.0094136465 0.76700002 -0.038999394 8.7430781e-39 313 269
-0.00806884 0.76700002 -0.038999394 8.3750172e-39 314 269
-0.0067415666 0.76899999 -0.039101087 8.2828216e-39 315 269
-0.0053932532 0.76899999 -0.039101087 7.8236399e-39 316 269
-0.0040449398 0.76899999 -0.039101087 8.0080298e-39 317 269
-0.0026966266 0.76899999 -0.039101087 8.1005785e-39 318 269
-0.0013448066 0.76700002 -0.038999394 8.3771668e-39 319 269
0 0.76700002 -0.038999394 8.7452235e-39 320 269
0.0013483133 0.76899999 -0.039101087 8.7452235e-39 321 269
0.0026966266 0.76899999 -0.039101087 8.7452263e-39 322 269
0.0040449398 0.76899999 -0.039101087 8.7452263e-39 323 269
0.0054072798 0.77100003 -0.03920278 8.4690121e-39 324 269
0.0067766332 0.773 -0.039304473 8.4690121e-39 325 269
0.0081109209 0.77100003 -0.03920278 8.1013184e-39 326 269
0.0094627403 0.77100003 -0.03920278 8.1013184e-39 327 269
-0.017528072 0.76899999 -0.0404494 1.0127435e-38 307 270
-0.016179759 0.76899999 -0.0404494 9.9423177e-39 308 270
-0.014792874 0.76700002 -0.040344197 9.6660909e-39 309 270
-0.013448066 0.76700002 -0.040344197 9.4813466e-39 310 270
-0.01210326 0.76700002 -0.040344197 9.3891509e-39 311 270
-0.010758453 0.76700002 -0.040344197 9.2966008e-39 312 270
-0.0094136465 0.76700002 -0.040344197 9.0200153e-39 313 270
-0.00806884 0.76700002 -0.040344197 8.8363429e-39 314 270
-0.0067415666 0.76899999 -0.0404494 8.6523118e-39 315 270
-0.0053932532 0.76899999 -0.0404494 8.5601161e-39 316 270
-0.0040449398 0.76899999 -0.0404494 8.5601161e-39 317 270
-0.0026966266 0.76899999 -0.0404494 8.6523118e-39 318 270
-0.0013483133 0.76899999 -0.0404494 8.9285385e-39 319 270
0 0.76899999 -0.0404494 9.0200153e-39 320 270
0.00135182 0.77100003 -0.040554602 9.0200153e-39 321 270
0.0026966266 0.76899999 -0.0404494 8.6533992e-39 322 270
0.0040449398 0.76899999 -0.0404494 8.6533992e-39 323 270
0.0054213065 0.773 -0.0406598 7.9180061e-39 324 270
0.0067853997 0.77399999 -0.040712398 7.9180061e-39 325 270
