# .PCD v.7 - Point Cloud Data file format
FIELDS x y z rgb imX imY
SIZE 4 4 4 4 4 4
TYPE F F F F F F
COUNT 1 1 1 1 1 1
WIDTH 833
HEIGHT 1
VIEWPOINT 0 0 0 1 0 0 0
POINTS 833
DATA ascii
0.0036977797 0.70300001 -0.039442986 1.8782242e-38 323 272
0.0049303733 0.70300001 -0.039442986 1.8236264e-38 324 272
0.0061454331 0.70099998 -0.039330769 1.8051514e-38 325 272
0.0073639993 0.69999999 -0.039274666 1.7958245e-38 326 272
0.0085667865 0.69800001 -0.039162453 1.786605e-38 327 272
0.0097906133 0.69800001 -0.039162453 1.7496897e-38 328 272
0.01101444 0.69800001 -0.039162453 1.7312147e-38 329 272
0.012238266 0.69800001 -0.039162453 1.7036627e-38 330 272
0.013462093 0.69800001 -0.039162453 1.6944071e-38 331 272
0.01466488 0.69700003 -0.039106347 1.6851875e-38 332 272
0.015886955 0.69700003 -0.039106347 1.6667484e-38 333 272
0.017133573 0.69800001 -0.039162453 1.6941925e-38 334 272
0.0183574 0.69800001 -0.039162453 1.684973e-38 335 272
0.019553173 0.69700003 -0.039106347 1.6756106e-38 336 272
0.020745439 0.69599998 -0.039050236 1.6571714e-38 337 272
0.021965759 0.69599998 -0.039050236 1.6845436e-38 338 272
0.023186078 0.69599998 -0.039050236 1.6753241e-38 339 272
0.0244064 0.69599998 -0.039050236 1.6386626e-38 340 272
0.025626717 0.69599998 -0.039050236 1.629443e-38 341 272
0.026847038 0.69599998 -0.039050236 1.5924934e-38 342 272
0.028067358 0.69599998 -0.039050236 1.5095534e-38 343 272
0.029287677 0.69599998 -0.039050236 1.426577e-38 344 272
0.030507999 0.69599998 -0.039050236 1.3989182e-38 345 272
0.031728316 0.69599998 -0.039050236 1.4083533e-38 346 272
0.032853961 0.69400001 -0.038938027 1.4083533e-38 347 272
0.034070771 0.69400001 -0.038938027 1.444872e-38 348 272
0.035287585 0.69400001 -0.038938027 1.380335e-38 349 272
0.036504399 0.69400001 -0.038938027 1.352604e-38 350 272
0.037829921 0.69599998 -0.039050236 1.3249095e-38 351 272
0.039106347 0.69700003 -0.039106347 1.343242e-38 352 272
0.040328421 0.69700003 -0.039106347 1.3248028e-38 353 272
0.041610107 0.69800001 -0.039162453 1.3064726e-38 354 272
0.042956665 0.69999999 -0.039274666 1.315728e-38 355 272
0.044183996 0.69999999 -0.039274666 1.3067596e-38 356 272
0.04541133 0.69999999 -0.039274666 1.3067596e-38 357 272
0.046638668 0.69999999 -0.039274666 1.3342388e-38 358 272
0.047865998 0.69999999 -0.039274666 1.3434585e-38 359 272
0.049163464 0.70099998 -0.039330769 1.3435657e-38 360 272
0.050392549 0.70099998 -0.039330769 1.3712602e-38 361 272
0.051768921 0.70300001 -0.039442986 1.31623e-38 362 272
0.053076904 0.704 -0.039499093 1.297755e-38 363 272
0.054465543 0.70599997 -0.039611302 1.2700611e-38 364 272
0.055703394 0.70599997 -0.039611302 1.251658e-38 365 272
0.056941248 0.70599997 -0.039611302 1.2148889e-38 366 272
0.05826151 0.70700002 -0.039667413 1.2148889e-38 367 272
0.060090236 0.71399999 -0.040060159 1.1137663e-38 368 272
0.061342116 0.71399999 -0.040060159 1.2981576e-38 369 272
0.062593997 0.71399999 -0.040060159 1.5488885e-38 370 272
0.064114138 0.71700001 -0.040228479 1.8531341e-38 371 272
0.065553628 0.71899998 -0.040340692 1.8070363e-38 372 272
-0.01005712 0.71700001 -0.041485619 1.8252902e-38 312 273
-0.0087999795 0.71700001 -0.041485619 1.281336e-38 313 273
-0.00753232 0.71600002 -0.041427758 1.6204004e-38 314 273
-0.0062769335 0.71600002 -0.041427758 1.6388754e-38 315 273
-0.0050075199 0.71399999 -0.041312039 1.6941177e-38 316 273
-0.0037503797 0.713 -0.041254178 1.6941177e-38 317 273
-0.0024932399 0.71100003 -0.041138459 1.7031952e-38 318 273
-0.00124136 0.708 -0.040964879 1.7031952e-38 319 273
0 0.70599997 -0.040849157 1.7216352e-38 320 273
0.0012343467 0.704 -0.040733438 1.7492578e-38 321 273
0.0024651866 0.70300001 -0.040675577 1.7494378e-38 322 273
0.0036872597 0.70099998 -0.040559858 1.8139747e-38 323 273
0.0049163462 0.70099998 -0.040559858 1.8144066e-38 324 273
0.0061366665 0.69999999 -0.040502001 1.805187e-38 325 273
0.0073639993 0.69999999 -0.040502001 1.8051514e-38 326 273
0.0085667865 0.69800001 -0.040386278 1.749834e-38 327 273
0.0097906133 0.69800001 -0.040386278 1.7496894e-38 328 273
0.01101444 0.69800001 -0.040386278 1.7128472e-38 329 273
0.012238266 0.69800001 -0.040386278 1.6944075e-38 330 273
0.013442807 0.69700003 -0.040328421 1.6759682e-38 331 273
0.01466488 0.69700003 -0.040328421 1.6942276e-38 332 273
0.015886955 0.69700003 -0.040328421 1.685008e-38 333 273
0.017109027 0.69700003 -0.040328421 1.6480597e-38 334 273
0.018331099 0.69700003 -0.040328421 1.6388401e-38 335 273
0.019525118 0.69599998 -0.040270556 1.6202951e-38 336 273
0.020745439 0.69599998 -0.040270556 1.5926724e-38 337 273
0.021965759 0.69599998 -0.040270556 1.6109686e-38 338 273
0.023186078 0.69599998 -0.040270556 1.601749e-38 339 273
0.0244064 0.69599998 -0.040270556 1.601749e-38 340 273
0.025626717 0.69599998 -0.040270556 1.5740903e-38 341 273
0.026847038 0.69599998 -0.040270556 1.5831304e-38 342 273
0.027986705 0.69400001 -0.040154841 1.5185935e-38 343 273
0.029203519 0.69400001 -0.040154841 1.4447666e-38 344 273
0.030507999 0.69599998 -0.040270556 1.4262916e-38 345 273
0.031637147 0.69400001 -0.040154841 1.3897013e-38 346 273
0.032853961 0.69400001 -0.040154841 1.3804818e-38 347 273
0.034070771 0.69400001 -0.040154841 1.380265e-38 348 273
0.035287585 0.69400001 -0.040154841 1.315728e-38 349 273
0.036504399 0.69400001 -0.040154841 1.2236413e-38 350 273
0.037721213 0.69400001 -0.040154841 1.2236413e-38 351 273
0.039050236 0.69599998 -0.040270556 1.1960199e-38 352 273
0.040270556 0.69599998 -0.040270556 1.2052394e-38 353 273
0.041550495 0.69700003 -0.040328421 1.2054185e-38 354 273
0.042833932 0.69800001 -0.040386278 1.2331132e-38 355 273
0.04405776 0.69800001 -0.040386278 1.2423675e-38 356 273
0.045281585 0.69800001 -0.040386278 1.2515871e-38 357 273
0.046505414 0.69800001 -0.040386278 1.2515877e-38 358 273
0.047865998 0.69999999 -0.040502001 1.2792103e-38 359 273
0.049093332 0.69999999 -0.040502001 1.2793537e-38 360 273
0.050392549 0.70099998 -0.040559858 1.3069764e-38 361 273
0.051621638 0.70099998 -0.040559858 1.3345615e-38 362 273
0.053001512 0.70300001 -0.040675577 1.2976834e-38 363 273
0.054311249 0.704 -0.040733438 1.2883205e-38 364 273
0.055545598 0.704 -0.040733438 1.2699173e-38 365 273
0.056779943 0.704 -0.040733438 1.1965589e-38 366 273
0.058179103 0.70599997 -0.040849157 1.2057785e-38 367 273
0.059501119 0.70700002 -0.040907022 1.1136587e-38 368 273
0.061084379 0.71100003 -0.041138459 1.1413174e-38 369 273
0.062593997 0.71399999 -0.041312039 1.4562609e-38 370 273
0.063845873 0.71399999 -0.041312039 1.8711772e-38 371 273
0.06528011 0.71600002 -0.041427758 1.8070013e-38 372 273
-0.01005712 0.71700001 -0.042742759 1.7698636e-38 312 274
-0.0087877065 0.71600002 -0.042683143 1.2351288e-38 313 274
-0.00753232 0.71600002 -0.042683143 1.6203636e-38 314 274
-0.0062593995 0.71399999 -0.042563915 1.6388386e-38 315 274
-0.0049864799 0.71100003 -0.042385083 1.6848616e-38 316 274
-0.0037398601 0.71100003 -0.042385083 1.6940811e-38 317 274
-0.0024932399 0.71100003 -0.042385083 1.6939742e-38 318 274
-0.0012378532 0.70599997 -0.042087011 1.7308166e-38 319 274
0 0.704 -0.041967787 1.7125222e-38 320 274
0.0012343467 0.704 -0.041967787 1.7401809e-38 321 274
0.0024581731 0.70099998 -0.041788943 1.7310709e-38 322 274
0.0036872597 0.70099998 -0.041788943 1.8232664e-38 323 274
0.0049163462 0.70099998 -0.041788943 1.7776006e-38 324 274
0.0061366665 0.69999999 -0.041729331 1.7591614e-38 325 274
0.0073639993 0.69999999 -0.041729331 1.7773488e-38 326 274
0.0085913334 0.69999999 -0.041729331 1.7404346e-38 327 274
0.0098186666 0.69999999 -0.041729331 1.7310709e-38 328 274
0.01101444 0.69800001 -0.041610107 1.7126317e-38 329 274
0.012238266 0.69800001 -0.041610107 1.721814e-38 330 274
0.013442807 0.69700003 -0.041550495 1.6941554e-38 331 274
0.01466488 0.69700003 -0.041550495 1.6757163e-38 332 274
0.015886955 0.69700003 -0.041550495 1.638838e-38 333 274
0.017109027 0.69700003 -0.041550495 1.6570629e-38 334 274
0.018331099 0.69700003 -0.041550495 1.6293682e-38 335 274
0.019525118 0.69599998 -0.041490879 1.6200067e-38 336 274
0.020685827 0.69400001 -0.041371655 1.6015317e-38 337 274
0.021902639 0.69400001 -0.041371655 1.6015322e-38 338 274
0.023119451 0.69400001 -0.041371655 1.6015322e-38 339 274
0.024336265 0.69400001 -0.041371655 1.5833077e-38 340 274
0.025553079 0.69400001 -0.041371655 1.5648685e-38 341 274
0.026769891 0.69400001 -0.041371655 1.5645811e-38 342 274
0.027986705 0.69400001 -0.041371655 1.5185192e-38 343 274
0.029203519 0.69400001 -0.041371655 1.4540915e-38 344 274
0.030420333 0.69400001 -0.041371655 1.4171773e-38 345 274
0.031637147 0.69400001 -0.041371655 1.3988461e-38 346 274
0.032853961 0.69400001 -0.041371655 1.3804069e-38 347 274
0.034070771 0.69400001 -0.041371655 1.3709e-38 348 274
0.035287585 0.69400001 -0.041371655 1.2510456e-38 349 274
0.036504399 0.69400001 -0.041371655 1.1405929e-38 350 274
0.037721213 0.69400001 -0.041371655 1.1774712e-38 351 274
0.039050236 0.69599998 -0.041490879 1.1591412e-38 352 274
0.040270556 0.69599998 -0.041490879 1.1683608e-38 353 274
0.041490879 0.69599998 -0.041490879 1.1778659e-38 354 274
0.042772565 0.69700003 -0.041550495 1.2054886e-38 355 274
0.04405776 0.69800001 -0.041610107 1.2515495e-38 356 274
0.045281585 0.69800001 -0.041610107 1.2515495e-38 357 274
0.046505414 0.69800001 -0.041610107 1.2515501e-38 358 274
0.047729239 0.69800001 -0.041610107 1.2699892e-38 359 274
0.049093332 0.69999999 -0.041729331 1.2792091e-38 360 274
0.050320663 0.69999999 -0.041729331 1.3344906e-38 361 274
0.051547997 0.69999999 -0.041729331 1.3069395e-38 362 274
0.052850723 0.70099998 -0.041788943 1.2977199e-38 363 274
0.054079808 0.70099998 -0.041788943 1.2516946e-38 364 274
0.0554667 0.70300001 -0.041908171 1.2332555e-38 365 274
0.056779943 0.704 -0.041967787 1.1873025e-38 366 274
0.058014292 0.704 -0.041967787 1.1873025e-38 367 274
0.059416957 0.70599997 -0.042087011 1.1228764e-38 368 274
0.060740728 0.70700002 -0.042146627 1.0583395e-38 369 274
0.062506333 0.713 -0.042504307 1.2902716e-38 370 274
0.063845873 0.71399999 -0.042563915 1.7789443e-38 371 274
0.065097757 0.71399999 -0.042563915 1.8439144e-38 372 274
-0.010043093 0.71600002 -0.043938532 1.7695385e-38 312 275
-0.0087877065 0.71600002 -0.043938532 1.2717182e-38 313 275
-0.0074797203 0.71100003 -0.043631699 1.6571698e-38 314 275
-0.0062330998 0.71100003 -0.043631699 1.6756089e-38 315 275
-0.0049794666 0.70999998 -0.043570329 1.6664597e-38 316 275
-0.00372408 0.708 -0.043447599 1.6756793e-38 317 275
-0.00248272 0.708 -0.043447599 1.6940824e-38 318 275
-0.0012378532 0.70599997 -0.043324865 1.7125575e-38 319 275
0 0.704 -0.043202132 1.7034822e-38 320 275
0.0012325933 0.70300001 -0.043140765 1.7219572e-38 321 275
0.0024581731 0.70099998 -0.043018032 1.7128469e-38 322 275
0.0036819996 0.69999999 -0.042956665 1.7496891e-38 323 275
0.0049093333 0.69999999 -0.042956665 1.7406864e-38 324 275
0.0061366665 0.69999999 -0.042956665 1.7222833e-38 325 275
0.0073429602 0.69800001 -0.042833932 1.7496541e-38 326 275
0.0085667865 0.69800001 -0.042833932 1.7035923e-38 327 275
0.0097906133 0.69800001 -0.042833932 1.7034837e-38 328 275
0.01101444 0.69800001 -0.042833932 1.6666415e-38 329 275
0.012220734 0.69700003 -0.042772565 1.657277e-38 330 275
0.013442807 0.69700003 -0.042772565 1.638838e-38 331 275
0.014643839 0.69599998 -0.042711195 1.6204711e-38 332 275
0.015864158 0.69599998 -0.042711195 1.6112515e-38 333 275
0.017109027 0.69700003 -0.042772565 1.6294405e-38 334 275
0.018304799 0.69599998 -0.042711195 1.5925623e-38 335 275
0.019525118 0.69599998 -0.042711195 1.5739812e-38 336 275
0.020685827 0.69400001 -0.042588469 1.5462865e-38 337 275
0.021902639 0.69400001 -0.042588469 1.5371751e-38 338 275
0.023119451 0.69400001 -0.042588469 1.5371751e-38 339 275
0.024336265 0.69400001 -0.042588469 1.5372101e-38 340 275
0.025553079 0.69400001 -0.042588469 1.5279906e-38 341 275
0.026769891 0.69400001 -0.042588469 1.5369582e-38 342 275
0.027986705 0.69400001 -0.042588469 1.5092993e-38 343 275
0.029203519 0.69400001 -0.042588469 1.4724568e-38 344 275
0.030420333 0.69400001 -0.042588469 1.4539817e-38 345 275
0.031637147 0.69400001 -0.042588469 1.4080283e-38 346 275
0.032853961 0.69400001 -0.042588469 1.3804057e-38 347 275
0.034070771 0.69400001 -0.042588469 1.3800829e-38 348 275
0.035287585 0.69400001 -0.042588469 1.3432046e-38 349 275
0.036504399 0.69400001 -0.042588469 1.2143849e-38 350 275
0.037721213 0.69400001 -0.042588469 1.186726e-38 351 275
0.038938027 0.69400001 -0.042588469 1.1041112e-38 352 275
0.040154841 0.69400001 -0.042588469 1.1317701e-38 353 275
0.041371655 0.69400001 -0.042588469 1.1504589e-38 354 275
0.042711195 0.69599998 -0.042711195 1.168898e-38 355 275
0.043994639 0.69700003 -0.042772565 1.2608047e-38 356 275
0.045216713 0.69700003 -0.042772565 1.2608047e-38 357 275
0.046438783 0.69700003 -0.042772565 1.251658e-38 358 275
0.047729239 0.69800001 -0.042833932 1.2700611e-38 359 275
0.049093332 0.69999999 -0.042956665 1.2609144e-38 360 275
0.050320663 0.69999999 -0.042956665 1.2977568e-38 361 275
0.051547997 0.69999999 -0.042956665 1.3069401e-38 362 275
0.052775331 0.69999999 -0.042956665 1.2884651e-38 363 275
0.054079808 0.70099998 -0.043018032 1.2516227e-38 364 275
0.0554667 0.70300001 -0.043140765 1.2331836e-38 365 275
0.056699295 0.70300001 -0.043140765 1.159788e-38 366 275
0.058014292 0.704 -0.043202132 1.159788e-38 367 275
0.059416957 0.70599997 -0.043324865 1.1320233e-38 368 275
0.060740728 0.70700002 -0.043386232 1.0398637e-38 369 275
0.062331002 0.71100003 -0.043631699 1.2345933e-38 370 275
0.063577622 0.71100003 -0.043631699 1.7324497e-38 371 275
0.065097757 0.71399999 -0.043815799 1.7704097e-38 372 275
-0.0125714 0.71700001 -0.045257039 1.9545123e-38 310 276
-0.01129848 0.71600002 -0.045193922 1.7609015e-38 311 276
-0.010001013 0.713 -0.045004558 1.7139695e-38 312 276
-0.0087508867 0.713 -0.045004558 1.3175283e-38 313 276
-0.0074797203 0.71100003 -0.044878319 1.6572061e-38 314 276
-0.0062330998 0.71100003 -0.044878319 1.6664615e-38 315 276
-0.0049794666 0.70999998 -0.044815198 1.6572765e-38 316 276
-0.00372408 0.708 -0.044688959 1.6665319e-38 317 276
-0.0024792133 0.70700002 -0.044625837 1.694083e-38 318 276
-0.0012378532 0.70599997 -0.044562716 1.7217418e-38 319 276
0 0.70300001 -0.04437336 1.7034825e-38 320 276
0.0012290865 0.70099998 -0.044247117 1.7219216e-38 321 276
0.0024546667 0.69999999 -0.044183996 1.7219939e-38 322 276
0.0036714801 0.69800001 -0.04405776 1.7312134e-38 323 276
0.0048953067 0.69800001 -0.04405776 1.7404699e-38 324 276
0.0061366665 0.69999999 -0.044183996 1.7312503e-38 325 276
0.0073429602 0.69800001 -0.04405776 1.7128116e-38 326 276
0.0085667865 0.69800001 -0.04405776 1.6851528e-38 327 276
0.0097906133 0.69800001 -0.04405776 1.6483102e-38 328 276
0.01099866 0.69700003 -0.043994639 1.611396e-38 329 276
0.012220734 0.69700003 -0.043994639 1.5926332e-38 330 276
0.013423519 0.69599998 -0.043931518 1.5833777e-38 331 276
0.014643839 0.69599998 -0.043931518 1.5926695e-38 332 276
0.015864158 0.69599998 -0.043931518 1.601889e-38 333 276
0.017084479 0.69599998 -0.043931518 1.601889e-38 334 276
0.0182522 0.69400001 -0.043805279 1.5650468e-38 335 276
0.019469013 0.69400001 -0.043805279 1.5464647e-38 336 276
0.020685827 0.69400001 -0.043805279 1.518806e-38 337 276
0.021902639 0.69400001 -0.043805279 1.5370303e-38 338 276
0.023119451 0.69400001 -0.043805279 1.5370303e-38 339 276
0.024336265 0.69400001 -0.043805279 1.5370303e-38 340 276
0.025553079 0.69400001 -0.043805279 1.5185912e-38 341 276
0.026769891 0.69400001 -0.043805279 1.5185186e-38 342 276
0.027986705 0.69400001 -0.043805279 1.5092991e-38 343 276
0.029203519 0.69400001 -0.043805279 1.4541616e-38 344 276
0.030420333 0.69400001 -0.043805279 1.4357225e-38 345 276
0.031637147 0.69400001 -0.043805279 1.4265028e-38 346 276
0.032853961 0.69400001 -0.043805279 1.4080637e-38 347 276
0.034021679 0.69300002 -0.043742158 1.3711858e-38 348 276
0.035236739 0.69300002 -0.043742158 1.3158684e-38 349 276
0.036504399 0.69400001 -0.043805279 1.3063986e-38 350 276
0.037721213 0.69400001 -0.043805279 1.2695205e-38 351 276
0.038938027 0.69400001 -0.043805279 1.1683945e-38 352 276
0.040154841 0.69400001 -0.043805279 1.1960172e-38 353 276
0.041371655 0.69400001 -0.043805279 1.2055242e-38 354 276
0.042588469 0.69400001 -0.043805279 1.233183e-38 355 276
0.043931518 0.69599998 -0.043931518 1.2700243e-38 356 276
0.045151837 0.69599998 -0.043931518 1.2700243e-38 357 276
0.046372157 0.69599998 -0.043931518 1.2609492e-38 358 276
0.047729239 0.69800001 -0.04405776 1.2701689e-38 359 276
0.048953064 0.69800001 -0.04405776 1.2609862e-38 360 276
0.050320663 0.69999999 -0.044183996 1.2794253e-38 361 276
0.051547997 0.69999999 -0.044183996 1.2977568e-38 362 276
0.052775331 0.69999999 -0.044183996 1.2793537e-38 363 276
0.054079808 0.70099998 -0.044247117 1.251659e-38 364 276
0.0554667 0.70300001 -0.04437336 1.2148167e-38 365 276
0.056699295 0.70300001 -0.04437336 1.1690076e-38 366 276
0.058014292 0.704 -0.044436477 1.159788e-38 367 276
0.059416957 0.70599997 -0.044562716 1.1504984e-38 368 276
0.060654808 0.70599997 -0.044562716 1.076706e-38 369 276
0.062331002 0.71100003 -0.044878319 1.1882799e-38 370 276
0.063577622 0.71100003 -0.044878319 1.6124158e-38 371 276
0.064824238 0.71100003 -0.044878319 1.7427515e-38 372 276
-0.013828539 0.71700001 -0.046514176 1.8993398e-38 309 277
-0.012553867 0.71600002 -0.046449307 1.9269257e-38 310 277
-0.01129848 0.71600002 -0.046449307 1.705656e-38 311 277
-0.010001013 0.713 -0.046254687 1.6494325e-38 312 277
-0.0087508867 0.713 -0.046254687 1.2898695e-38 313 277
-0.0074797203 0.71100003 -0.046124939 1.6020689e-38 314 277
-0.0062330998 0.71100003 -0.046124939 1.6113244e-38 315 277
-0.0049794666 0.70999998 -0.046060063 1.6572051e-38 316 277
-0.00372408 0.708 -0.045930319 1.6664247e-38 317 277
-0.0024757064 0.70599997 -0.04580057 1.6940475e-38 318 277
-0.0012378532 0.70599997 -0.04580057 1.7124866e-38 319 277
0 0.70300001 -0.04560595 1.7034825e-38 320 277
0.0012290865 0.70099998 -0.045476202 1.712702e-38 321 277
0.0024546667 0.69999999 -0.04541133 1.7127017e-38 322 277
0.0036714801 0.69800001 -0.045281585 1.7219572e-38 323 277
0.0048953067 0.69800001 -0.045281585 1.7036627e-38 324 277
0.006119133 0.69800001 -0.045281585 1.7036627e-38 325 277
0.0073429602 0.69800001 -0.045281585 1.6851522e-38 326 277
0.0085667865 0.69800001 -0.045281585 1.6759326e-38 327 277
0.0097906133 0.69800001 -0.045281585 1.6022846e-38 328 277
0.01099866 0.69700003 -0.045216713 1.5377477e-38 329 277
0.0122032 0.69599998 -0.045151837 1.5650117e-38 330 277
0.013423519 0.69599998 -0.045151837 1.5650117e-38 331 277
0.014643839 0.69599998 -0.045151837 1.5650833e-38 332 277
0.015818574 0.69400001 -0.045022093 1.5650833e-38 333 277
0.017035386 0.69400001 -0.045022093 1.5650468e-38 334 277
0.0182522 0.69400001 -0.045022093 1.5373521e-38 335 277
0.019469013 0.69400001 -0.045022093 1.5463924e-38 336 277
0.020685827 0.69400001 -0.045022093 1.5187339e-38 337 277
0.021902639 0.69400001 -0.045022093 1.5095146e-38 338 277
0.023119451 0.69400001 -0.045022093 1.500295e-38 339 277
0.024336265 0.69400001 -0.045022093 1.500223e-38 340 277
0.02551626 0.69300002 -0.044957221 1.4909676e-38 341 277
0.02673132 0.69300002 -0.044957221 1.4909676e-38 342 277
0.027946379 0.69300002 -0.044957221 1.4725284e-38 343 277
0.029161438 0.69300002 -0.044957221 1.4632736e-38 344 277
0.030420333 0.69400001 -0.045022093 1.4356507e-38 345 277
0.031637147 0.69400001 -0.045022093 1.4264312e-38 346 277
0.03280662 0.69300002 -0.044957221 1.3987366e-38 347 277
0.034021679 0.69300002 -0.044957221 1.3710782e-38 348 277
0.035236739 0.69300002 -0.044957221 1.3618586e-38 349 277
0.036504399 0.69400001 -0.045022093 1.3249451e-38 350 277
0.037666857 0.69300002 -0.044957221 1.2972864e-38 351 277
0.03888192 0.69300002 -0.044957221 1.2330018e-38 352 277
0.04009698 0.69300002 -0.044957221 1.2422214e-38 353 277
0.041371655 0.69400001 -0.045022093 1.2515128e-38 354 277
0.042588469 0.69400001 -0.045022093 1.2699521e-38 355 277
0.043805279 0.69400001 -0.045022093 1.2883911e-38 356 277
0.045022093 0.69400001 -0.045022093 1.2976106e-38 357 277
0.046372157 0.69599998 -0.045151837 1.2700964e-38 358 277
0.047660861 0.69700003 -0.045216713 1.2885357e-38 359 277
0.048953064 0.69800001 -0.045281585 1.2610215e-38 360 277
0.050176892 0.69800001 -0.045281585 1.270241e-38 361 277
0.051547997 0.69999999 -0.04541133 1.2702413e-38 362 277
0.052775331 0.69999999 -0.04541133 1.2609859e-38 363 277
0.054079808 0.70099998 -0.045476202 1.2241798e-38 364 277
0.0554667 0.70300001 -0.04560595 1.2149602e-38 365 277
0.056699295 0.70300001 -0.04560595 1.1781549e-38 366 277
0.058014292 0.704 -0.045670826 1.1781549e-38 367 277
0.059248637 0.704 -0.045670826 1.1504981e-38 368 277
0.060654808 0.70599997 -0.04580057 1.0951808e-38 369 277
0.062243331 0.70999998 -0.046060063 1.1603329e-38 370 277
0.063488193 0.70999998 -0.046060063 1.5567741e-38 371 277
0.064733058 0.70999998 -0.046060063 1.7701579e-38 372 277
-0.013809253 0.71600002 -0.047704693 1.9176711e-38 309 278
-0.012518799 0.71399999 -0.047571439 1.9269613e-38 310 278
-0.011266919 0.71399999 -0.047571439 1.6780331e-38 311 278
-0.010001013 0.713 -0.047504812 1.6309215e-38 312 278
-0.0087263398 0.71100003 -0.047371563 1.3082368e-38 313 278
-0.0074797203 0.71100003 -0.047371563 1.5836301e-38 314 278
-0.0062243328 0.70999998 -0.047304932 1.6020692e-38 315 278
-0.0049654399 0.708 -0.047171678 1.629619e-38 316 278
-0.0037188199 0.70700002 -0.047105055 1.6388386e-38 317 278
-0.0024757064 0.70599997 -0.047038425 1.6480944e-38 318 278
-0.0012378532 0.70599997 -0.047038425 1.6849727e-38 319 278
0 0.70300001 -0.046838548 1.6576017e-38 320 278
0.0012290865 0.70099998 -0.046705291 1.6576017e-38 321 278
0.0024546667 0.69999999 -0.046638668 1.6484169e-38 322 278
0.0036819996 0.69999999 -0.046638668 1.666856e-38 323 278
0.0049093333 0.69999999 -0.046638668 1.666821e-38 324 278
0.006119133 0.69800001 -0.046505414 1.6576014e-38 325 278
0.0073429602 0.69800001 -0.046505414 1.6483465e-38 326 278
0.0085667865 0.69800001 -0.046505414 1.6299074e-38 327 278
0.0097765867 0.69700003 -0.046438783 1.6113244e-38 328 278
0.010982879 0.69599998 -0.046372157 1.556007e-38 329 278
0.0122032 0.69599998 -0.046372157 1.5466439e-38 330 278
0.013423519 0.69599998 -0.046372157 1.5282408e-38 331 278
0.01460176 0.69400001 -0.046238903 1.5282052e-38 332 278
0.015818574 0.69400001 -0.046238903 1.5282052e-38 333 278
0.017035386 0.69400001 -0.046238903 1.5280975e-38 334 278
0.018225901 0.69300002 -0.04617228 1.5004748e-38 335 278
0.01944096 0.69300002 -0.04617228 1.5187341e-38 336 278
0.020656019 0.69300002 -0.04617228 1.500295e-38 337 278
0.021871079 0.69300002 -0.04617228 1.5002227e-38 338 278
0.02308614 0.69300002 -0.04617228 1.5002227e-38 339 278
0.024301201 0.69300002 -0.04617228 1.4818552e-38 340 278
0.02551626 0.69300002 -0.04617228 1.4726356e-38 341 278
0.026654173 0.69099998 -0.046039023 1.4726003e-38 342 278
0.027865725 0.69099998 -0.046039023 1.4541972e-38 343 278
0.029161438 0.69300002 -0.04617228 1.454054e-38 344 278
0.0303765 0.69300002 -0.04617228 1.4264312e-38 345 278
0.031591557 0.69300002 -0.04617228 1.4171763e-38 346 278
0.03280662 0.69300002 -0.04617228 1.3987013e-38 347 278
0.034021679 0.69300002 -0.04617228 1.3710785e-38 348 278
0.035287585 0.69400001 -0.046238903 1.3618589e-38 349 278
0.036451802 0.69300002 -0.04617228 1.3434192e-38 350 278
0.037666857 0.69300002 -0.04617228 1.3249801e-38 351 278
0.03888192 0.69300002 -0.04617228 1.288174e-38 352 278
0.04009698 0.69300002 -0.04617228 1.3066133e-38 353 278
0.041312039 0.69300002 -0.04617228 1.2790638e-38 354 278
0.042527102 0.69300002 -0.04617228 1.2790638e-38 355 278
0.043805279 0.69400001 -0.046238903 1.2699171e-38 356 278
0.045022093 0.69400001 -0.046238903 1.2883202e-38 357 278
0.046238903 0.69400001 -0.046238903 1.2700258e-38 358 278
0.047592476 0.69599998 -0.046372157 1.2792454e-38 359 278
0.048882935 0.69700003 -0.046438783 1.2609864e-38 360 278
0.050176892 0.69800001 -0.046505414 1.2609864e-38 361 278
0.051547997 0.69999999 -0.046638668 1.2426549e-38 362 278
0.052775331 0.69999999 -0.046638668 1.2334352e-38 363 278
0.054079808 0.70099998 -0.046705291 1.2242154e-38 364 278
0.0554667 0.70300001 -0.046838548 1.1965927e-38 365 278
0.056699295 0.70300001 -0.046838548 1.1965221e-38 366 278
0.057931885 0.70300001 -0.046838548 1.178083e-38 367 278
0.059248637 0.704 -0.046905171 1.1229471e-38 368 278
0.060482983 0.704 -0.046905171 1.0952524e-38 369 278
0.061980337 0.70700002 -0.047105055 1.0774641e-38 370 278
0.063219935 0.70700002 -0.047105055 1.4462467e-38 371 278
0.064459547 0.70700002 -0.047105055 1.7608659e-38 372 278
-0.01377068 0.71399999 -0.048823316 1.9177429e-38 309 279
-0.012518799 0.71399999 -0.048823316 1.9545118e-38 310 279
-0.011266919 0.71399999 -0.048823316 1.6410825e-38 311 279
-0.010001013 0.713 -0.048754938 1.6306697e-38 312 279
-0.0087263398 0.71100003 -0.048618179 1.3909251e-38 313 279
-0.0074691991 0.70999998 -0.048549797 1.6386248e-38 314 279
-0.0062243328 0.70999998 -0.048549797 1.6478443e-38 315 279
-0.0049654399 0.708 -0.048413038 1.6387307e-38 316 279
-0.0037188199 0.70700002 -0.048344657 1.6479503e-38 317 279
-0.0024757064 0.70599997 -0.048276275 1.6572051e-38 318 279
-0.0012378532 0.70599997 -0.048276275 1.6756443e-38 319 279
0 0.70300001 -0.048071139 1.657492e-38 320 279
0.0012290865 0.70099998 -0.047934376 1.6390527e-38 321 279
0.0024546667 0.69999999 -0.047865998 1.6390877e-38 322 279
0.0036714801 0.69800001 -0.047729239 1.657527e-38 323 279
0.0048953067 0.69800001 -0.047729239 1.6391252e-38 324 279
0.006119133 0.69800001 -0.047729239 1.6299055e-38 325 279
0.00733244 0.69700003 -0.047660861 1.6205434e-38 326 279
0.0085545136 0.69700003 -0.047660861 1.6113238e-38 327 279
0.0097625591 0.69599998 -0.047592476 1.5743733e-38 328 279
0.01095132 0.69400001 -0.047455717 1.5282756e-38 329 279
0.012168133 0.69400001 -0.047455717 1.5190559e-38 330 279
0.013384946 0.69400001 -0.047455717 1.5098363e-38 331 279
0.01460176 0.69400001 -0.047455717 1.5280959e-38 332 279
0.015818574 0.69400001 -0.047455717 1.5188764e-38 333 279
0.017035386 0.69400001 -0.047455717 1.5188045e-38 334 279
0.018225901 0.69300002 -0.047387339 1.5003293e-38 335 279
0.01944096 0.69300002 -0.047387339 1.4911098e-38 336 279
0.020656019 0.69300002 -0.047387339 1.4818902e-38 337 279
0.021871079 0.69300002 -0.047387339 1.4910031e-38 338 279
0.023019511 0.69099998 -0.047250576 1.4817836e-38 339 279
0.024231065 0.69099998 -0.047250576 1.4634887e-38 340 279
0.025442619 0.69099998 -0.047250576 1.4634887e-38 341 279
0.026654173 0.69099998 -0.047250576 1.4726003e-38 342 279
0.027865725 0.69099998 -0.047250576 1.4449776e-38 343 279
0.029077278 0.69099998 -0.047250576 1.4356505e-38 344 279
0.0303765 0.69300002 -0.047387339 1.3987363e-38 345 279
0.031591557 0.69300002 -0.047387339 1.4170315e-38 346 279
0.03280662 0.69300002 -0.047387339 1.4078118e-38 347 279
0.034021679 0.69300002 -0.047387339 1.3802608e-38 348 279
0.035236739 0.69300002 -0.047387339 1.3710053e-38 349 279
0.036451802 0.69300002 -0.047387339 1.3341997e-38 350 279
0.037666857 0.69300002 -0.047387339 1.3341997e-38 351 279
0.03888192 0.69300002 -0.047387339 1.2973588e-38 352 279
0.04009698 0.69300002 -0.047387339 1.2973588e-38 353 279
0.041312039 0.69300002 -0.047387339 1.2789568e-38 354 279
0.042527102 0.69300002 -0.047387339 1.2697371e-38 355 279
0.043742158 0.69300002 -0.047387339 1.2698092e-38 356 279
0.044957221 0.69300002 -0.047387339 1.2605895e-38 357 279
0.046238903 0.69400001 -0.047455717 1.2789218e-38 358 279
0.047455717 0.69400001 -0.047455717 1.2881414e-38 359 279
0.048882935 0.69700003 -0.047660861 1.2698467e-38 360 279
0.050176892 0.69800001 -0.047729239 1.2882498e-38 361 279
0.051400717 0.69800001 -0.047729239 1.2516593e-38 362 279
0.052624546 0.69800001 -0.047729239 1.2608788e-38 363 279
0.054002665 0.69999999 -0.047865998 1.2058489e-38 364 279
0.055308893 0.70099998 -0.047934376 1.1966293e-38 365 279
0.056537982 0.70099998 -0.047934376 1.1688994e-38 366 279
0.057931885 0.70300001 -0.048071139 1.1688994e-38 367 279
0.059248637 0.704 -0.048139516 1.1136552e-38 368 279
0.060482983 0.704 -0.048139516 1.1044356e-38 369 279
0.061980337 0.70700002 -0.048344657 9.7640851e-39 370 279
0.063219935 0.70700002 -0.048344657 1.2806182e-38 371 279
0.064733058 0.70999998 -0.048549797 1.714804e-38 372 279
-0.01377068 0.71399999 -0.050075196 1.9269981e-38 309 280
-0.012518799 0.71399999 -0.050075196 1.9544752e-38 310 280
-0.011266919 0.71399999 -0.050075196 1.6317905e-38 311 280
-0.010001013 0.713 -0.050005067 1.6121227e-38 312 280
-0.0087263398 0.71100003 -0.049864799 1.4092923e-38 313 280
-0.0074691991 0.70999998 -0.049794663 1.6020339e-38 314 280
-0.0062243328 0.70999998 -0.049794663 1.6020339e-38 315 280
-0.0049654399 0.708 -0.049654398 1.6203992e-38 316 280
-0.0037188199 0.70700002 -0.049584266 1.6296187e-38 317 280
-0.0024757064 0.70599997 -0.04951413 1.6021761e-38 318 280
-0.0012378532 0.70599997 -0.04951413 1.6113957e-38 319 280
0 0.70300001 -0.049303733 1.6114313e-38 320 280
0.0012290865 0.70099998 -0.049163464 1.6114313e-38 321 280
0.0024546667 0.69999999 -0.049093332 1.611431e-38 322 280
0.0036714801 0.69800001 -0.048953064 1.611431e-38 323 280
0.0048953067 0.69800001 -0.048953064 1.5839171e-38 324 280
0.0061103669 0.69700003 -0.048882935 1.5562585e-38 325 280
0.00733244 0.69700003 -0.048882935 1.5745535e-38 326 280
0.0085422397 0.69599998 -0.048812799 1.5468588e-38 327 280
0.0097345067 0.69400001 -0.048672531 1.5284194e-38 328 280
0.01095132 0.69400001 -0.048672531 1.5007967e-38 329 280
0.012168133 0.69400001 -0.048672531 1.4731023e-38 330 280
0.013384946 0.69400001 -0.048672531 1.4638827e-38 331 280
0.01460176 0.69400001 -0.048672531 1.4913619e-38 332 280
0.015818574 0.69400001 -0.048672531 1.4821423e-38 333 280
0.01701084 0.69300002 -0.048602402 1.4728507e-38 334 280
0.018225901 0.69300002 -0.048602402 1.4636312e-38 335 280
0.01944096 0.69300002 -0.048602402 1.4635956e-38 336 280
0.020656019 0.69300002 -0.048602402 1.4359729e-38 337 280
0.021807959 0.69099998 -0.04846213 1.4542335e-38 338 280
0.023019511 0.69099998 -0.04846213 1.4542335e-38 339 280
0.024231065 0.69099998 -0.04846213 1.4542338e-38 340 280
0.025442619 0.69099998 -0.04846213 1.4542338e-38 341 280
0.026615599 0.69 -0.048391998 1.444942e-38 342 280
0.027825398 0.69 -0.048391998 1.4357225e-38 343 280
0.029035198 0.69 -0.048391998 1.4080637e-38 344 280
0.030288832 0.69099998 -0.04846213 1.3804051e-38 345 280
0.031500384 0.69099998 -0.04846213 1.3618942e-38 346 280
0.03280662 0.69300002 -0.048602402 1.3526388e-38 347 280
0.034021679 0.69300002 -0.048602402 1.3526744e-38 348 280
0.035236739 0.69300002 -0.048602402 1.3434548e-38 349 280
0.036451802 0.69300002 -0.048602402 1.3433479e-38 350 280
0.037666857 0.69300002 -0.048602402 1.3340925e-38 351 280
0.03888192 0.69300002 -0.048602402 1.2973237e-38 352 280
0.04009698 0.69300002 -0.048602402 1.288104e-38 353 280
0.041312039 0.69300002 -0.048602402 1.2697371e-38 354 280
0.042527102 0.69300002 -0.048602402 1.2605176e-38 355 280
0.043742158 0.69300002 -0.048602402 1.2788135e-38 356 280
0.044957221 0.69300002 -0.048602402 1.2604104e-38 357 280
0.04617228 0.69300002 -0.048602402 1.232933e-38 358 280
0.047455717 0.69400001 -0.048672531 1.2421526e-38 359 280
0.048882935 0.69700003 -0.048882935 1.2147461e-38 360 280
0.050176892 0.69800001 -0.048953064 1.2331851e-38 361 280
0.051400717 0.69800001 -0.048953064 1.2241801e-38 362 280
0.052624546 0.69800001 -0.048953064 1.2333996e-38 363 280
0.054002665 0.69999999 -0.049093332 1.2334703e-38 364 280
0.055308893 0.70099998 -0.049163464 1.2149953e-38 365 280
0.056537982 0.70099998 -0.049163464 1.214817e-38 366 280
0.057931885 0.70300001 -0.049303733 1.1871223e-38 367 280
0.059248637 0.704 -0.049373865 1.0861057e-38 368 280
0.060482983 0.704 -0.049373865 1.0768861e-38 369 280
0.062068 0.708 -0.049654398 9.8544857e-39 370 280
0.063309364 0.708 -0.049654398 1.2251213e-38 371 280
0.06455072 0.708 -0.049654398 1.7238435e-38 372 280
0.065792084 0.708 -0.049654398 1.8990152e-38 373 280
-0.01377068 0.71399999 -0.05132708 1.9269262e-38 309 281
-0.012518799 0.71399999 -0.05132708 1.9454357e-38 310 281
-0.011266919 0.71399999 -0.05132708 1.6411541e-38 311 281
-0.010001013 0.713 -0.051255193 1.6029756e-38 312 281
-0.0087263398 0.71100003 -0.051111419 1.427804e-38 313 281
-0.0074691991 0.70999998 -0.051039528 1.620438e-38 314 281
-0.0062243328 0.70999998 -0.051039528 1.6112184e-38 315 281
-0.0049654399 0.708 -0.050895758 1.6111443e-38 316 281
-0.0037188199 0.70700002 -0.050823875 1.6203639e-38 317 281
-0.0024757064 0.70599997 -0.050751984 1.6112509e-38 318 281
-0.0012378532 0.70599997 -0.050751984 1.6205064e-38 319 281
0 0.70300001 -0.050536323 1.6205411e-38 320 281
0.0012290865 0.70099998 -0.050392549 1.6205411e-38 321 281
0.0024546667 0.69999999 -0.050320663 1.6022099e-38 322 281
0.0036714801 0.69800001 -0.050176892 1.5929903e-38 323 281
0.0048953067 0.69800001 -0.050176892 1.5836997e-38 324 281
0.0061103669 0.69700003 -0.050105009 1.5744802e-38 325 281
0.00733244 0.69700003 -0.050105009 1.5559692e-38 326 281
0.0085422397 0.69599998 -0.050033119 1.5283465e-38 327 281
0.0097345067 0.69400001 -0.049889345 1.509836e-38 328 281
0.01095132 0.69400001 -0.049889345 1.4913969e-38 329 281
0.012168133 0.69400001 -0.049889345 1.4638111e-38 330 281
0.013384946 0.69400001 -0.049889345 1.4638111e-38 331 281
0.01460176 0.69400001 -0.049889345 1.4820704e-38 332 281
0.015795778 0.69300002 -0.049817458 1.4820704e-38 333 281
0.01701084 0.69300002 -0.049817458 1.4452643e-38 334 281
0.018225901 0.69300002 -0.049817458 1.4360448e-38 335 281
0.01944096 0.69300002 -0.049817458 1.4726353e-38 336 281
0.020656019 0.69300002 -0.049817458 1.4542322e-38 337 281
0.021807959 0.69099998 -0.049673684 1.4450127e-38 338 281
0.023019511 0.69099998 -0.049673684 1.4450127e-38 339 281
0.024231065 0.69099998 -0.049673684 1.4358297e-38 340 281
0.025442619 0.69099998 -0.049673684 1.4358297e-38 341 281
0.026615599 0.69 -0.049601797 1.4081716e-38 342 281
0.027825398 0.69 -0.049601797 1.398952e-38 343 281
0.029035198 0.69 -0.049601797 1.3804051e-38 344 281
0.030288832 0.69099998 -0.049673684 1.3619658e-38 345 281
0.031500384 0.69099998 -0.049673684 1.3710053e-38 346 281
0.03280662 0.69300002 -0.049817458 1.3617858e-38 347 281
0.033923492 0.69099998 -0.049673684 1.334235e-38 348 281
0.035135046 0.69099998 -0.049673684 1.3250154e-38 349 281
0.036451802 0.69300002 -0.049817458 1.3249448e-38 350 281
0.037666857 0.69300002 -0.049817458 1.3065415e-38 351 281
0.03888192 0.69300002 -0.049817458 1.2881037e-38 352 281
0.04009698 0.69300002 -0.049817458 1.2881037e-38 353 281
0.041312039 0.69300002 -0.049817458 1.2697727e-38 354 281
0.042527102 0.69300002 -0.049817458 1.2605173e-38 355 281
0.043742158 0.69300002 -0.049817458 1.260481e-38 356 281
0.044957221 0.69300002 -0.049817458 1.242006e-38 357 281
0.04617228 0.69300002 -0.049817458 1.1962327e-38 358 281
0.047455717 0.69400001 -0.049889345 1.2054523e-38 359 281
0.048812799 0.69599998 -0.050033119 1.2147084e-38 360 281
0.050105009 0.69700003 -0.050105009 1.2516227e-38 361 281
0.051327083 0.69700003 -0.050105009 1.2334352e-38 362 281
0.052624546 0.69800001 -0.050176892 1.2426549e-38 363 281
0.053848371 0.69800001 -0.050176892 1.2059561e-38 364 281
0.055229999 0.69999999 -0.050320663 1.2059561e-38 365 281
0.056457333 0.69999999 -0.050320663 1.1781549e-38 366 281
0.057767071 0.70099998 -0.050392549 1.1412766e-38 367 281
0.059164476 0.70300001 -0.050536323 1.0677018e-38 368 281
0.060482983 0.704 -0.050608214 1.0677018e-38 369 281
0.062068 0.708 -0.050895758 9.9448807e-39 370 281
0.063309364 0.708 -0.050895758 1.206538e-38 371 281
0.06455072 0.708 -0.050895758 1.714552e-38 372 281
0.065792084 0.708 -0.050895758 1.8897236e-38 373 281
-0.013751393 0.713 -0.052505318 1.9452219e-38 309 282
-0.012501267 0.713 -0.052505318 1.945472e-38 310 282
-0.011266919 0.71399999 -0.052578956 1.6135677e-38 311 282
-0.010001013 0.713 -0.052505318 1.5753889e-38 312 282
-0.0087263398 0.71100003 -0.052358042 1.4370955e-38 313 282
-0.0074797203 0.71100003 -0.052358042 1.6480964e-38 314 282
-0.0062243328 0.70999998 -0.052284397 1.611254e-38 315 282
-0.0049654399 0.708 -0.052137118 1.6112162e-38 316 282
-0.0037188199 0.70700002 -0.05206348 1.6112162e-38 317 282
-0.0024757064 0.70599997 -0.051989835 1.5745532e-38 318 282
-0.0012343467 0.704 -0.051842559 1.5745532e-38 319 282
0 0.70300001 -0.051768921 1.5745888e-38 320 282
0.0012290865 0.70099998 -0.051621638 1.5653333e-38 321 282
0.0024546667 0.69999999 -0.051547997 1.5837004e-38 322 282
0.0036819996 0.69999999 -0.051547997 1.5744449e-38 323 282
0.0048953067 0.69800001 -0.051400717 1.5468944e-38 324 282
0.0061103669 0.69700003 -0.051327083 1.5284194e-38 325 282
0.0073219193 0.69599998 -0.051253434 1.5282759e-38 326 282
0.0085422397 0.69599998 -0.051253434 1.5098366e-38 327 282
0.0097625591 0.69599998 -0.051253434 1.4913622e-38 328 282
0.01095132 0.69400001 -0.051106159 1.4637036e-38 329 282
0.012150601 0.69300002 -0.051032521 1.4544486e-38 330 282
0.01336566 0.69300002 -0.051032521 1.4636683e-38 331 282
0.01460176 0.69400001 -0.051106159 1.4728154e-38 332 282
0.015795778 0.69300002 -0.051032521 1.4635959e-38 333 282
0.01701084 0.69300002 -0.051032521 1.463524e-38 334 282
0.0181733 0.69099998 -0.050885238 1.445049e-38 335 282
0.019384852 0.69099998 -0.050885238 1.4357941e-38 336 282
0.020596405 0.69099998 -0.050885238 1.417391e-38 337 282
0.021807959 0.69099998 -0.050885238 1.417391e-38 338 282
0.023019511 0.69099998 -0.050885238 1.417391e-38 339 282
0.024231065 0.69099998 -0.050885238 1.4082436e-38 340 282
0.025442619 0.69099998 -0.050885238 1.3990239e-38 341 282
0.026615599 0.69 -0.050811596 1.3713656e-38 342 282
0.027825398 0.69 -0.050811596 1.362146e-38 343 282
0.029077278 0.69099998 -0.050885238 1.3436346e-38 344 282
0.030288832 0.69099998 -0.050885238 1.334415e-38 345 282
0.031591557 0.69300002 -0.051032521 1.3435267e-38 346 282
0.03280662 0.69300002 -0.051032521 1.3250877e-38 347 282
0.033923492 0.69099998 -0.050885238 1.3158687e-38 348 282
0.035135046 0.69099998 -0.050885238 1.3066133e-38 349 282
0.036451802 0.69300002 -0.051032521 1.3065062e-38 350 282
0.037666857 0.69300002 -0.051032521 1.2972867e-38 351 282
0.03888192 0.69300002 -0.051032521 1.2697725e-38 352 282
0.04009698 0.69300002 -0.051032521 1.2605529e-38 353 282
0.041312039 0.69300002 -0.051032521 1.2422217e-38 354 282
0.042527102 0.69300002 -0.051032521 1.2329662e-38 355 282
0.043742158 0.69300002 -0.051032521 1.2695927e-38 356 282
0.044957221 0.69300002 -0.051032521 1.2603731e-38 357 282
0.04617228 0.69300002 -0.051032521 1.1777583e-38 358 282
0.047455717 0.69400001 -0.051106159 1.1593192e-38 359 282
0.048812799 0.69599998 -0.051253434 1.1410971e-38 360 282
0.050105009 0.69700003 -0.051327083 1.1871589e-38 361 282
0.051327083 0.69700003 -0.051327083 1.1965221e-38 362 282
0.052624546 0.69800001 -0.051400717 1.2241448e-38 363 282
0.053848371 0.69800001 -0.051400717 1.2241804e-38 364 282
0.055229999 0.69999999 -0.051547997 1.2149608e-38 365 282
0.056457333 0.69999999 -0.051547997 1.1687925e-38 366 282
0.057767071 0.70099998 -0.051621638 1.1503532e-38 367 282
0.059164476 0.70300001 -0.051768921 1.0493716e-38 368 282
0.060482983 0.704 -0.051842559 1.040152e-38 369 282
0.061980337 0.70700002 -0.05206348 1.0496978e-38 370 282
0.063309364 0.708 -0.052137118 1.2710034e-38 371 282
0.064733058 0.70999998 -0.052284397 1.7604696e-38 372 282
0.065977924 0.70999998 -0.052284397 1.9172022e-38 373 282
-0.01371282 0.71100003 -0.053604662 1.9360023e-38 309 283
-0.0124662 0.71100003 -0.053604662 1.9362161e-38 310 283
-0.011251139 0.713 -0.053755447 1.6135314e-38 311 283
-0.010001013 0.713 -0.053755447 1.5844643e-38 312 283
-0.0087263398 0.71100003 -0.053604662 1.4553904e-38 313 283
-0.0074691991 0.70999998 -0.053529263 1.6389847e-38 314 283
-0.0062067998 0.708 -0.053378478 1.6113259e-38 315 283
-0.0049584266 0.70700002 -0.053303085 1.5928494e-38 316 283
-0.0037135598 0.70599997 -0.053227689 1.5836298e-38 317 283
-0.0024757064 0.70599997 -0.053227689 1.5653339e-38 318 283
-0.0012343467 0.704 -0.053076904 1.5653339e-38 319 283
0 0.70300001 -0.053001512 1.5560786e-38 320 283
0.0012290865 0.70099998 -0.052850723 1.5560786e-38 321 283
0.0024546667 0.69999999 -0.052775331 1.556007e-38 322 283
0.0036714801 0.69800001 -0.052624546 1.556007e-38 323 283
0.0048953067 0.69800001 -0.052624546 1.5284199e-38 324 283
0.0061103669 0.69700003 -0.052549154 1.5007614e-38 325 283
0.0073219193 0.69599998 -0.052473757 1.5097291e-38 326 283
0.0085422397 0.69599998 -0.052473757 1.5005096e-38 327 283
0.0097345067 0.69400001 -0.052322973 1.4820351e-38 328 283
0.01095132 0.69400001 -0.052322973 1.4728154e-38 329 283
0.012150601 0.69300002 -0.05224758 1.4452293e-38 330 283
0.01336566 0.69300002 -0.05224758 1.4452293e-38 331 283
0.014580719 0.69300002 -0.05224758 1.4635605e-38 332 283
0.015795778 0.69300002 -0.05224758 1.4451574e-38 333 283
0.01701084 0.69300002 -0.05224758 1.4726003e-38 334 283
0.0181733 0.69099998 -0.052096792 1.4449776e-38 335 283
0.019384852 0.69099998 -0.052096792 1.4357225e-38 336 283
0.020596405 0.69099998 -0.052096792 1.4265028e-38 337 283
0.021807959 0.69099998 -0.052096792 1.408136e-38 338 283
0.023019511 0.69099998 -0.052096792 1.408136e-38 339 283
0.024231065 0.69099998 -0.052096792 1.3990239e-38 340 283
0.025442619 0.69099998 -0.052096792 1.3713653e-38 341 283
0.026615599 0.69 -0.052021399 1.3805126e-38 342 283
0.027825398 0.69 -0.052021399 1.352854e-38 343 283
0.029161438 0.69300002 -0.05224758 1.3436343e-38 344 283
0.0303765 0.69300002 -0.05224758 1.3344148e-38 345 283
0.031591557 0.69300002 -0.05224758 1.3343795e-38 346 283
0.03280662 0.69300002 -0.05224758 1.3159403e-38 347 283
0.034021679 0.69300002 -0.05224758 1.3158334e-38 348 283
0.035236739 0.69300002 -0.05224758 1.3066138e-38 349 283
0.036451802 0.69300002 -0.05224758 1.2972516e-38 350 283
0.03755815 0.69099998 -0.052096792 1.2972516e-38 351 283
0.038769703 0.69099998 -0.052096792 1.2606248e-38 352 283
0.04009698 0.69300002 -0.05224758 1.2422217e-38 353 283
0.041312039 0.69300002 -0.05224758 1.2513333e-38 354 283
0.042527102 0.69300002 -0.05224758 1.2420779e-38 355 283
0.043742158 0.69300002 -0.05224758 1.2145274e-38 356 283
0.044957221 0.69300002 -0.05224758 1.1776491e-38 357 283
0.04617228 0.69300002 -0.05224758 1.14088e-38 358 283
0.047455717 0.69400001 -0.052322973 1.1316605e-38 359 283
0.048672531 0.69400001 -0.052322973 1.1041109e-38 360 283
0.050033119 0.69599998 -0.052473757 1.1410252e-38 361 283
0.051327083 0.69700003 -0.052549154 1.1963422e-38 362 283
0.052549154 0.69700003 -0.052549154 1.2331845e-38 363 283
0.053848371 0.69800001 -0.052624546 1.2240729e-38 364 283
0.055229999 0.69999999 -0.052775331 1.2056338e-38 365 283
0.056457333 0.69999999 -0.052775331 1.1412065e-38 366 283
0.05768466 0.69999999 -0.052775331 1.1227315e-38 367 283
0.058996156 0.70099998 -0.052850723 1.0402602e-38 368 283
0.060482983 0.704 -0.053076904 1.0586633e-38 369 283
0.061980337 0.70700002 -0.053303085 1.1050152e-38 370 283
0.063309364 0.708 -0.053378478 1.363163e-38 371 283
0.064733058 0.70999998 -0.053529263 1.7696539e-38 372 283
0.065977924 0.70999998 -0.053529263 1.9172027e-38 373 283
-0.01371282 0.71100003 -0.054851279 1.9544051e-38 309 284
-0.0124662 0.71100003 -0.054851279 1.9545471e-38 310 284
-0.011251139 0.713 -0.055005573 1.6410819e-38 311 284
-0.0099729598 0.71100003 -0.054851279 1.6304542e-38 312 284
-0.0087263398 0.71100003 -0.054851279 1.4737216e-38 313 284
-0.0074691991 0.70999998 -0.054774132 1.6389497e-38 314 284
-0.0062067998 0.708 -0.054619838 1.611255e-38 315 284
-0.0049584266 0.70700002 -0.054542694 1.5835948e-38 316 284
-0.0037135598 0.70599997 -0.054465543 1.5743751e-38 317 284
-0.0024757064 0.70599997 -0.054465543 1.5468593e-38 318 284
-0.0012343467 0.704 -0.054311249 1.5468593e-38 319 284
0 0.70300001 -0.054234106 1.5284922e-38 320 284
0.0012290865 0.70099998 -0.054079808 1.5100531e-38 321 284
0.0024546667 0.69999999 -0.054002665 1.5099812e-38 322 284
0.0036714801 0.69800001 -0.053848371 1.5099812e-38 323 284
0.0048953067 0.69800001 -0.053848371 1.5098732e-38 324 284
0.0061103669 0.69700003 -0.053771228 1.4914701e-38 325 284
0.0073219193 0.69599998 -0.053694077 1.482107e-38 326 284
0.0085176928 0.69400001 -0.053539783 1.4637039e-38 327 284
0.0097345067 0.69400001 -0.053539783 1.4452646e-38 328 284
0.01095132 0.69400001 -0.053539783 1.4360092e-38 329 284
0.012168133 0.69400001 -0.053539783 1.4359376e-38 330 284
0.01336566 0.69300002 -0.053462639 1.4359376e-38 331 284
0.014580719 0.69300002 -0.053462639 1.4542688e-38 332 284
0.015795778 0.69300002 -0.053462639 1.4450492e-38 333 284
0.01701084 0.69300002 -0.053462639 1.4449774e-38 334 284
0.0181733 0.69099998 -0.053308345 1.4357578e-38 335 284
0.019384852 0.69099998 -0.053308345 1.4265028e-38 336 284
0.020596405 0.69099998 -0.053308345 1.4172832e-38 337 284
0.021807959 0.69099998 -0.053308345 1.3897687e-38 338 284
0.023019511 0.69099998 -0.053308345 1.3897687e-38 339 284
0.024195999 0.69 -0.053231198 1.3713653e-38 340 284
0.025405798 0.69 -0.053231198 1.3621458e-38 341 284
0.026615599 0.69 -0.053231198 1.3528896e-38 342 284
0.027825398 0.69 -0.053231198 1.3436699e-38 343 284
0.029161438 0.69300002 -0.053462639 1.3252671e-38 344 284
0.030288832 0.69099998 -0.053308345 1.306864e-38 345 284
0.031500384 0.69099998 -0.053308345 1.325088e-38 346 284
0.032711938 0.69099998 -0.053308345 1.3158684e-38 347 284
0.034021679 0.69300002 -0.053462639 1.2790626e-38 348 284
0.035236739 0.69300002 -0.053462639 1.2698072e-38 349 284
0.036451802 0.69300002 -0.053462639 1.260481e-38 350 284
0.03755815 0.69099998 -0.053308345 1.2512614e-38 351 284
0.038769703 0.69099998 -0.053308345 1.2237469e-38 352 284
0.039981257 0.69099998 -0.053308345 1.2145274e-38 353 284
0.041192811 0.69099998 -0.053308345 1.2053078e-38 354 284
0.042527102 0.69300002 -0.053462639 1.1960522e-38 355 284
0.043742158 0.69300002 -0.053462639 1.1683943e-38 356 284
0.044957221 0.69300002 -0.053462639 1.1499551e-38 357 284
0.04617228 0.69300002 -0.053462639 1.1131504e-38 358 284
0.047455717 0.69400001 -0.053539783 1.0947473e-38 359 284
0.048672531 0.69400001 -0.053539783 1.0121677e-38 360 284
0.050033119 0.69599998 -0.053694077 1.0213874e-38 361 284
0.051327083 0.69700003 -0.053771228 1.1319854e-38 362 284
0.052549154 0.69700003 -0.053771228 1.1688277e-38 363 284
0.053848371 0.69800001 -0.053848371 1.2055622e-38 364 284
0.055229999 0.69999999 -0.054002665 1.187087e-38 365 284
0.056457333 0.69999999 -0.054002665 1.1226597e-38 366 284
0.05768466 0.69999999 -0.054002665 1.1503182e-38 367 284
0.058996156 0.70099998 -0.054079808 1.0495871e-38 368 284
0.060225245 0.70099998 -0.054079808 1.0680262e-38 369 284
0.061629668 0.70300001 -0.054234106 1.1511127e-38 370 284
0.063488193 0.70999998 -0.054774132 1.4184801e-38 371 284
0.064733058 0.70999998 -0.054774132 1.7513582e-38 372 284
0.065977924 0.70999998 -0.054774132 1.8803962e-38 373 284
-0.012501267 0.713 -0.056255698 1.9544752e-38 310 285
-0.011251139 0.713 -0.056255698 1.6963274e-38 311 285
-0.0099729598 0.71100003 -0.056097899 1.639854e-38 312 285
-0.0087263398 0.71100003 -0.056097899 1.4554267e-38 313 285
-0.0074691991 0.70999998 -0.056018997 1.5929961e-38 314 285
-0.0062067998 0.708 -0.055861197 1.5653374e-38 315 285
-0.0049584266 0.70700002 -0.055782299 1.5744828e-38 316 285
-0.0037135598 0.70599997 -0.055703394 1.546824e-38 317 285
-0.0024757064 0.70599997 -0.055703394 1.5193083e-38 318 285
-0.0012343467 0.704 -0.055545598 1.5100528e-38 319 285
0 0.70300001 -0.0554667 1.5099815e-38 320 285
0.0012290865 0.70099998 -0.055308893 1.5007261e-38 321 285
0.0024546667 0.69999999 -0.055229999 1.4915066e-38 322 285
0.0036714801 0.69800001 -0.0550722 1.4915066e-38 323 285
0.0048882933 0.69700003 -0.054993302 1.4821796e-38 324 285
0.0061103669 0.69700003 -0.054993302 1.4637405e-38 325 285
0.0073219193 0.69599998 -0.054914396 1.4453009e-38 326 285
0.0085176928 0.69400001 -0.054756597 1.4268978e-38 327 285
0.0097345067 0.69400001 -0.054756597 1.4084584e-38 328 285
0.01095132 0.69400001 -0.054756597 1.3992388e-38 329 285
