# .PCD v.7 - Point Cloud Data file format
FIELDS x y z rgb imX imY
SIZE 4 4 4 4 4 4
TYPE F F F F F F
COUNT 1 1 1 1 1 1
WIDTH 828
HEIGHT 1
VIEWPOINT 0 0 0 1 0 0 0
POINTS 828
DATA ascii
0.028908957 0.68699998 -0.054204296 1.3251264e-38 344 285
0.030157333 0.68800002 -0.054283202 1.3251264e-38 345 285
0.031363625 0.68800002 -0.054283202 1.3067596e-38 346 285
0.032569919 0.68800002 -0.054283202 1.3160152e-38 347 285
0.033923492 0.69099998 -0.054519895 1.2884651e-38 348 285
0.035236739 0.69300002 -0.054677699 1.2977205e-38 349 285
0.036504399 0.69400001 -0.054756597 1.3069045e-38 350 285
0.037721213 0.69400001 -0.054756597 1.316124e-38 351 285
0.038938027 0.69400001 -0.054756597 1.3438179e-38 352 285
0.040270556 0.69599998 -0.054914396 1.3622572e-38 353 285
0.041550495 0.69700003 -0.054993302 1.3257745e-38 354 285
0.042833932 0.69800001 -0.0550722 1.3073714e-38 355 285
0.04405776 0.69800001 -0.0550722 1.3720919e-38 356 285
0.045281585 0.69800001 -0.0550722 1.6855212e-38 357 285
0.046638668 0.69999999 -0.055229999 1.8252217e-38 358 285
0.047865998 0.69999999 -0.055229999 1.926601e-38 359 285
-0.030814834 0.70300001 -0.056699295 1.733387e-38 295 286
-0.029582238 0.70300001 -0.056699295 1.3549141e-38 296 286
-0.028349647 0.70300001 -0.056699295 1.0138263e-38 297 286
-0.027117053 0.70300001 -0.056699295 1.2334369e-38 298 286
-0.025773998 0.69999999 -0.056457333 1.1135826e-38 299 286
-0.024476532 0.69800001 -0.056296028 1.278814e-38 300 286
-0.023252707 0.69800001 -0.056296028 1.3064729e-38 301 286
-0.02199732 0.69700003 -0.056215372 1.2881779e-38 302 286
-0.020775247 0.69700003 -0.056215372 1.2881779e-38 303 286
-0.019525118 0.69599998 -0.056134716 1.2882486e-38 304 286
-0.018304799 0.69599998 -0.056134716 1.2974681e-38 305 286
-0.017035386 0.69400001 -0.055973411 1.2607697e-38 306 286
-0.015795778 0.69300002 -0.055892758 1.2515501e-38 307 286
-0.014580719 0.69300002 -0.055892758 1.2239637e-38 308 286
-0.013327086 0.69099998 -0.055731449 1.2331833e-38 309 286
-0.012115533 0.69099998 -0.055731449 1.2057044e-38 310 286
-0.010888199 0.69 -0.055650797 1.1964489e-38 311 286
-0.0096783992 0.69 -0.055650797 1.1963419e-38 312 286
-0.0084440531 0.68800002 -0.055489492 1.1963419e-38 313 286
-0.0072377604 0.68800002 -0.055489492 1.1873025e-38 314 286
-0.0060314666 0.68800002 -0.055489492 1.1873025e-38 315 286
-0.0048251734 0.68800002 -0.055489492 1.1598233e-38 316 286
-0.0036188802 0.68800002 -0.055489492 1.1506038e-38 317 286
-0.0024090798 0.68699998 -0.055408835 1.1322367e-38 318 286
-0.0012045399 0.68699998 -0.055408835 1.1045779e-38 319 286
0 0.68699998 -0.055408835 1.1411321e-38 320 286
0.0012045399 0.68699998 -0.055408835 1.1042539e-38 321 286
0.0024055731 0.68599999 -0.055328183 1.1500999e-38 322 286
0.00359784 0.68400002 -0.055166878 1.1593194e-38 323 286
0.0047901068 0.68300003 -0.055086225 1.1684311e-38 324 286
0.0059876335 0.68300003 -0.055086225 1.1684311e-38 325 286
0.0071851597 0.68300003 -0.055086225 1.1591762e-38 326 286
0.0083826864 0.68300003 -0.055086225 1.1407731e-38 327 286
0.0095802136 0.68300003 -0.055086225 1.1040037e-38 328 286
0.010761959 0.68199998 -0.055005573 1.1040037e-38 329 286
0.011957732 0.68199998 -0.055005573 1.1223353e-38 330 286
0.013153506 0.68199998 -0.055005573 1.1131157e-38 331 286
0.01434928 0.68199998 -0.055005573 1.1405583e-38 332 286
0.015567848 0.68300003 -0.055086225 1.1866201e-38 333 286
0.016765373 0.68300003 -0.055086225 1.2509756e-38 334 286
0.017962901 0.68300003 -0.055086225 1.2694148e-38 335 286
0.019160427 0.68300003 -0.055086225 1.297e-38 336 286
0.020387759 0.68400002 -0.055166878 1.3246226e-38 337 286
0.021650158 0.68599999 -0.055328183 1.3063633e-38 338 286
0.022886258 0.68699998 -0.055408835 1.3155829e-38 339 286
0.024090799 0.68699998 -0.055408835 1.3064713e-38 340 286
0.025295338 0.68699998 -0.055408835 1.3064713e-38 341 286
0.026499879 0.68699998 -0.055408835 1.3157981e-38 342 286
0.027704418 0.68699998 -0.055408835 1.3250177e-38 343 286
0.028908957 0.68699998 -0.055408835 1.3067586e-38 344 286
0.030157333 0.68800002 -0.055489492 1.3251617e-38 345 286
0.031454802 0.69 -0.055650797 1.279316e-38 346 286
0.032664597 0.69 -0.055650797 1.2700964e-38 347 286
0.033923492 0.69099998 -0.055731449 1.2883205e-38 348 286
0.035236739 0.69300002 -0.055892758 1.29754e-38 349 286
0.036451802 0.69300002 -0.055892758 1.3160515e-38 350 286
0.037721213 0.69400001 -0.055973411 1.325271e-38 351 286
0.038938027 0.69400001 -0.055973411 1.3345978e-38 352 286
0.040270556 0.69599998 -0.056134716 1.3622925e-38 353 286
0.041550495 0.69700003 -0.056215372 1.3258101e-38 354 286
0.042772565 0.69700003 -0.056215372 1.307407e-38 355 286
0.04405776 0.69800001 -0.056296028 1.3446853e-38 356 286
0.04541133 0.69999999 -0.056457333 1.6581504e-38 357 286
0.046638668 0.69999999 -0.056457333 1.8159665e-38 358 286
0.047865998 0.69999999 -0.056457333 1.9358208e-38 359 286
-0.029582238 0.70300001 -0.057931885 1.2625744e-38 296 287
-0.028268991 0.70099998 -0.057767071 1.0136462e-38 297 287
-0.027039904 0.70099998 -0.057767071 1.2058878e-38 298 287
-0.025700359 0.69800001 -0.057519849 1.1413867e-38 299 287
-0.024476532 0.69800001 -0.057519849 1.2146032e-38 300 287
-0.023252707 0.69800001 -0.057519849 1.2053835e-38 301 287
-0.02199732 0.69700003 -0.05743745 1.2054188e-38 302 287
-0.020775247 0.69700003 -0.05743745 1.2146385e-38 303 287
-0.019525118 0.69599998 -0.057355035 1.205634e-38 304 287
-0.018304799 0.69599998 -0.057355035 1.205634e-38 305 287
-0.017035386 0.69400001 -0.057190225 1.2148167e-38 306 287
-0.015795778 0.69300002 -0.057107817 1.2148167e-38 307 287
-0.014580719 0.69300002 -0.057107817 1.2056325e-38 308 287
-0.013327086 0.69099998 -0.056942999 1.2056325e-38 309 287
-0.012097999 0.69 -0.0568606 1.2148521e-38 310 287
-0.010888199 0.69 -0.0568606 1.2056325e-38 311 287
-0.0096503468 0.68800002 -0.056695789 1.2055972e-38 312 287
-0.0084440531 0.68800002 -0.056695789 1.2055972e-38 313 287
-0.0072377604 0.68800002 -0.056695789 1.1873023e-38 314 287
-0.0060314666 0.68800002 -0.056695789 1.1965218e-38 315 287
-0.0048251734 0.68800002 -0.056695789 1.1965574e-38 316 287
-0.0036188802 0.68800002 -0.056695789 1.1780824e-38 317 287
-0.0024090798 0.68699998 -0.056613375 1.1505315e-38 318 287
-0.0012045399 0.68699998 -0.056613375 1.1228728e-38 319 287
0 0.68699998 -0.056613375 1.1043258e-38 320 287
0.0012045399 0.68699998 -0.056613375 1.1043258e-38 321 287
0.0024055731 0.68599999 -0.056530971 1.1409166e-38 322 287
0.00359784 0.68400002 -0.056366164 1.1409166e-38 323 287
0.0047901068 0.68300003 -0.056283753 1.1500643e-38 324 287
0.0059876335 0.68300003 -0.056283753 1.1408447e-38 325 287
0.0071851597 0.68300003 -0.056283753 1.1316254e-38 326 287
0.0083826864 0.68300003 -0.056283753 1.1224059e-38 327 287
0.0095802136 0.68300003 -0.056283753 1.0948558e-38 328 287
0.010761959 0.68199998 -0.056201346 1.0764527e-38 329 287
0.011957732 0.68199998 -0.056201346 1.076453e-38 330 287
0.013153506 0.68199998 -0.056201346 1.076453e-38 331 287
0.01434928 0.68199998 -0.056201346 1.0671981e-38 332 287
0.015545053 0.68199998 -0.056201346 1.0764176e-38 333 287
0.016765373 0.68300003 -0.056283753 1.1223355e-38 334 287
0.017962901 0.68300003 -0.056283753 1.1499942e-38 335 287
0.019160427 0.68300003 -0.056283753 1.2050947e-38 336 287
0.020387759 0.68400002 -0.056366164 1.2235697e-38 337 287
0.021650158 0.68599999 -0.056530971 1.251263e-38 338 287
0.022886258 0.68699998 -0.056613375 1.2604825e-38 339 287
0.024090799 0.68699998 -0.056613375 1.2697374e-38 340 287
0.025295338 0.68699998 -0.056613375 1.2881767e-38 341 287
0.026499879 0.68699998 -0.056613375 1.2882483e-38 342 287
0.027704418 0.68699998 -0.056613375 1.2882483e-38 343 287
0.028951041 0.68800002 -0.056695789 1.2699536e-38 344 287
0.030157333 0.68800002 -0.056695789 1.2699536e-38 345 287
0.031363625 0.68800002 -0.056695789 1.2699536e-38 346 287
0.032664597 0.69 -0.0568606 1.2699536e-38 347 287
0.033923492 0.69099998 -0.056942999 1.2516227e-38 348 287
0.035236739 0.69300002 -0.057107817 1.2700258e-38 349 287
0.036451802 0.69300002 -0.057107817 1.2609864e-38 350 287
0.037721213 0.69400001 -0.057190225 1.2794256e-38 351 287
0.038938027 0.69400001 -0.057190225 1.3162678e-38 352 287
0.040270556 0.69599998 -0.057355035 1.3439625e-38 353 287
0.041550495 0.69700003 -0.05743745 1.3073732e-38 354 287
0.042772565 0.69700003 -0.05743745 1.3073732e-38 355 287
0.043994639 0.69700003 -0.05743745 1.3263555e-38 356 287
0.045281585 0.69800001 -0.057519849 1.6306009e-38 357 287
0.046638668 0.69999999 -0.05768466 1.8159668e-38 358 287
-0.029498078 0.70099998 -0.058996156 1.2623226e-38 296 288
-0.028268991 0.70099998 -0.058996156 1.0594922e-38 297 288
-0.027039904 0.70099998 -0.058996156 1.1874843e-38 298 288
-0.025700359 0.69800001 -0.058743682 1.1782287e-38 299 288
-0.024476532 0.69800001 -0.058743682 1.2054185e-38 300 288
-0.023252707 0.69800001 -0.058743682 1.1870154e-38 301 288
-0.02199732 0.69700003 -0.05865952 1.1961624e-38 302 288
-0.020775247 0.69700003 -0.05865952 1.1961624e-38 303 288
-0.019525118 0.69599998 -0.058575355 1.1870502e-38 304 288
-0.018304799 0.69599998 -0.058575355 1.2147087e-38 305 288
-0.017035386 0.69400001 -0.058407038 1.2147084e-38 306 288
-0.015795778 0.69300002 -0.058322877 1.2147084e-38 307 288
-0.014580719 0.69300002 -0.058322877 1.1963772e-38 308 288
-0.013327086 0.69099998 -0.058154557 1.2055969e-38 309 288
-0.012097999 0.69 -0.058070395 1.2056688e-38 310 288
-0.010888199 0.69 -0.058070395 1.1964492e-38 311 288
-0.0096503468 0.68800002 -0.057902083 1.2146731e-38 312 288
-0.0084440531 0.68800002 -0.057902083 1.2146731e-38 313 288
-0.0072377604 0.68800002 -0.057902083 1.2055622e-38 314 288
-0.0060226996 0.68699998 -0.057817914 1.2055622e-38 315 288
-0.0048181596 0.68699998 -0.057817914 1.1871589e-38 316 288
-0.0036188802 0.68800002 -0.057902083 1.1595362e-38 317 288
-0.0024090798 0.68699998 -0.057817914 1.1595362e-38 318 288
-0.0012045399 0.68699998 -0.057817914 1.1318417e-38 319 288
0 0.68699998 -0.057817914 1.104326e-38 320 288
0.0012045399 0.68699998 -0.057817914 1.0674479e-38 321 288
0.0024055731 0.68599999 -0.057733759 1.1407731e-38 322 288
0.00360836 0.68599999 -0.057733759 1.1407731e-38 323 288
0.0047971201 0.68400002 -0.057565439 1.1407731e-38 324 288
0.0059876335 0.68300003 -0.057481278 1.1315536e-38 325 288
0.0071851597 0.68300003 -0.057481278 1.1040388e-38 326 288
0.0083826864 0.68300003 -0.057481278 1.0948192e-38 327 288
0.0095802136 0.68300003 -0.057481278 1.0948911e-38 328 288
0.010761959 0.68199998 -0.05739712 1.1041107e-38 329 288
0.011957732 0.68199998 -0.05739712 1.0582287e-38 330 288
0.013153506 0.68199998 -0.05739712 1.0490091e-38 331 288
0.01434928 0.68199998 -0.05739712 1.0490091e-38 332 288
0.015545053 0.68199998 -0.05739712 1.0397895e-38 333 288
0.016740825 0.68199998 -0.05739712 1.131445e-38 334 288
0.017962901 0.68300003 -0.057481278 1.1499201e-38 335 288
0.019160427 0.68300003 -0.057481278 1.1866536e-38 336 288
0.020357953 0.68300003 -0.057481278 1.2235317e-38 337 288
0.02158704 0.68400002 -0.057565439 1.2236395e-38 338 288
0.022852944 0.68599999 -0.057733759 1.2420784e-38 339 288
0.024090799 0.68699998 -0.057817914 1.2421861e-38 340 288
0.025295338 0.68699998 -0.057817914 1.2605892e-38 341 288
0.026499879 0.68699998 -0.057817914 1.2697727e-38 342 288
0.027704418 0.68699998 -0.057817914 1.2789924e-38 343 288
0.028951041 0.68800002 -0.057902083 1.2881764e-38 344 288
0.030157333 0.68800002 -0.057902083 1.2881764e-38 345 288
0.031363625 0.68800002 -0.057902083 1.2698089e-38 346 288
0.032664597 0.69 -0.058070395 1.2882839e-38 347 288
0.033923492 0.69099998 -0.058154557 1.2516574e-38 348 288
0.035236739 0.69300002 -0.058322877 1.2516574e-38 349 288
0.036451802 0.69300002 -0.058322877 1.288536e-38 350 288
0.037721213 0.69400001 -0.058407038 1.2977555e-38 351 288
0.038938027 0.69400001 -0.058407038 1.3162312e-38 352 288
0.040270556 0.69599998 -0.058575355 1.3347064e-38 353 288
0.041550495 0.69700003 -0.05865952 1.3074085e-38 354 288
0.042772565 0.69700003 -0.05865952 1.298189e-38 355 288
0.043994639 0.69700003 -0.05865952 1.3263181e-38 356 288
0.045281585 0.69800001 -0.058743682 1.6398192e-38 357 288
-0.029582238 0.70300001 -0.06039707 1.2622507e-38 296 289
-0.028349647 0.70300001 -0.06039707 1.0501649e-38 297 289
-0.027039904 0.70099998 -0.060225245 1.1506776e-38 298 289
-0.025700359 0.69800001 -0.059967503 1.1506776e-38 299 289
-0.024476532 0.69800001 -0.059967503 1.1687561e-38 300 289
-0.023252707 0.69800001 -0.059967503 1.1410615e-38 301 289
-0.02199732 0.69700003 -0.05988159 1.1317701e-38 302 289
-0.020775247 0.69700003 -0.05988159 1.1409896e-38 303 289
-0.019525118 0.69599998 -0.059795678 1.1318419e-38 304 289
-0.0182522 0.69400001 -0.059623852 1.1410615e-38 305 289
-0.017035386 0.69400001 -0.059623852 1.177903e-38 306 289
-0.015795778 0.69300002 -0.05953794 1.1871226e-38 307 289
-0.014538639 0.69099998 -0.059366114 1.2054889e-38 308 289
-0.0133078 0.69 -0.059280202 1.2147084e-38 309 289
-0.012097999 0.69 -0.059280202 1.2055969e-38 310 289
-0.010856641 0.68800002 -0.059108373 1.2055969e-38 311 289
-0.0096503468 0.68800002 -0.059108373 1.2146734e-38 312 289
-0.0084440531 0.68800002 -0.059108373 1.1870507e-38 313 289
-0.0072377604 0.68800002 -0.059108373 1.1777603e-38 314 289
-0.0060226996 0.68699998 -0.059022456 1.1777603e-38 315 289
-0.0048181596 0.68699998 -0.059022456 1.1686482e-38 316 289
-0.0036136196 0.68699998 -0.059022456 1.1502092e-38 317 289
-0.0024090798 0.68699998 -0.059022456 1.1227656e-38 318 289
-0.0012045399 0.68699998 -0.059022456 1.113546e-38 319 289
0 0.68599999 -0.058936544 1.1225851e-38 320 289
0.0012027866 0.68599999 -0.058936544 1.104146e-38 321 289
0.0024055731 0.68599999 -0.058936544 1.0948192e-38 322 289
0.00359784 0.68400002 -0.058764715 1.0948192e-38 323 289
0.0047971201 0.68400002 -0.058764715 1.1040393e-38 324 289
0.0059876335 0.68300003 -0.05867881 1.0947839e-38 325 289
0.0071851597 0.68300003 -0.05867881 1.0949267e-38 326 289
0.0083826864 0.68300003 -0.05867881 1.0949267e-38 327 289
0.0095802136 0.68300003 -0.05867881 1.0765596e-38 328 289
0.010761959 0.68199998 -0.058592889 1.0765596e-38 329 289
0.011957732 0.68199998 -0.058592889 1.0490091e-38 330 289
0.013153506 0.68199998 -0.058592889 1.0397895e-38 331 289
0.01434928 0.68199998 -0.058592889 1.0764877e-38 332 289
0.015545053 0.68199998 -0.058592889 1.0949267e-38 333 289
0.016740825 0.68199998 -0.058592889 1.0856345e-38 334 289
0.017962901 0.68300003 -0.05867881 1.1041097e-38 335 289
0.019160427 0.68300003 -0.05867881 1.1316602e-38 336 289
0.020357953 0.68300003 -0.05867881 1.1408798e-38 337 289
0.02158704 0.68400002 -0.058764715 1.1684664e-38 338 289
0.022786319 0.68400002 -0.058764715 1.1869057e-38 339 289
0.024055731 0.68599999 -0.058936544 1.1962324e-38 340 289
0.025295338 0.68699998 -0.059022456 1.205452e-38 341 289
0.026499879 0.68699998 -0.059022456 1.2330384e-38 342 289
0.027704418 0.68699998 -0.059022456 1.242258e-38 343 289
0.028951041 0.68800002 -0.059108373 1.2422226e-38 344 289
0.030157333 0.68800002 -0.059108373 1.2514782e-38 345 289
0.031454802 0.69 -0.059280202 1.2515498e-38 346 289
0.032711938 0.69099998 -0.059366114 1.2607694e-38 347 289
0.033923492 0.69099998 -0.059366114 1.2515498e-38 348 289
0.035236739 0.69300002 -0.05953794 1.269989e-38 349 289
0.036451802 0.69300002 -0.05953794 1.2701694e-38 350 289
0.037721213 0.69400001 -0.059623852 1.279389e-38 351 289
0.038938027 0.69400001 -0.059623852 1.2978647e-38 352 289
0.040270556 0.69599998 -0.059795678 1.334743e-38 353 289
0.041490879 0.69599998 -0.059795678 1.3074451e-38 354 289
0.042772565 0.69700003 -0.05988159 1.3166648e-38 355 289
0.043994639 0.69700003 -0.05988159 1.372416e-38 356 289
0.045281585 0.69800001 -0.059967503 1.6858812e-38 357 289
-0.029624319 0.704 -0.061717331 1.2898731e-38 296 290
-0.028349647 0.70300001 -0.061629668 1.0317253e-38 297 290
-0.027117053 0.70300001 -0.061629668 1.0862129e-38 298 290
-0.025810819 0.70099998 -0.06145433 1.1231271e-38 299 290
-0.024476532 0.69800001 -0.061191335 1.1596084e-38 300 290
-0.023252707 0.69800001 -0.061191335 1.1135107e-38 301 290
-0.02199732 0.69700003 -0.061103668 1.1133308e-38 302 290
-0.020775247 0.69700003 -0.061103668 1.1041112e-38 303 290
-0.019553173 0.69700003 -0.061103668 1.1132589e-38 304 290
-0.0182522 0.69400001 -0.060840666 1.1501013e-38 305 290
-0.017035386 0.69400001 -0.060840666 1.1685757e-38 306 290
-0.015795778 0.69300002 -0.060752999 1.1870507e-38 307 290
-0.014538639 0.69099998 -0.060577665 1.2054536e-38 308 290
-0.0133078 0.69 -0.060489997 1.2054536e-38 309 290
-0.012097999 0.69 -0.060489997 1.1687908e-38 310 290
-0.010856641 0.68800002 -0.060314666 1.1595713e-38 311 290
-0.0096503468 0.68800002 -0.060314666 1.1778312e-38 312 290
-0.0084440531 0.68800002 -0.060314666 1.1593562e-38 313 290
-0.0072272392 0.68699998 -0.060226995 1.1501016e-38 314 290
-0.0060226996 0.68699998 -0.060226995 1.1408819e-38 315 290
-0.0048181596 0.68699998 -0.060226995 1.1317703e-38 316 290
-0.0036136196 0.68699998 -0.060226995 1.1317703e-38 317 290
-0.0024090798 0.68699998 -0.060226995 1.1042905e-38 318 290
-0.0012045399 0.68699998 -0.060226995 1.1042905e-38 319 290
0 0.68599999 -0.060139328 1.1133655e-38 320 290
0.0012027866 0.68599999 -0.060139328 1.0949264e-38 321 290
0.0024055731 0.68599999 -0.060139328 1.076488e-38 322 290
0.00359784 0.68400002 -0.059964001 1.076488e-38 323 290
0.0047971201 0.68400002 -0.059964001 1.0580854e-38 324 290
0.0059876335 0.68300003 -0.059876334 1.067305e-38 325 290
0.0071851597 0.68300003 -0.059876334 1.0489735e-38 326 290
0.0083826864 0.68300003 -0.059876334 1.0581931e-38 327 290
0.0095802136 0.68300003 -0.059876334 1.0398261e-38 328 290
0.01077774 0.68300003 -0.059876334 1.021423e-38 329 290
0.011975267 0.68300003 -0.059876334 1.0213874e-38 330 290
0.013153506 0.68199998 -0.059788663 1.0213874e-38 331 290
0.01434928 0.68199998 -0.059788663 1.0397539e-38 332 290
0.015545053 0.68199998 -0.059788663 1.0489735e-38 333 290
0.016740825 0.68199998 -0.059788663 1.0766305e-38 334 290
0.017962901 0.68300003 -0.059876334 1.0766305e-38 335 290
0.019160427 0.68300003 -0.059876334 1.1224406e-38 336 290
0.020357953 0.68300003 -0.059876334 1.1224406e-38 337 290
0.02158704 0.68400002 -0.059964001 1.1224409e-38 338 290
0.022786319 0.68400002 -0.059964001 1.1316605e-38 339 290
0.024055731 0.68599999 -0.060139328 1.1502071e-38 340 290
0.025295338 0.68699998 -0.060226995 1.1594268e-38 341 290
0.026499879 0.68699998 -0.060226995 1.1779012e-38 342 290
0.027704418 0.68699998 -0.060226995 1.2055239e-38 343 290
0.028951041 0.68800002 -0.060314666 1.2330031e-38 344 290
0.030157333 0.68800002 -0.060314666 1.2422226e-38 345 290
0.031454802 0.69 -0.060489997 1.2422949e-38 346 290
0.032711938 0.69099998 -0.060577665 1.2515145e-38 347 290
0.033923492 0.69099998 -0.060577665 1.2331833e-38 348 290
0.035236739 0.69300002 -0.060752999 1.2516224e-38 349 290
0.036451802 0.69300002 -0.060752999 1.279281e-38 350 290
0.037721213 0.69400001 -0.060840666 1.2885007e-38 351 290
0.038938027 0.69400001 -0.060840666 1.2886454e-38 352 290
0.040270556 0.69599998 -0.061015997 1.3347074e-38 353 290
0.041490879 0.69599998 -0.061015997 1.2983699e-38 354 290
0.042772565 0.69700003 -0.061103668 1.3076253e-38 355 290
0.043994639 0.69700003 -0.061103668 1.4186583e-38 356 290
0.045281585 0.69800001 -0.061191335 1.7229039e-38 357 290
-0.029624319 0.704 -0.062951677 1.3360791e-38 296 291
-0.028349647 0.70300001 -0.062862262 9.9495526e-39 297 291
-0.027117053 0.70300001 -0.062862262 1.0586268e-38 298 291
-0.025810819 0.70099998 -0.062683418 1.1139441e-38 299 291
-0.024546666 0.69999999 -0.062593997 1.1412063e-38 300 291
-0.023252707 0.69800001 -0.062415157 1.104328e-38 301 291
-0.02199732 0.69700003 -0.062325738 1.0674851e-38 302 291
-0.020775247 0.69700003 -0.062325738 1.0582655e-38 303 291
-0.019525118 0.69599998 -0.062236317 1.0765602e-38 304 291
-0.0182522 0.69400001 -0.06205748 1.0949993e-38 305 291
-0.017035386 0.69400001 -0.06205748 1.1410247e-38 306 291
-0.015795778 0.69300002 -0.061968062 1.1502801e-38 307 291
-0.014538639 0.69099998 -0.061789215 1.168611e-38 308 291
-0.0133078 0.69 -0.061699796 1.1593915e-38 309 291
-0.012097999 0.69 -0.061699796 1.1593915e-38 310 291
-0.010856641 0.68800002 -0.06152096 1.1501718e-38 311 291
-0.0096503468 0.68800002 -0.06152096 1.1501369e-38 312 291
-0.0084440531 0.68800002 -0.06152096 1.1224782e-38 313 291
-0.0072272392 0.68699998 -0.061431535 1.1223706e-38 314 291
-0.0060226996 0.68699998 -0.061431535 1.1223706e-38 315 291
-0.0048181596 0.68699998 -0.061431535 1.0857794e-38 316 291
-0.0036136196 0.68699998 -0.061431535 1.094999e-38 317 291
-0.0024090798 0.68699998 -0.061431535 1.1041463e-38 318 291
-0.0012045399 0.68699998 -0.061431535 1.1041463e-38 319 291
0 0.68599999 -0.061342116 1.1040741e-38 320 291
0.00119928 0.68400002 -0.061163284 1.1040741e-38 321 291
0.0023985601 0.68400002 -0.061163284 1.0581203e-38 322 291
0.00359784 0.68400002 -0.061163284 1.0581203e-38 323 291
0.0047971201 0.68400002 -0.061163284 1.0305345e-38 324 291
0.0059876335 0.68300003 -0.061073858 1.0397542e-38 325 291
0.0071851597 0.68300003 -0.061073858 1.0397189e-38 326 291
0.0083826864 0.68300003 -0.061073858 1.0397189e-38 327 291
0.0095802136 0.68300003 -0.061073858 1.0397192e-38 328 291
0.01077774 0.68300003 -0.061073858 1.021244e-38 329 291
0.011975267 0.68300003 -0.061073858 9.9369325e-39 330 291
0.013153506 0.68199998 -0.060984433 9.8447369e-39 331 291
0.01434928 0.68199998 -0.060984433 1.039539e-38 332 291
0.015545053 0.68199998 -0.060984433 1.0671978e-38 333 291
0.016740825 0.68199998 -0.060984433 1.0948195e-38 334 291
0.017962901 0.68300003 -0.061073858 1.1040391e-38 335 291
0.01918848 0.68400002 -0.061163284 1.0948192e-38 336 291
0.020387759 0.68400002 -0.061163284 1.0855997e-38 337 291
0.02158704 0.68400002 -0.061163284 1.0762728e-38 338 291
0.022852944 0.68599999 -0.061342116 1.0670532e-38 339 291
0.024090799 0.68699998 -0.061431535 1.1041109e-38 340 291
0.025295338 0.68699998 -0.061431535 1.1133305e-38 341 291
0.026499879 0.68699998 -0.061431535 1.1593912e-38 342 291
0.027704418 0.68699998 -0.061431535 1.1778662e-38 343 291
0.028951041 0.68800002 -0.06152096 1.2328959e-38 344 291
0.030157333 0.68800002 -0.06152096 1.2328959e-38 345 291
0.031454802 0.69 -0.061699796 1.232968e-38 346 291
0.032711938 0.69099998 -0.061789215 1.2514073e-38 347 291
0.033923492 0.69099998 -0.061789215 1.2422949e-38 348 291
0.035236739 0.69300002 -0.061968062 1.2607341e-38 349 291
0.036451802 0.69300002 -0.061968062 1.2517299e-38 350 291
0.037721213 0.69400001 -0.06205748 1.2701692e-38 351 291
0.038938027 0.69400001 -0.06205748 1.297865e-38 352 291
0.040270556 0.69599998 -0.062236317 1.3347074e-38 353 291
0.041490879 0.69599998 -0.062236317 1.2799668e-38 354 291
0.042772565 0.69700003 -0.062325738 1.2799668e-38 355 291
0.043994639 0.69700003 -0.062325738 1.4280577e-38 356 291
0.045281585 0.69800001 -0.062415157 1.7507424e-38 357 291
-0.029624319 0.704 -0.064186029 1.4466064e-38 296 292
-0.028349647 0.70300001 -0.064094849 1.0409455e-38 297 292
-0.027117053 0.70300001 -0.064094849 1.0954694e-38 298 292
-0.025810819 0.70099998 -0.063912503 1.1139085e-38 299 292
-0.024581732 0.70099998 -0.063912503 1.1229824e-38 300 292
-0.023252707 0.69800001 -0.063638985 1.0952877e-38 301 292
-0.02199732 0.69700003 -0.06354782 1.104326e-38 302 292
-0.020775247 0.69700003 -0.06354782 1.0858869e-38 303 292
-0.019525118 0.69599998 -0.063456632 1.0583005e-38 304 292
-0.0182522 0.69400001 -0.063274294 1.0675201e-38 305 292
-0.017035386 0.69400001 -0.063274294 1.1042909e-38 306 292
-0.015795778 0.69300002 -0.063183114 1.1135104e-38 307 292
-0.014580719 0.69300002 -0.063183114 1.1042188e-38 308 292
-0.013327086 0.69099998 -0.063000768 1.1042188e-38 309 292
-0.012097999 0.69 -0.062909603 1.0675204e-38 310 292
-0.010856641 0.68800002 -0.06272725 1.0582649e-38 311 292
-0.0096503468 0.68800002 -0.06272725 1.1040756e-38 312 292
-0.0084440531 0.68800002 -0.06272725 1.076453e-38 313 292
-0.0072377604 0.68800002 -0.06272725 1.0396472e-38 314 292
-0.0060226996 0.68699998 -0.062636077 1.0303917e-38 315 292
-0.0048181596 0.68699998 -0.062636077 1.002985e-38 316 292
-0.0036136196 0.68699998 -0.062636077 1.0122047e-38 317 292
-0.0024090798 0.68699998 -0.062636077 1.0397189e-38 318 292
-0.0012045399 0.68699998 -0.062636077 1.0489385e-38 319 292
0 0.68599999 -0.062544905 1.0580852e-38 320 292
0.00119928 0.68400002 -0.062362559 1.0673047e-38 321 292
0.0023985601 0.68400002 -0.062362559 1.0397539e-38 322 292
0.00359784 0.68400002 -0.062362559 1.0397539e-38 323 292
0.0047971201 0.68400002 -0.062362559 1.0397192e-38 324 292
0.0059876335 0.68300003 -0.06227139 1.0304636e-38 325 292
0.0071851597 0.68300003 -0.06227139 1.0120971e-38 326 292
0.0083826864 0.68300003 -0.06227139 9.9365794e-39 327 292
0.0095802136 0.68300003 -0.06227139 9.478125e-39 328 292
0.01077774 0.68300003 -0.06227139 9.293375e-39 329 292
0.011975267 0.68300003 -0.06227139 9.0171468e-39 330 292
0.013172794 0.68300003 -0.06227139 9.2011794e-39 331 292
0.014370319 0.68300003 -0.06227139 9.2926617e-39 332 292
0.015567848 0.68300003 -0.06227139 9.6610841e-39 333 292
0.016765373 0.68300003 -0.06227139 1.0121694e-38 334 292
0.017962901 0.68300003 -0.06227139 1.0121694e-38 335 292
0.01918848 0.68400002 -0.062362559 1.0397189e-38 336 292
0.020387759 0.68400002 -0.062362559 1.0212796e-38 337 292
0.02158704 0.68400002 -0.062362559 1.0119173e-38 338 292
0.022786319 0.68400002 -0.062362559 1.0119173e-38 339 292
0.024055731 0.68599999 -0.062544905 1.0122044e-38 340 292
0.025295338 0.68699998 -0.062636077 1.0491185e-38 341 292
0.026499879 0.68699998 -0.062636077 1.1318049e-38 342 292
0.027704418 0.68699998 -0.062636077 1.1502801e-38 343 292
0.028951041 0.68800002 -0.06272725 1.2053454e-38 344 292
0.030157333 0.68800002 -0.06272725 1.2237485e-38 345 292
0.031454802 0.69 -0.062909603 1.2054173e-38 346 292
0.032711938 0.69099998 -0.063000768 1.2238564e-38 347 292
0.033923492 0.69099998 -0.063000768 1.2055969e-38 348 292
0.035236739 0.69300002 -0.063183114 1.2332555e-38 349 292
0.036451802 0.69300002 -0.063183114 1.2333996e-38 350 292
0.037721213 0.69400001 -0.063274294 1.2518748e-38 351 292
0.039050236 0.69599998 -0.063456632 1.2612031e-38 352 292
0.040270556 0.69599998 -0.063456632 1.307301e-38 353 292
0.041490879 0.69599998 -0.063456632 1.2800386e-38 354 292
0.042772565 0.69700003 -0.06354782 1.2892582e-38 355 292
0.043994639 0.69700003 -0.06354782 1.4832674e-38 356 292
0.045281585 0.69800001 -0.063638985 1.8243914e-38 357 292
-0.028349647 0.70300001 -0.065327443 1.1700193e-38 297 293
-0.027117053 0.70300001 -0.065327443 1.141423e-38 298 293
-0.025810819 0.70099998 -0.065141588 1.1598622e-38 299 293
-0.024581732 0.70099998 -0.065141588 1.1322382e-38 300 293
-0.023252707 0.69800001 -0.06486281 1.1137991e-38 301 293
-0.02199732 0.69700003 -0.064769886 1.0769567e-38 302 293
-0.020775247 0.69700003 -0.064769886 1.0492622e-38 303 293
-0.019525118 0.69599998 -0.064676955 1.0674848e-38 304 293
-0.018304799 0.69599998 -0.064676955 1.0674848e-38 305 293
-0.017035386 0.69400001 -0.064491108 1.0949993e-38 306 293
-0.015818574 0.69400001 -0.064491108 1.1042188e-38 307 293
-0.014580719 0.69300002 -0.064398177 1.0857797e-38 308 293
-0.013327086 0.69099998 -0.06421233 1.0765602e-38 309 293
-0.012097999 0.69 -0.064119399 1.0764527e-38 310 293
-0.010888199 0.69 -0.064119399 1.0764527e-38 311 293
-0.0096503468 0.68800002 -0.063933544 1.0396466e-38 312 293
-0.0084440531 0.68800002 -0.063933544 1.0396466e-38 313 293
-0.0072377604 0.68800002 -0.063933544 1.002733e-38 314 293
-0.0060226996 0.68699998 -0.06384062 1.002733e-38 315 293
-0.0048181596 0.68699998 -0.06384062 1.0026611e-38 316 293
-0.0036136196 0.68699998 -0.06384062 1.0118807e-38 317 293
-0.0024090798 0.68699998 -0.06384062 1.0395387e-38 318 293
-0.0012045399 0.68699998 -0.06384062 1.0580137e-38 319 293
0 0.68599999 -0.063747689 1.0487583e-38 320 293
0.00119928 0.68400002 -0.063561834 1.0580137e-38 321 293
0.0023985601 0.68400002 -0.063561834 1.0580137e-38 322 293
0.00359784 0.68400002 -0.063561834 1.0672334e-38 323 293
0.0047971201 0.68400002 -0.063561834 1.0122394e-38 324 293
0.0059876335 0.68300003 -0.063468911 1.0122394e-38 325 293
0.0071851597 0.68300003 -0.063468911 9.4784753e-39 326 293
0.0083826864 0.68300003 -0.063468911 9.3862797e-39 327 293
0.0095802136 0.68300003 -0.063468911 9.3837784e-39 328 293
0.01077774 0.68300003 -0.063468911 9.0149958e-39 329 293
0.011975267 0.68300003 -0.063468911 8.8302486e-39 330 293
0.013172794 0.68300003 -0.063468911 8.8302486e-39 331 293
0.014370319 0.68300003 -0.063468911 9.1064656e-39 332 293
0.015567848 0.68300003 -0.063468911 9.5678039e-39 333 293
0.016765373 0.68300003 -0.063468911 9.9362136e-39 334 293
0.017962901 0.68300003 -0.063468911 1.021244e-38 335 293
0.01918848 0.68400002 -0.063561834 1.0487583e-38 336 293
0.020387759 0.68400002 -0.063561834 1.0303191e-38 337 293
0.02158704 0.68400002 -0.063561834 1.0118804e-38 338 293
0.022786319 0.68400002 -0.063561834 1.0118804e-38 339 293
0.024055731 0.68599999 -0.063747689 1.0397895e-38 340 293
0.025295338 0.68699998 -0.06384062 1.0674482e-38 341 293
0.026499879 0.68699998 -0.06384062 1.13184e-38 342 293
0.027704418 0.68699998 -0.06384062 1.1410956e-38 343 293
0.028951041 0.68800002 -0.063933544 1.1961255e-38 344 293
0.030244999 0.69 -0.064119399 1.2053451e-38 345 293
0.031500384 0.69099998 -0.06421233 1.2237129e-38 346 293
0.032711938 0.69099998 -0.06421233 1.2329683e-38 347 293
0.033923492 0.69099998 -0.06421233 1.214817e-38 348 293
0.035236739 0.69300002 -0.064398177 1.2332201e-38 349 293
0.036504399 0.69400001 -0.064491108 1.2333634e-38 350 293
0.037721213 0.69400001 -0.064491108 1.2702057e-38 351 293
0.039050236 0.69599998 -0.064676955 1.2613106e-38 352 293
0.040270556 0.69599998 -0.064676955 1.2889691e-38 353 293
0.041550495 0.69700003 -0.064769886 1.3075178e-38 354 293
0.042772565 0.69700003 -0.064769886 1.3628352e-38 355 293
0.043994639 0.69700003 -0.064769886 1.5294378e-38 356 293
0.045216713 0.69700003 -0.064769886 1.8889649e-38 357 293
-0.028349647 0.70300001 -0.066560037 1.2438476e-38 297 294
-0.027117053 0.70300001 -0.066560037 1.1138723e-38 298 294
-0.025810819 0.70099998 -0.066370681 1.1876288e-38 299 294
-0.024546666 0.69999999 -0.066275999 1.1967386e-38 300 294
-0.023252707 0.69800001 -0.066086642 1.1414212e-38 301 294
-0.02202888 0.69800001 -0.066086642 1.1319849e-38 302 294
-0.020775247 0.69700003 -0.06599196 1.1135457e-38 303 294
-0.019525118 0.69599998 -0.065897278 1.0858513e-38 304 294
-0.018304799 0.69599998 -0.065897278 1.0858513e-38 305 294
-0.017035386 0.69400001 -0.065707922 1.0674848e-38 306 294
-0.015818574 0.69400001 -0.065707922 1.0582652e-38 307 294
-0.014580719 0.69300002 -0.06561324 1.0397908e-38 308 294
-0.013327086 0.69099998 -0.065423876 1.0213877e-38 309 294
-0.012097999 0.69 -0.065329194 9.8458159e-39 310 294
-0.010888199 0.69 -0.065329194 1.0029847e-38 311 294
-0.0096503468 0.68800002 -0.065139838 9.84546e-39 312 294
-0.0084440531 0.68800002 -0.065139838 9.5688731e-39 313 294
-0.0072377604 0.68800002 -0.065139838 9.4756068e-39 314 294
-0.0060226996 0.68699998 -0.065045156 9.2908568e-39 315 294
-0.0048181596 0.68699998 -0.065045156 8.924954e-39 316 294
-0.0036136196 0.68699998 -0.065045156 9.2011822e-39 317 294
-0.0024090798 0.68699998 -0.065045156 9.6607156e-39 318 294
-0.0012045399 0.68699998 -0.065045156 9.7532699e-39 319 294
0 0.68599999 -0.064950474 9.9365766e-39 320 294
0.00119928 0.68400002 -0.064761117 1.0029131e-38 321 294
0.0023985601 0.68400002 -0.064761117 9.5706681e-39 322 294
0.00359784 0.68400002 -0.064761117 9.847255e-39 323 294
0.0047971201 0.68400002 -0.064761117 9.847255e-39 324 294
0.0059964 0.68400002 -0.064761117 9.5706681e-39 325 294
0.0071851597 0.68300003 -0.064666435 9.9365822e-39 326 294
0.0083826864 0.68300003 -0.064666435 9.5678011e-39 327 294
0.0095802136 0.68300003 -0.064666435 9.1079131e-39 328 294
0.01077774 0.68300003 -0.064666435 8.739132e-39 329 294
0.011975267 0.68300003 -0.064666435 8.0962835e-39 330 294
0.013172794 0.68300003 -0.064666435 8.0962835e-39 331 294
0.014370319 0.68300003 -0.064666435 8.464343e-39 332 294
0.015567848 0.68300003 -0.064666435 8.8331241e-39 333 294
0.016765373 0.68300003 -0.064666435 9.2926561e-39 334 294
0.0179892 0.68400002 -0.064761117 9.5692416e-39 335 294
0.01918848 0.68400002 -0.064761117 9.9358605e-39 336 294
0.020387759 0.68400002 -0.064761117 9.7514693e-39 337 294
0.021650158 0.68599999 -0.064950474 9.5681514e-39 338 294
0.022852944 0.68599999 -0.064950474 9.9369325e-39 339 294
0.024055731 0.68599999 -0.064950474 9.8468823e-39 340 294
0.025295338 0.68699998 -0.065045156 1.030786e-38 341 294
0.026499879 0.68699998 -0.065045156 1.1042542e-38 342 294
0.027704418 0.68699998 -0.065045156 1.1226573e-38 343 294
0.028951041 0.68800002 -0.065139838 1.1502445e-38 344 294
0.030157333 0.68800002 -0.065139838 1.1686476e-38 345 294
0.031454802 0.69 -0.065329194 1.177903e-38 346 294
0.032711938 0.69099998 -0.065423876 1.1871226e-38 347 294
0.033923492 0.69099998 -0.065423876 1.205634e-38 348 294
0.035236739 0.69300002 -0.06561324 1.2148536e-38 349 294
0.036504399 0.69400001 -0.065707922 1.2058138e-38 350 294
0.037721213 0.69400001 -0.065707922 1.2518758e-38 351 294
0.039050236 0.69599998 -0.065897278 1.2245767e-38 352 294
0.040270556 0.69599998 -0.065897278 1.3075529e-38 353 294
0.041490879 0.69599998 -0.065897278 1.3260647e-38 354 294
0.042772565 0.69700003 -0.06599196 1.4366636e-38 355 294
0.043994639 0.69700003 -0.06599196 1.6308177e-38 356 294
0.045216713 0.69700003 -0.06599196 1.9535024e-38 357 294
-0.028349647 0.70300001 -0.067792632 1.2809409e-38 297 295
-0.027117053 0.70300001 -0.067792632 1.1416006e-38 298 295
-0.025810819 0.70099998 -0.067599766 1.2337964e-38 299 295
-0.024546666 0.69999999 -0.067503333 1.2061372e-38 300 295
-0.023252707 0.69800001 -0.06731046 1.169295e-38 301 295
-0.02202888 0.69800001 -0.06731046 1.1505329e-38 302 295
-0.020805053 0.69800001 -0.06731046 1.0952514e-38 303 295
-0.019553173 0.69700003 -0.067214034 1.0675567e-38 304 295
-0.018304799 0.69599998 -0.067117594 1.0491536e-38 305 295
-0.017035386 0.69400001 -0.066924736 1.0491536e-38 306 295
-0.015818574 0.69400001 -0.066924736 1.0307144e-38 307 295
-0.014580719 0.69300002 -0.066828303 1.021423e-38 308 295
-0.013327086 0.69099998 -0.06663543 1.0029478e-38 309 295
-0.012097999 0.69 -0.066538997 9.7543335e-39 310 295
-0.010888199 0.69 -0.066538997 9.6621379e-39 311 295
-0.0096503468 0.68800002 -0.066346131 9.6614218e-39 312 295
-0.0084440531 0.68800002 -0.066346131 9.4770306e-39 313 295
-0.0072377604 0.68800002 -0.066346131 9.2000905e-39 314 295
-0.0060226996 0.68699998 -0.066249698 9.1078949e-39 315 295
-0.0048181596 0.68699998 -0.066249698 9.1086138e-39 316 295
-0.0036136196 0.68699998 -0.066249698 9.2933652e-39 317 295
-0.0024090798 0.68699998 -0.066249698 9.6614246e-39 318 295
-0.0012045399 0.68699998 -0.066249698 9.6614246e-39 319 295
0 0.68599999 -0.066153266 9.844381e-39 320 295
0.00119928 0.68400002 -0.0659604 9.844381e-39 321 295
0.0023985601 0.68400002 -0.0659604 9.753986e-39 322 295
0.00359784 0.68400002 -0.0659604 9.8461816e-39 323 295
0.0047971201 0.68400002 -0.0659604 9.6632225e-39 324 295
0.0059964 0.68400002 -0.0659604 9.5706681e-39 325 295
0.0071851597 0.68300003 -0.065863967 9.6610687e-39 326 295
0.0083826864 0.68300003 -0.065863967 9.5688731e-39 327 295
0.0095802136 0.68300003 -0.065863967 8.742355e-39 328 295
0.01077774 0.68300003 -0.065863967 8.5579637e-39 329 295
0.011975267 0.68300003 -0.065863967 8.0977087e-39 330 295
0.013172794 0.68300003 -0.065863967 8.005513e-39 331 295
0.014370319 0.68300003 -0.065863967 8.3717746e-39 332 295
0.015567848 0.68300003 -0.065863967 8.7405571e-39 333 295
0.016765373 0.68300003 -0.065863967 9.2000905e-39 334 295
0.0179892 0.68400002 -0.0659604 9.4766774e-39 335 295
0.01918848 0.68400002 -0.0659604 9.7525413e-39 336 295
0.020387759 0.68400002 -0.0659604 9.4759544e-39 337 295
0.021650158 0.68599999 -0.066153266 9.5685073e-39 338 295
0.022852944 0.68599999 -0.066153266 9.8447341e-39 339 295
0.024055731 0.68599999 -0.066153266 1.0214579e-38 340 295
0.025295338 0.68699998 -0.066249698 1.0490807e-38 341 295
0.026499879 0.68699998 -0.066249698 1.1132937e-38 342 295
0.027704418 0.68699998 -0.066249698 1.1225491e-38 343 295
0.028908957 0.68699998 -0.066249698 1.1501718e-38 344 295
0.030157333 0.68800002 -0.066346131 1.168611e-38 345 295
0.031454802 0.69 -0.066538997 1.1686829e-38 346 295
0.032711938 0.69099998 -0.06663543 1.187122e-38 347 295
0.034021679 0.69300002 -0.066828303 1.1964139e-38 348 295
0.035287585 0.69400001 -0.066924736 1.2148889e-38 349 295
0.036504399 0.69400001 -0.066924736 1.1966661e-38 350 295
0.037721213 0.69400001 -0.066924736 1.2335445e-38 351 295
0.039050236 0.69599998 -0.067117594 1.2155367e-38 352 295
0.040270556 0.69599998 -0.067117594 1.2708541e-38 353 295
0.041490879 0.69599998 -0.067117594 1.3445759e-38 354 295
0.042588469 0.69400001 -0.066924736 1.5474063e-38 355 295
0.043805279 0.69400001 -0.066924736 1.6772396e-38 356 295
-0.028349647 0.70300001 -0.069025226 1.428634e-38 297 296
-0.027117053 0.70300001 -0.069025226 1.2706745e-38 298 296
-0.025810819 0.70099998 -0.068828844 1.279894e-38 299 296
-0.024581732 0.70099998 -0.068828844 1.2613825e-38 300 296
-0.023319334 0.69999999 -0.068730667 1.206101e-38 301 296
-0.02202888 0.69800001 -0.068534292 1.196594e-38 302 296
-0.020805053 0.69800001 -0.068534292 1.1412766e-38 303 296
-0.019553173 0.69700003 -0.068436109 1.0677722e-38 304 296
-0.018304799 0.69599998 -0.068337917 1.0308939e-38 305 296
-0.017035386 0.69400001 -0.068141542 1.0399703e-38 306 296
-0.015818574 0.69400001 -0.068141542 1.0215312e-38 307 296
-0.014580719 0.69300002 -0.068043359 9.9390849e-39 308 296
-0.013327086 0.69099998 -0.067846984 9.7543335e-39 309 296
-0.012097999 0.69 -0.0677488 9.4788284e-39 310 296
-0.010856641 0.68800002 -0.067552425 9.3866328e-39 311 296
-0.0096503468 0.68800002 -0.067552425 9.2933624e-39 312 296
-0.0084440531 0.68800002 -0.067552425 9.2011653e-39 313 296
-0.0072377604 0.68800002 -0.067552425 9.0178531e-39 314 296
-0.0060226996 0.68699998 -0.067454241 8.9252987e-39 315 296
-0.0048181596 0.68699998 -0.067454241 9.0178503e-39 316 296
-0.00360836 0.68599999 -0.06735605 9.2940784e-39 317 296
-0.0024055731 0.68599999 -0.06735605 9.3859139e-39 318 296
-0.0012027866 0.68599999 -0.06735605 9.2933596e-39 319 296
0 0.68599999 -0.06735605 9.4763243e-39 320 296
0.00119928 0.68400002 -0.067159683 9.5685199e-39 321 296
0.0023985601 0.68400002 -0.067159683 9.3866454e-39 322 296
0.00359784 0.68400002 -0.067159683 9.5710367e-39 323 296
0.0047971201 0.68400002 -0.067159683 9.4791914e-39 324 296
0.0059964 0.68400002 -0.067159683 9.3869957e-39 325 296
0.0071851597 0.68300003 -0.067061491 9.5710241e-39 326 296
0.0083826864 0.68300003 -0.067061491 9.4788284e-39 327 296
0.0095802136 0.68300003 -0.067061491 9.1107662e-39 328 296
0.01077774 0.68300003 -0.067061491 8.9263735e-39 329 296
0.011975267 0.68300003 -0.067061491 8.4650436e-39 330 296
0.013172794 0.68300003 -0.067061491 8.372848e-39 331 296
0.014370319 0.68300003 -0.067061491 8.3717788e-39 332 296
0.015567848 0.68300003 -0.067061491 8.7405599e-39 333 296
0.016765373 0.68300003 -0.067061491 9.1086194e-39 334 296
0.0179892 0.68400002 -0.067159683 9.293012e-39 335 296
0.01918848 0.68400002 -0.067159683 9.5688703e-39 336 296
0.020387759 0.68400002 -0.067159683 9.3844776e-39 337 296
0.021650158 0.68599999 -0.06735605 9.4770278e-39 338 296
0.022852944 0.68599999 -0.06735605 9.7536146e-39 339 296
0.024055731 0.68599999 -0.06735605 1.0123102e-38 340 296
0.025295338 0.68699998 -0.067454241 1.0307495e-38 341 296
0.026499879 0.68699998 -0.067454241 1.104146e-38 342 296
0.027704418 0.68699998 -0.067454241 1.1133655e-38 343 296
0.028908957 0.68699998 -0.067454241 1.1318405e-38 344 296
0.030157333 0.68800002 -0.067552425 1.1686829e-38 345 296
0.031454802 0.69 -0.0677488 1.1595713e-38 346 296
0.032711938 0.69099998 -0.067846984 1.1687908e-38 347 296
0.034021679 0.69300002 -0.068043359 1.1598233e-38 348 296
0.035287585 0.69400001 -0.068141542 1.1690429e-38 349 296
0.036504399 0.69400001 -0.068141542 1.1599681e-38 350 296
0.037721213 0.69400001 -0.068141542 1.20603e-38 351 296
0.039050236 0.69599998 -0.068337917 1.2156089e-38 352 296
0.040270556 0.69599998 -0.068337917 1.2433035e-38 353 296
0.041490879 0.69599998 -0.068337917 1.3630872e-38 354 296
0.042588469 0.69400001 -0.068141542 1.6765523e-38 355 296
0.043805279 0.69400001 -0.068141542 1.6774197e-38 356 296
-0.027117053 0.70300001 -0.070257813 1.4276594e-38 298 297
-0.025810819 0.70099998 -0.070057929 1.2893301e-38 299 297
-0.024546666 0.69999999 -0.069957994 1.3166998e-38 300 297
-0.023319334 0.69999999 -0.069957994 1.2613825e-38 301 297
-0.022091998 0.69999999 -0.069957994 1.2060291e-38 302 297
-0.020864666 0.69999999 -0.069957994 1.1598952e-38 303 297
-0.019581227 0.69800001 -0.069758117 1.113833e-38 304 297
-0.018331099 0.69700003 -0.069658175 1.0585156e-38 305 297
-0.017084479 0.69599998 -0.069558233 1.0124548e-38 306 297
-0.015818574 0.69400001 -0.069358356 1.0032353e-38 307 297
-0.014580719 0.69300002 -0.069258414 9.6639372e-39 308 297
-0.01336566 0.69300002 -0.069258414 9.5717401e-39 309 297
-0.012097999 0.69 -0.068958595 9.4788284e-39 310 297
-0.010856641 0.68800002 -0.068758719 9.3866328e-39 311 297
-0.0096503468 0.68800002 -0.068758719 9.2940812e-39 312 297
-0.0084440531 0.68800002 -0.068758719 9.2018856e-39 313 297
-0.0072272392 0.68699998 -0.068658777 9.2018856e-39 314 297
-0.0060226996 0.68699998 -0.068658777 9.2018856e-39 315 297
-0.0048181596 0.68699998 -0.068658777 9.2937155e-39 316 297
-0.00360836 0.68599999 -0.068558842 9.3859111e-39 317 297
-0.0024055731 0.68599999 -0.068558842 9.4770306e-39 318 297
-0.0012027866 0.68599999 -0.068558842 9.4770306e-39 319 297
0 0.68599999 -0.068558842 9.293012e-39 320 297
0.00119928 0.68400002 -0.068358958 9.3852077e-39 321 297
0.0023985601 0.68400002 -0.068358958 9.019665e-39 322 297
0.00359784 0.68400002 -0.068358958 9.1118606e-39 323 297
0.0047971201 0.68400002 -0.068358958 9.295526e-39 324 297
0.0059964 0.68400002 -0.068358958 9.295526e-39 325 297
0.0071851597 0.68300003 -0.068259016 9.2958791e-39 326 297
0.0083826864 0.68300003 -0.068259016 9.2958791e-39 327 297
0.0095802136 0.68300003 -0.068259016 9.2029618e-39 328 297
0.01077774 0.68300003 -0.068259016 9.0185705e-39 329 297
0.011975267 0.68300003 -0.068259016 8.5579609e-39 330 297
0.013172794 0.68300003 -0.068259016 8.3735697e-39 331 297
0.014370319 0.68300003 -0.068259016 8.2803049e-39 332 297
0.015567848 0.68300003 -0.068259016 8.4646961e-39 333 297
0.016765373 0.68300003 -0.068259016 9.1086194e-39 334 297
0.0179892 0.68400002 -0.068358958 9.3852077e-39 335 297
0.01918848 0.68400002 -0.068358958 9.6614218e-39 336 297
0.020387759 0.68400002 -0.068358958 9.5692262e-39 337 297
0.021650158 0.68599999 -0.068558842 9.8450872e-39 338 297
0.022852944 0.68599999 -0.068558842 1.0121674e-38 339 297
0.024055731 0.68599999 -0.068558842 1.0397888e-38 340 297
0.025295338 0.68699998 -0.068658777 1.058264e-38 341 297
0.026499879 0.68699998 -0.068658777 1.1133646e-38 342 297
0.027704418 0.68699998 -0.068658777 1.1409872e-38 343 297
0.028951041 0.68800002 -0.068758719 1.1502071e-38 344 297
0.030157333 0.68800002 -0.068758719 1.1594268e-38 345 297
0.031454802 0.69 -0.068958595 1.1686829e-38 346 297
0.032711938 0.69099998 -0.069058537 1.187122e-38 347 297
0.034021679 0.69300002 -0.069258414 1.1597878e-38 348 297
0.035287585 0.69400001 -0.069358356 1.1690432e-38 349 297
0.036504399 0.69400001 -0.069358356 1.1507848e-38 350 297
0.037721213 0.69400001 -0.069358356 1.1784795e-38 351 297
0.039050236 0.69599998 -0.069558233 1.1972426e-38 352 297
0.040270556 0.69599998 -0.069558233 1.25256e-38 353 297
0.041490879 0.69599998 -0.069558233 1.418586e-38 354 297
0.042711195 0.69599998 -0.069558233 1.7228317e-38 355 297
-0.025810819 0.70099998 -0.071287021 1.3264614e-38 299 298
-0.024546666 0.69999999 -0.071185328 1.3718733e-38 300 298
-0.023319334 0.69999999 -0.071185328 1.3073364e-38 301 298
-0.022091998 0.69999999 -0.071185328 1.242871e-38 302 298
-0.020864666 0.69999999 -0.071185328 1.17837e-38 303 298
-0.019581227 0.69800001 -0.07098195 1.1139773e-38 304 298
-0.018331099 0.69700003 -0.070880257 1.0494404e-38 305 298
-0.017084479 0.69599998 -0.070778556 1.0124914e-38 306 298
-0.015818574 0.69400001 -0.07057517 9.8486871e-39 307 298
-0.01460176 0.69400001 -0.07057517 9.6646616e-39 308 298
-0.01336566 0.69300002 -0.070473477 9.4802718e-39 309 298
-0.012115533 0.69099998 -0.070270091 9.5706681e-39 310 298
-0.010856641 0.68800002 -0.06996502 9.4784725e-39 311 298
-0.0096503468 0.68800002 -0.06996502 9.2940812e-39 312 298
-0.0084440531 0.68800002 -0.06996502 9.2940812e-39 313 298
-0.0072272392 0.68699998 -0.069863312 9.2940812e-39 314 298
-0.0060226996 0.68699998 -0.069863312 9.2940812e-39 315 298
-0.0048181596 0.68699998 -0.069863312 9.4770306e-39 316 298
-0.0036136196 0.68699998 -0.069863312 9.5692262e-39 317 298
-0.0024090798 0.68699998 -0.069863312 9.4766774e-39 318 298
-0.0012027866 0.68599999 -0.069761619 9.4766774e-39 319 298
0 0.68599999 -0.069761619 9.2011794e-39 320 298
0.00119928 0.68400002 -0.06955824 9.293375e-39 321 298
0.0023985601 0.68400002 -0.06955824 9.20298e-39 322 298
0.00359784 0.68400002 -0.06955824 9.2951757e-39 323 298
0.0047971201 0.68400002 -0.06955824 9.4788438e-39 324 298
0.0059964 0.68400002 -0.06955824 9.4788438e-39 325 298
0.0071851597 0.68300003 -0.069456547 9.2962448e-39 326 298
0.0083826864 0.68300003 -0.069456547 9.2962448e-39 327 298
0.0095802136 0.68300003 -0.069456547 9.2026115e-39 328 298
0.01077774 0.68300003 -0.069456547 9.0182202e-39 329 298
0.011975267 0.68300003 -0.069456547 8.5576078e-39 330 298
0.013172794 0.68300003 -0.069456547 8.3732165e-39 331 298
0.014370319 0.68300003 -0.069456547 8.1888323e-39 332 298
0.015567848 0.68300003 -0.069456547 8.1888323e-39 333 298
0.016789921 0.68400002 -0.06955824 9.1086138e-39 334 298
0.0179892 0.68400002 -0.06955824 9.3855608e-39 335 298
0.01918848 0.68400002 -0.06955824 9.8454403e-39 336 298
0.020447372 0.68599999 -0.069761619 9.937636e-39 337 298
0.021650158 0.68599999 -0.069761619 1.012238e-38 338 298
0.022852944 0.68599999 -0.069761619 1.0398609e-38 339 298
0.024055731 0.68599999 -0.069761619 1.076523e-38 340 298
0.025295338 0.68699998 -0.069863312 1.0949261e-38 341 298
0.026499879 0.68699998 -0.069863312 1.1134011e-38 342 298
0.027704418 0.68699998 -0.069863312 1.1226207e-38 343 298
0.028951041 0.68800002 -0.06996502 1.1318403e-38 344 298
0.030157333 0.68800002 -0.06996502 1.1502795e-38 345 298
0.031454802 0.69 -0.070168398 1.1686832e-38 346 298
0.032711938 0.69099998 -0.070270091 1.1963419e-38 347 298
0.034021679 0.69300002 -0.070473477 1.1597878e-38 348 298
0.035287585 0.69400001 -0.07057517 1.1690432e-38 349 298
0.036504399 0.69400001 -0.07057517 1.1415653e-38 350 298
0.037829921 0.69599998 -0.070778556 1.16926e-38 351 298
0.039050236 0.69599998 -0.070778556 1.2155386e-38 352 298
0.040270556 0.69599998 -0.070778556 1.3630516e-38 353 298
-0.025884461 0.70300001 -0.072723009 1.3911797e-38 299 299
-0.024581732 0.70099998 -0.072516106 1.3903497e-38 300 299
-0.023319334 0.69999999 -0.072412662 1.3534354e-38 301 299
-0.022091998 0.69999999 -0.072412662 1.2981521e-38 302 299
-0.020894472 0.70099998 -0.072516106 1.2336152e-38 303 299
-0.019637333 0.69999999 -0.072412662 1.1966275e-38 304 299
-0.0183574 0.69800001 -0.072205767 1.1597132e-38 305 299
-0.017084479 0.69599998 -0.071998879 1.0585154e-38 306 299
-0.015864158 0.69599998 -0.071998879 1.0400762e-38 307 299
-0.01460176 0.69400001 -0.071791984 9.9401569e-39 308 299
-0.013384946 0.69400001 -0.071791984 9.9401569e-39 309 299
-0.012150601 0.69300002 -0.07168854 9.8468851e-39 310 299
-0.010888199 0.69 -0.071378194 9.7546894e-39 311 299
-0.0096783992 0.69 -0.071378194 9.9372828e-39 312 299
-0.0084440531 0.68800002 -0.071171306 9.8450872e-39 313 299
-0.0072272392 0.68699998 -0.071067855 9.6614218e-39 314 299
-0.0060226996 0.68699998 -0.071067855 9.4770306e-39 315 299
-0.0048181596 0.68699998 -0.071067855 9.2933652e-39 316 299
-0.0036136196 0.68699998 -0.071067855 9.2008094e-39 317 299
