# .PCD v.7 - Point Cloud Data file format
FIELDS x y z rgb imX imY
SIZE 4 4 4 4 4 4
TYPE F F F F F F
COUNT 1 1 1 1 1 1
WIDTH 856
HEIGHT 1
VIEWPOINT 0 0 0 1 0 0 0
POINTS 856
DATA ascii
-0.013272733 0.75700003 -0.0013272733 1.5739812e-38 310 241
-0.011913899 0.755 -0.0013237667 1.5739812e-38 311 241
-0.010590133 0.755 -0.0013237667 1.5557581e-38 312 241
-0.0092663663 0.755 -0.0013237667 1.5465386e-38 313 241
-0.0079425992 0.755 -0.0013237667 1.5650133e-38 314 241
-0.0066188332 0.755 -0.0013237667 1.5742328e-38 315 241
-0.0052950666 0.755 -0.0013237667 1.6109315e-38 316 241
-0.0039712996 0.755 -0.0013237667 1.6109315e-38 317 241
-0.0026475333 0.755 -0.0013237667 1.610932e-38 318 241
-0.0013237667 0.755 -0.0013237667 1.5924569e-38 319 241
0 0.75400001 -0.0013220133 1.6016767e-38 320 241
0.0013220133 0.75400001 -0.0013220133 1.574018e-38 321 241
0.0026440267 0.75400001 -0.0013220133 1.5002257e-38 322 241
0.00396604 0.75400001 -0.0013220133 1.4726028e-38 323 241
0.0052950666 0.755 -0.0013237667 1.4356893e-38 324 241
0.0066188332 0.755 -0.0013237667 1.3711523e-38 325 241
0.0079425992 0.755 -0.0013237667 1.3800848e-38 326 241
0.0092663663 0.755 -0.0013237667 1.3708652e-38 327 241
0.010590133 0.755 -0.0013237667 1.3340943e-38 328 241
0.011913899 0.755 -0.0013237667 1.3064716e-38 329 241
0.013237666 0.755 -0.0013237667 1.2510826e-38 330 241
0.014600007 0.75700003 -0.0013272733 1.2142403e-38 331 241
0.015927281 0.75700003 -0.0013272733 1.1591397e-38 332 241
0.017254554 0.75700003 -0.0013272733 1.1591397e-38 333 241
0.018581826 0.75700003 -0.0013272733 1.1224053e-38 334 241
0.0199617 0.759 -0.00133078 1.1224053e-38 335 241
0.021348584 0.76099998 -0.0013342865 1.0949261e-38 336 241
0.022682872 0.76099998 -0.0013342865 1.1041816e-38 337 241
0.02404872 0.76200002 -0.00133604 1.1133655e-38 338 241
0.02538476 0.76200002 -0.00133604 1.1133655e-38 339 241
0.026790932 0.764 -0.0013395466 1.085816e-38 340 241
0.02824094 0.76700002 -0.0013448066 1.085816e-38 341 241
0.029585747 0.76700002 -0.0013448066 1.0123494e-38 342 241
0.030930554 0.76700002 -0.0013448066 9.9387444e-39 343 241
0.03227536 0.76700002 -0.0013448066 8.6577544e-39 344 241
0.033620168 0.76700002 -0.0013448066 1.2161547e-38 345 241
-0.042015124 0.773 -0.0027106532 1.7978521e-38 289 242
-0.0406598 0.773 -0.0027106532 1.5760744e-38 290 242
-0.03920278 0.77100003 -0.0027036399 1.2902681e-38 291 242
-0.03775277 0.76899999 -0.0026966266 1.5193843e-38 292 242
-0.036404461 0.76899999 -0.0026966266 1.4825061e-38 293 242
-0.035056144 0.76899999 -0.0026966266 1.5557563e-38 294 242
-0.033620168 0.76700002 -0.0026896133 1.537317e-38 295 242
-0.03227536 0.76700002 -0.0026896133 1.5648315e-38 296 242
-0.030890226 0.76599997 -0.0026861064 1.555612e-38 297 242
-0.029470026 0.764 -0.0026790933 1.5647594e-38 298 242
-0.028130481 0.764 -0.0026790933 1.5647594e-38 299 242
-0.026685731 0.76099998 -0.0026685731 1.5648313e-38 300 242
-0.025351444 0.76099998 -0.0026685731 1.574051e-38 301 242
-0.024017159 0.76099998 -0.0026685731 1.5740512e-38 302 242
-0.02262326 0.759 -0.00266156 1.5740512e-38 303 242
-0.02129248 0.759 -0.00266156 1.5647964e-38 304 242
-0.0199617 0.759 -0.00266156 1.5647964e-38 305 242
-0.018581826 0.75700003 -0.0026545466 1.5740159e-38 306 242
-0.017254554 0.75700003 -0.0026545466 1.5740159e-38 307 242
-0.015927281 0.75700003 -0.0026545466 1.5465014e-38 308 242
-0.014600007 0.75700003 -0.0026545466 1.5465014e-38 309 242
-0.013237666 0.755 -0.0026475333 1.5281352e-38 310 242
-0.011913899 0.755 -0.0026475333 1.5189156e-38 311 242
-0.010590133 0.755 -0.0026475333 1.5281352e-38 312 242
-0.0092663663 0.755 -0.0026475333 1.5465383e-38 313 242
-0.0079425992 0.755 -0.0026475333 1.5098761e-38 314 242
-0.0066188332 0.755 -0.0026475333 1.5282792e-38 315 242
-0.0052950666 0.755 -0.0026475333 1.5373919e-38 316 242
-0.00396604 0.75400001 -0.0026440267 1.5281723e-38 317 242
-0.0026440267 0.75400001 -0.0026440267 1.5647632e-38 318 242
-0.0013237667 0.755 -0.0026475333 1.5647632e-38 319 242
0 0.75400001 -0.0026440267 1.5554713e-38 320 242
0.0013220133 0.75400001 -0.0026440267 1.5185932e-38 321 242
0.0026440267 0.75400001 -0.0026440267 1.4724949e-38 322 242
0.00396604 0.75400001 -0.0026440267 1.4448723e-38 323 242
0.0052950666 0.755 -0.0026475333 1.4261826e-38 324 242
0.0066188332 0.755 -0.0026475333 1.3800848e-38 325 242
0.0079425992 0.755 -0.0026475333 1.3249473e-38 326 242
0.0092663663 0.755 -0.0026475333 1.3065082e-38 327 242
0.010590133 0.755 -0.0026475333 1.2604825e-38 328 242
0.011913899 0.755 -0.0026475333 1.2051652e-38 329 242
0.013237666 0.755 -0.0026475333 1.1406652e-38 330 242
0.014600007 0.75700003 -0.0026545466 1.103787e-38 331 242
0.015927281 0.75700003 -0.0026545466 1.1130788e-38 332 242
0.017254554 0.75700003 -0.0026545466 1.131518e-38 333 242
0.018581826 0.75700003 -0.0026545466 1.0949264e-38 334 242
0.0199617 0.759 -0.00266156 1.0949264e-38 335 242
0.021348584 0.76099998 -0.0026685731 1.0949261e-38 336 242
0.022682872 0.76099998 -0.0026685731 1.1041816e-38 337 242
0.02404872 0.76200002 -0.00267208 1.1041463e-38 338 242
0.025451386 0.764 -0.0026790933 1.1041463e-38 339 242
0.026790932 0.764 -0.0026790933 1.085816e-38 340 242
0.02824094 0.76700002 -0.0026896133 1.085816e-38 341 242
0.029585747 0.76700002 -0.0026896133 9.9398262e-39 342 242
0.030930554 0.76700002 -0.0026896133 9.9398262e-39 343 242
0.03227536 0.76700002 -0.0026896133 8.8410695e-39 344 242
0.033620168 0.76700002 -0.0026896133 1.1422547e-38 345 242
-0.042015124 0.773 -0.0040659797 1.7978523e-38 289 243
-0.0406598 0.773 -0.0040659797 1.5854389e-38 290 243
-0.03920278 0.77100003 -0.0040554604 1.308852e-38 291 243
-0.03775277 0.76899999 -0.0040449398 1.48265e-38 292 243
-0.036404461 0.76899999 -0.0040449398 1.4550272e-38 293 243
-0.03514732 0.77100003 -0.0040554604 1.5466442e-38 294 243
-0.033620168 0.76700002 -0.00403442 1.5005464e-38 295 243
-0.03227536 0.76700002 -0.00403442 1.5463924e-38 296 243
-0.030890226 0.76599997 -0.0040291594 1.537137e-38 297 243
-0.029470026 0.764 -0.0040186401 1.5371726e-38 298 243
-0.028130481 0.764 -0.0040186401 1.5187695e-38 299 243
-0.026685731 0.76099998 -0.0040028598 1.537137e-38 300 243
-0.025351444 0.76099998 -0.0040028598 1.537137e-38 301 243
-0.024017159 0.76099998 -0.0040028598 1.5463924e-38 302 243
-0.02262326 0.759 -0.0039923396 1.555612e-38 303 243
-0.02129248 0.759 -0.0039923396 1.5372807e-38 304 243
-0.0199617 0.759 -0.0039923396 1.5372807e-38 305 243
-0.018581826 0.75700003 -0.0039818203 1.5372802e-38 306 243
-0.017254554 0.75700003 -0.0039818203 1.5372802e-38 307 243
-0.015927281 0.75700003 -0.0039818203 1.5281325e-38 308 243
-0.014600007 0.75700003 -0.0039818203 1.5281325e-38 309 243
-0.013237666 0.755 -0.0039712996 1.509766e-38 310 243
-0.011913899 0.755 -0.0039712996 1.509766e-38 311 243
-0.010590133 0.755 -0.0039712996 1.5280975e-38 312 243
-0.0092663663 0.755 -0.0039712996 1.537317e-38 313 243
-0.0079425992 0.755 -0.0039712996 1.5189506e-38 314 243
-0.0066188332 0.755 -0.0039712996 1.5097309e-38 315 243
-0.0052950666 0.755 -0.0039712996 1.5095884e-38 316 243
-0.00396604 0.75400001 -0.00396604 1.5095884e-38 317 243
-0.0026440267 0.75400001 -0.00396604 1.5186653e-38 318 243
-0.0013237667 0.755 -0.0039712996 1.5094458e-38 319 243
0 0.75400001 -0.00396604 1.5093736e-38 320 243
0.0013220133 0.75400001 -0.00396604 1.4817148e-38 321 243
0.0026440267 0.75400001 -0.00396604 1.4539483e-38 322 243
0.00396604 0.75400001 -0.00396604 1.4078864e-38 323 243
0.0052950666 0.755 -0.0039712996 1.3707933e-38 324 243
0.0066188332 0.755 -0.0039712996 1.3430988e-38 325 243
0.0079425992 0.755 -0.0039712996 1.2789571e-38 326 243
0.0092663663 0.755 -0.0039712996 1.2512624e-38 327 243
0.010590133 0.755 -0.0039712996 1.2234964e-38 328 243
0.011913899 0.755 -0.0039712996 1.1589594e-38 329 243
0.013237666 0.755 -0.0039712996 1.0485069e-38 330 243
0.014561433 0.755 -0.0039712996 1.0485069e-38 331 243
0.015927281 0.75700003 -0.0039818203 1.0486866e-38 332 243
0.017254554 0.75700003 -0.0039818203 1.0855649e-38 333 243
0.01863092 0.759 -0.0039923396 1.1133292e-38 334 243
0.0199617 0.759 -0.0039923396 1.1225488e-38 335 243
0.021348584 0.76099998 -0.0040028598 1.1134006e-38 336 243
0.022682872 0.76099998 -0.0040028598 1.1134006e-38 337 243
0.02404872 0.76200002 -0.0040081199 1.1133655e-38 338 243
0.025451386 0.764 -0.0040186401 1.1133655e-38 339 243
0.026861066 0.76599997 -0.0040291594 1.0674848e-38 340 243
0.02824094 0.76700002 -0.00403442 1.0674848e-38 341 243
0.02966289 0.76899999 -0.0040449398 1.0216056e-38 342 243
0.031011207 0.76899999 -0.0040449398 1.0308253e-38 343 243
0.032359518 0.76899999 -0.0040449398 8.6570383e-39 344 243
0.033707831 0.76899999 -0.0040449398 1.0500951e-38 345 243
-0.042015124 0.773 -0.0054213065 1.8163636e-38 289 244
-0.0406598 0.773 -0.0054213065 1.6314292e-38 290 244
-0.039304473 0.773 -0.0054213065 1.3364031e-38 291 244
-0.037654586 0.76700002 -0.0053792265 1.4642116e-38 292 244
-0.036309779 0.76700002 -0.0053792265 1.4457723e-38 293 244
-0.034964975 0.76700002 -0.0053792265 1.5282055e-38 294 244
-0.033620168 0.76700002 -0.0053792265 1.4912913e-38 295 244
-0.032233275 0.76599997 -0.0053722127 1.5371726e-38 296 244
-0.030890226 0.76599997 -0.0053722127 1.5187695e-38 297 244
-0.029470026 0.764 -0.0053581866 1.5187692e-38 298 244
-0.028130481 0.764 -0.0053581866 1.5095496e-38 299 244
-0.0267208 0.76200002 -0.0053441599 1.5278811e-38 300 244
-0.025351444 0.76099998 -0.0053371461 1.5278811e-38 301 244
-0.024017159 0.76099998 -0.0053371461 1.5187339e-38 302 244
-0.022682872 0.76099998 -0.0053371461 1.5463924e-38 303 244
-0.021348584 0.76099998 -0.0053371461 1.5097297e-38 304 244
-0.0199617 0.759 -0.0053231199 1.5281328e-38 305 244
-0.018581826 0.75700003 -0.0053090933 1.5281678e-38 306 244
-0.017254554 0.75700003 -0.0053090933 1.5097647e-38 307 244
-0.015927281 0.75700003 -0.0053090933 1.5097644e-38 308 244
-0.014561433 0.755 -0.0052950666 1.5097644e-38 309 244
-0.013237666 0.755 -0.0052950666 1.500617e-38 310 244
-0.011913899 0.755 -0.0052950666 1.500617e-38 311 244
-0.010590133 0.755 -0.0052950666 1.500617e-38 312 244
-0.0092663663 0.755 -0.0052950666 1.5098366e-38 313 244
-0.0079425992 0.755 -0.0052950666 1.5097297e-38 314 244
-0.0066188332 0.755 -0.0052950666 1.5004742e-38 315 244
-0.0052950666 0.755 -0.0052950666 1.4911846e-38 316 244
-0.00396604 0.75400001 -0.0052880533 1.4727455e-38 317 244
-0.0026440267 0.75400001 -0.0052880533 1.4909341e-38 318 244
-0.0013220133 0.75400001 -0.0052880533 1.4540918e-38 319 244
0 0.75400001 -0.0052880533 1.4906824e-38 320 244
0.0013220133 0.75400001 -0.0052880533 1.4722431e-38 321 244
0.0026440267 0.75400001 -0.0052880533 1.4262176e-38 322 244
0.00396604 0.75400001 -0.0052880533 1.3709002e-38 323 244
0.0052950666 0.755 -0.0052950666 1.3245879e-38 324 244
0.0066188332 0.755 -0.0052950666 1.2969293e-38 325 244
0.0079425992 0.755 -0.0052950666 1.2236763e-38 326 244
0.0092663663 0.755 -0.0052950666 1.2052372e-38 327 244
0.010590133 0.755 -0.0052950666 1.1591043e-38 328 244
0.011913899 0.755 -0.0052950666 1.103787e-38 329 244
0.013237666 0.755 -0.0052950666 1.0302122e-38 330 244
0.014561433 0.755 -0.0052950666 1.0117729e-38 331 244
0.015927281 0.75700003 -0.0053090933 9.9362136e-39 332 244
0.017254554 0.75700003 -0.0053090933 1.0397192e-38 333 244
0.01863092 0.759 -0.0053231199 1.1133292e-38 334 244
0.020014299 0.76099998 -0.0053371461 1.1409519e-38 335 244
0.021348584 0.76099998 -0.0053371461 1.1226557e-38 336 244
0.022682872 0.76099998 -0.0053371461 1.1226557e-38 337 244
0.02404872 0.76200002 -0.0053441599 1.1041816e-38 338 244
0.025451386 0.764 -0.0053581866 1.1041816e-38 339 244
0.026861066 0.76599997 -0.0053722127 1.0674129e-38 340 244
0.02824094 0.76700002 -0.0053792265 1.0674129e-38 341 244
0.02966289 0.76899999 -0.0053932532 1.0033097e-38 342 244
0.031011207 0.76899999 -0.0053932532 1.0309325e-38 343 244
0.032443684 0.77100003 -0.0054072798 8.8399821e-39 344 244
0.033795502 0.77100003 -0.0054072798 1.0499502e-38 345 244
-0.042069476 0.77399999 -0.0067853997 1.8439141e-38 289 245
-0.040712398 0.77399999 -0.0067853997 1.6407207e-38 290 245
-0.039101087 0.76899999 -0.0067415666 1.318036e-38 291 245
-0.037654586 0.76700002 -0.006724033 1.4457737e-38 292 245
-0.036309779 0.76700002 -0.006724033 1.3997118e-38 293 245
-0.034964975 0.76700002 -0.006724033 1.4822167e-38 294 245
-0.033620168 0.76700002 -0.006724033 1.4453386e-38 295 245
-0.032233275 0.76599997 -0.0067152665 1.4912547e-38 296 245
-0.030890226 0.76599997 -0.0067152665 1.4820351e-38 297 245
-0.029470026 0.764 -0.006697733 1.4820348e-38 298 245
-0.028130481 0.764 -0.006697733 1.4728151e-38 299 245
-0.0267208 0.76200002 -0.0066801999 1.500295e-38 300 245
-0.025351444 0.76099998 -0.0066714329 1.4910394e-38 301 245
-0.024017159 0.76099998 -0.0066714329 1.5003313e-38 302 245
-0.02262326 0.759 -0.0066538998 1.5187704e-38 303 245
-0.02129248 0.759 -0.0066538998 1.5281328e-38 304 245
-0.0199617 0.759 -0.0066538998 1.5281328e-38 305 245
-0.018581826 0.75700003 -0.0066363667 1.5282031e-38 306 245
-0.017254554 0.75700003 -0.0066363667 1.5098e-38 307 245
-0.015885198 0.755 -0.0066188332 1.5097995e-38 308 245
-0.014561433 0.755 -0.0066188332 1.5097995e-38 309 245
-0.013237666 0.755 -0.0066188332 1.4730657e-38 310 245
-0.011913899 0.755 -0.0066188332 1.4822852e-38 311 245
-0.010590133 0.755 -0.0066188332 1.5097644e-38 312 245
-0.0092663663 0.755 -0.0066188332 1.5005449e-38 313 245
-0.0079425992 0.755 -0.0066188332 1.5095859e-38 314 245
-0.0066188332 0.755 -0.0066188332 1.5003663e-38 315 245
-0.0052950666 0.755 -0.0066188332 1.4818932e-38 316 245
-0.0039712996 0.755 -0.0066188332 1.4541985e-38 317 245
-0.0026475333 0.755 -0.0066188332 1.4448723e-38 318 245
-0.0013220133 0.75400001 -0.0066100666 1.4171776e-38 319 245
0 0.75400001 -0.0066100666 1.4445846e-38 320 245
0.0013220133 0.75400001 -0.0066100666 1.435365e-38 321 245
0.0026440267 0.75400001 -0.0066100666 1.3801195e-38 322 245
0.00396604 0.75400001 -0.0066100666 1.3340577e-38 323 245
0.0052950666 0.755 -0.0066188332 1.3062914e-38 324 245
0.0066188332 0.755 -0.0066188332 1.2878523e-38 325 245
0.0079425992 0.755 -0.0066188332 1.2420063e-38 326 245
0.0092663663 0.755 -0.0066188332 1.2327867e-38 327 245
0.010590133 0.755 -0.0066188332 1.2050201e-38 328 245
0.011913899 0.755 -0.0066188332 1.1681778e-38 329 245
0.013237666 0.755 -0.0066188332 1.0946024e-38 330 245
0.014561433 0.755 -0.0066188332 1.0761633e-38 331 245
0.015927281 0.75700003 -0.0066363667 1.0670885e-38 332 245
0.017300138 0.759 -0.0066538998 1.0947473e-38 333 245
0.01863092 0.759 -0.0066538998 1.1225491e-38 334 245
0.020014299 0.76099998 -0.0066714329 1.1409522e-38 335 245
0.02137664 0.76200002 -0.0066801999 1.1225485e-38 336 245
0.02271268 0.76200002 -0.0066801999 1.113329e-38 337 245
0.024111839 0.764 -0.006697733 1.0949264e-38 338 245
0.025451386 0.764 -0.006697733 1.0765233e-38 339 245
0.026861066 0.76599997 -0.0067152665 1.0398258e-38 340 245
0.02824094 0.76700002 -0.006724033 1.0582649e-38 341 245
0.02966289 0.76899999 -0.0067415666 1.0124213e-38 342 245
0.031011207 0.76899999 -0.0067415666 1.0308606e-38 343 245
0.032359518 0.76899999 -0.0067415666 8.840338e-39 344 245
0.033795502 0.77100003 -0.0067590997 1.0407304e-38 345 245
-0.0406598 0.773 -0.0081319595 1.6407928e-38 290 246
-0.039101087 0.76899999 -0.0080898795 1.299705e-38 291 246
-0.03775277 0.76899999 -0.0080898795 1.4089676e-38 292 246
-0.036404461 0.76899999 -0.0080898795 1.3721254e-38 293 246
-0.035056144 0.76899999 -0.0080898795 1.4729616e-38 294 246
-0.033620168 0.76700002 -0.00806884 1.4268998e-38 295 246
-0.03227536 0.76700002 -0.00806884 1.4819634e-38 296 246
-0.030890226 0.76599997 -0.0080583189 1.4819634e-38 297 246
-0.029547172 0.76599997 -0.0080583189 1.4635959e-38 298 246
-0.028130481 0.764 -0.0080372803 1.4451927e-38 299 246
-0.0267208 0.76200002 -0.0080162399 1.4634884e-38 300 246
-0.025351444 0.76099998 -0.0080057196 1.4634884e-38 301 246
-0.024017159 0.76099998 -0.0080057196 1.4910748e-38 302 246
-0.02262326 0.759 -0.0079846792 1.5187695e-38 303 246
-0.02129248 0.759 -0.0079846792 1.5188764e-38 304 246
-0.0199617 0.759 -0.0079846792 1.5373155e-38 305 246
-0.018581826 0.75700003 -0.0079636406 1.5190912e-38 306 246
-0.017208965 0.755 -0.0079425992 1.5098716e-38 307 246
-0.015885198 0.755 -0.0079425992 1.5098716e-38 308 246
-0.014561433 0.755 -0.0079425992 1.5006521e-38 309 246
-0.013237666 0.755 -0.0079425992 1.4821771e-38 310 246
-0.011913899 0.755 -0.0079425992 1.4914325e-38 311 246
-0.010590133 0.755 -0.0079425992 1.4913606e-38 312 246
-0.0092663663 0.755 -0.0079425992 1.4913606e-38 313 246
-0.0079425992 0.755 -0.0079425992 1.4728504e-38 314 246
-0.0066188332 0.755 -0.0079425992 1.4452278e-38 315 246
-0.0052950666 0.755 -0.0079425992 1.4450495e-38 316 246
-0.0039712996 0.755 -0.0079425992 1.4081713e-38 317 246
-0.0026475333 0.755 -0.0079425992 1.4355075e-38 318 246
-0.0013220133 0.75400001 -0.00793208 1.4078848e-38 319 246
0 0.75400001 -0.00793208 1.4262161e-38 320 246
0.0013220133 0.75400001 -0.00793208 1.4169965e-38 321 246
0.0026440267 0.75400001 -0.00793208 1.3801901e-38 322 246
0.00396604 0.75400001 -0.00793208 1.3433479e-38 323 246
0.0052950666 0.755 -0.0079425992 1.2789189e-38 324 246
0.0066100666 0.75400001 -0.00793208 1.2789189e-38 325 246
0.00793208 0.75400001 -0.00793208 1.2696277e-38 326 246
0.0092663663 0.755 -0.0079425992 1.2604081e-38 327 246
0.010590133 0.755 -0.0079425992 1.2053075e-38 328 246
0.011913899 0.755 -0.0079425992 1.1776847e-38 329 246
0.013237666 0.755 -0.0079425992 1.0949614e-38 330 246
0.014561433 0.755 -0.0079425992 1.0673386e-38 331 246
0.015927281 0.75700003 -0.0079636406 1.0674107e-38 332 246
0.017300138 0.759 -0.0079846792 1.0858498e-38 333 246
0.01863092 0.759 -0.0079846792 1.1225841e-38 334 246
0.020014299 0.76099998 -0.0080057196 1.1225841e-38 335 246
0.02137664 0.76200002 -0.0080162399 1.1316605e-38 336 246
0.02271268 0.76200002 -0.0080162399 1.1132213e-38 337 246
0.024111839 0.764 -0.0080372803 1.0673033e-38 338 246
0.025451386 0.764 -0.0080372803 1.0673033e-38 339 246
0.026861066 0.76599997 -0.0080583189 1.0307848e-38 340 246
0.028204117 0.76599997 -0.0080583189 1.0307848e-38 341 246
0.02966289 0.76899999 -0.0080898795 9.9405296e-39 342 246
0.031011207 0.76899999 -0.0080898795 1.0124561e-38 343 246
0.032359518 0.76899999 -0.0080898795 9.1158431e-39 344 246
0.033795502 0.77100003 -0.0081109209 1.0775363e-38 345 246
-0.0406598 0.773 -0.0094872871 1.7052932e-38 290 247
-0.03920278 0.77100003 -0.0094627403 1.3733889e-38 291 247
-0.03775277 0.76899999 -0.0094381925 1.381345e-38 292 247
-0.036404461 0.76899999 -0.0094381925 1.3536503e-38 293 247
-0.035056144 0.76899999 -0.0094381925 1.4178244e-38 294 247
-0.033620168 0.76700002 -0.0094136465 1.3993853e-38 295 247
-0.03227536 0.76700002 -0.0094136465 1.4177148e-38 296 247
-0.030890226 0.76599997 -0.0094013726 1.4084953e-38 297 247
-0.029470026 0.764 -0.0093768267 1.4635603e-38 298 247
-0.028130481 0.764 -0.0093768267 1.4451571e-38 299 247
-0.0267208 0.76200002 -0.0093522798 1.445229e-38 300 247
-0.025351444 0.76099998 -0.0093400059 1.4360095e-38 301 247
-0.024017159 0.76099998 -0.0093400059 1.4544486e-38 302 247
-0.02262326 0.759 -0.00931546 1.4821073e-38 303 247
-0.02129248 0.759 -0.00931546 1.4822502e-38 304 247
-0.0199617 0.759 -0.00931546 1.5098729e-38 305 247
-0.018581826 0.75700003 -0.0092909131 1.500832e-38 306 247
-0.017208965 0.755 -0.0092663663 1.4823927e-38 307 247
-0.015885198 0.755 -0.0092663663 1.4823924e-38 308 247
-0.014561433 0.755 -0.0092663663 1.4731729e-38 309 247
-0.013237666 0.755 -0.0092663663 1.4638105e-38 310 247
-0.011913899 0.755 -0.0092663663 1.454591e-38 311 247
-0.010590133 0.755 -0.0092663663 1.4820701e-38 312 247
-0.0092663663 0.755 -0.0092663663 1.4728504e-38 313 247
-0.0079425992 0.755 -0.0092663663 1.4635956e-38 314 247
-0.0066188332 0.755 -0.0092663663 1.4267533e-38 315 247
-0.0052950666 0.755 -0.0092663663 1.4082083e-38 316 247
-0.0039712996 0.755 -0.0092663663 1.389769e-38 317 247
-0.0026475333 0.755 -0.0092663663 1.3895546e-38 318 247
-0.0013237667 0.755 -0.0092663663 1.380335e-38 319 247
0 0.755 -0.0092663663 1.3710434e-38 320 247
0.0013220133 0.75400001 -0.0092540924 1.3710434e-38 321 247
0.0026440267 0.75400001 -0.0092540924 1.361751e-38 322 247
0.00396604 0.75400001 -0.0092540924 1.3340925e-38 323 247
0.0052950666 0.755 -0.0092663663 1.3156885e-38 324 247
0.0066100666 0.75400001 -0.0092540924 1.2972135e-38 325 247
0.00793208 0.75400001 -0.0092540924 1.2972138e-38 326 247
0.0092663663 0.755 -0.0092663663 1.2788107e-38 327 247
0.010590133 0.755 -0.0092663663 1.2603358e-38 328 247
0.011913899 0.755 -0.0092663663 1.2511163e-38 329 247
0.013237666 0.755 -0.0092663663 1.1776469e-38 330 247
0.014600007 0.75700003 -0.0092909131 1.1592438e-38 331 247
0.015927281 0.75700003 -0.0092909131 1.1409491e-38 332 247
0.017300138 0.759 -0.00931546 1.1409491e-38 333 247
0.018680012 0.76099998 -0.0093400059 1.1225485e-38 334 247
0.020014299 0.76099998 -0.0093400059 1.1041094e-38 335 247
0.02137664 0.76200002 -0.0093522798 1.0948192e-38 336 247
0.02271268 0.76200002 -0.0093522798 1.0579768e-38 337 247
0.024111839 0.764 -0.0093768267 9.7546894e-39 338 247
0.025451386 0.764 -0.0093768267 9.8468851e-39 339 247
0.026790932 0.764 -0.0093768267 9.9398038e-39 340 247
0.028204117 0.76599997 -0.0094013726 1.0124195e-38 341 247
0.029585747 0.76700002 -0.0094136465 9.8483494e-39 342 247
0.030930554 0.76700002 -0.0094136465 1.0032741e-38 343 247
0.03227536 0.76700002 -0.0094136465 9.2076912e-39 344 247
0.033707831 0.76899999 -0.0094381925 1.1143799e-38 345 247
0.035056144 0.76899999 -0.0094381925 1.6038459e-38 346 247
-0.03920278 0.77100003 -0.01081456 1.4563663e-38 291 248
-0.037850961 0.77100003 -0.01081456 1.3629071e-38 292 248
-0.036404461 0.76899999 -0.010786506 1.3352843e-38 293 248
-0.035056144 0.76899999 -0.010786506 1.4178963e-38 294 248
-0.033620168 0.76700002 -0.010758453 1.3717985e-38 295 248
-0.032233275 0.76599997 -0.010744425 1.4177501e-38 296 248
-0.030809574 0.764 -0.010716373 1.4085306e-38 297 248
-0.029470026 0.764 -0.010716373 1.417678e-38 298 248
-0.028020019 0.76099998 -0.010674292 1.417678e-38 299 248
-0.026685731 0.76099998 -0.010674292 1.4452643e-38 300 248
-0.025351444 0.76099998 -0.010674292 1.4452643e-38 301 248
-0.023954039 0.759 -0.01064624 1.4453715e-38 302 248
-0.02262326 0.759 -0.01064624 1.4638108e-38 303 248
-0.02129248 0.759 -0.01064624 1.4731376e-38 304 248
-0.0199617 0.759 -0.01064624 1.4915767e-38 305 248
-0.018581826 0.75700003 -0.010618187 1.5099079e-38 306 248
-0.017208965 0.755 -0.010590133 1.4915048e-38 307 248
-0.015885198 0.755 -0.010590133 1.4730304e-38 308 248
-0.014561433 0.755 -0.010590133 1.4730304e-38 309 248
-0.013237666 0.755 -0.010590133 1.4637392e-38 310 248
-0.011913899 0.755 -0.010590133 1.4545195e-38 311 248
-0.010590133 0.755 -0.010590133 1.4636312e-38 312 248
-0.0092663663 0.755 -0.010590133 1.4451922e-38 313 248
-0.0079425992 0.755 -0.010590133 1.4268252e-38 314 248
-0.0066188332 0.755 -0.010590133 1.389947e-38 315 248
-0.0052950666 0.755 -0.010590133 1.3989883e-38 316 248
-0.0039712996 0.755 -0.010590133 1.362146e-38 317 248
-0.0026475333 0.755 -0.010590133 1.3711508e-38 318 248
-0.0013237667 0.755 -0.010590133 1.3526756e-38 319 248
0 0.755 -0.010590133 1.3709355e-38 320 248
0.0013237667 0.755 -0.010590133 1.3709355e-38 321 248
0.0026475333 0.755 -0.010590133 1.343277e-38 322 248
0.0039712996 0.755 -0.010590133 1.3248377e-38 323 248
0.0052950666 0.755 -0.010590133 1.2972864e-38 324 248
0.0066188332 0.755 -0.010590133 1.2880668e-38 325 248
0.0079425992 0.755 -0.010590133 1.2787754e-38 326 248
0.0092663663 0.755 -0.010590133 1.2787754e-38 327 248
0.010590133 0.755 -0.010590133 1.232822e-38 328 248
0.011913899 0.755 -0.010590133 1.232822e-38 329 248
0.013272733 0.75700003 -0.010618187 1.1685012e-38 330 248
0.014600007 0.75700003 -0.010618187 1.1592816e-38 331 248
0.015969358 0.759 -0.01064624 1.1408432e-38 332 248
0.017300138 0.759 -0.01064624 1.1224041e-38 333 248
0.018680012 0.76099998 -0.010674292 1.122369e-38 334 248
0.020014299 0.76099998 -0.010674292 1.1131493e-38 335 248
0.02137664 0.76200002 -0.01068832 1.0763799e-38 336 248
0.02271268 0.76200002 -0.01068832 1.0395018e-38 337 248
0.024111839 0.764 -0.010716373 9.8443683e-39 338 248
0.025451386 0.764 -0.010716373 9.8443683e-39 339 248
0.026790932 0.764 -0.010716373 9.6621407e-39 340 248
0.028204117 0.76599997 -0.010744425 9.938729e-39 341 248
0.029585747 0.76700002 -0.010758453 9.6650372e-39 342 248
0.030930554 0.76700002 -0.010758453 1.0033461e-38 343 248
0.03227536 0.76700002 -0.010758453 9.7590601e-39 344 248
0.033707831 0.76899999 -0.010786506 1.1695168e-38 345 248
0.035056144 0.76899999 -0.010786506 1.6130289e-38 346 248
-0.039304473 0.773 -0.012197939 1.502537e-38 291 249
-0.037949149 0.773 -0.012197939 1.372379e-38 292 249
-0.036499143 0.77100003 -0.01216638 1.2709638e-38 293 249
-0.035056144 0.76899999 -0.012134819 1.3902733e-38 294 249
-0.033620168 0.76700002 -0.01210326 1.3718341e-38 295 249
-0.032233275 0.76599997 -0.012087479 1.3901635e-38 296 249
-0.030809574 0.764 -0.01205592 1.3809439e-38 297 249
-0.029470026 0.764 -0.01205592 1.3992751e-38 298 249
-0.028020019 0.76099998 -0.012008579 1.4085306e-38 299 249
-0.026685731 0.76099998 -0.012008579 1.4268975e-38 300 249
-0.025351444 0.76099998 -0.012008579 1.4453365e-38 301 249
-0.023954039 0.759 -0.01197702 1.43626e-38 302 249
-0.02262326 0.759 -0.01197702 1.4638827e-38 303 249
-0.02129248 0.759 -0.01197702 1.454771e-38 304 249
-0.019909101 0.75700003 -0.01194546 1.454771e-38 305 249
-0.018581826 0.75700003 -0.01194546 1.4731025e-38 306 249
-0.017208965 0.755 -0.011913899 1.463883e-38 307 249
-0.015885198 0.755 -0.011913899 1.445444e-38 308 249
-0.014561433 0.755 -0.011913899 1.445444e-38 309 249
-0.013237666 0.755 -0.011913899 1.4269694e-38 310 249
-0.011913899 0.755 -0.011913899 1.4085303e-38 311 249
-0.010590133 0.755 -0.011913899 1.3991316e-38 312 249
-0.0092663663 0.755 -0.011913899 1.3991316e-38 313 249
-0.0079425992 0.755 -0.011913899 1.389984e-38 314 249
-0.0066188332 0.755 -0.011913899 1.3807644e-38 315 249
-0.0052950666 0.755 -0.011913899 1.3990239e-38 316 249
-0.0039712996 0.755 -0.011913899 1.3621458e-38 317 249
-0.0026475333 0.755 -0.011913899 1.343564e-38 318 249
-0.0013237667 0.755 -0.011913899 1.3251249e-38 319 249
0 0.755 -0.011913899 1.3250177e-38 320 249
0.0013237667 0.755 -0.011913899 1.3157981e-38 321 249
0.0026475333 0.755 -0.011913899 1.3065785e-38 322 249
0.0039712996 0.755 -0.011913899 1.2973588e-38 323 249
0.0052950666 0.755 -0.011913899 1.2880668e-38 324 249
0.0066188332 0.755 -0.011913899 1.2788473e-38 325 249
0.0079425992 0.755 -0.011913899 1.2604081e-38 326 249
0.0092663663 0.755 -0.011913899 1.2511884e-38 327 249
0.010590133 0.755 -0.011913899 1.2052352e-38 328 249
0.011913899 0.755 -0.011913899 1.1960157e-38 329 249
0.013272733 0.75700003 -0.01194546 1.1684293e-38 330 249
0.014600007 0.75700003 -0.01194546 1.1592097e-38 331 249
0.015969358 0.759 -0.01197702 1.1407356e-38 332 249
0.017300138 0.759 -0.01197702 1.1407356e-38 333 249
0.018680012 0.76099998 -0.012008579 1.0947825e-38 334 249
0.020014299 0.76099998 -0.012008579 1.0855629e-38 335 249
0.02137664 0.76200002 -0.01202436 1.0487573e-38 336 249
0.02271268 0.76200002 -0.01202436 1.0210627e-38 337 249
0.024111839 0.764 -0.01205592 9.4748754e-39 338 249
0.025451386 0.764 -0.01205592 9.4748754e-39 339 249
0.026790932 0.764 -0.01205592 8.834552e-39 340 249
0.028204117 0.76599997 -0.012087479 9.2955288e-39 341 249
0.029585747 0.76700002 -0.01210326 9.5732073e-39 342 249
0.030930554 0.76700002 -0.01210326 9.8497956e-39 343 249
0.03227536 0.76700002 -0.01210326 9.3931544e-39 344 249
0.033707831 0.76899999 -0.012134819 1.142146e-38 345 249
0.035056144 0.76899999 -0.012134819 1.5671109e-38 346 249
-0.039304473 0.773 -0.013553266 1.5395228e-38 291 250
-0.037949149 0.773 -0.013553266 1.3817784e-38 292 250
-0.036499143 0.77100003 -0.013518199 1.2342654e-38 293 250
-0.035056144 0.76899999 -0.013483133 1.3442477e-38 294 250
-0.033620168 0.76700002 -0.013448066 1.3442477e-38 295 250
-0.03227536 0.76700002 -0.013448066 1.362613e-38 296 250
-0.030890226 0.76599997 -0.013430533 1.3533934e-38 297 250
-0.029470026 0.764 -0.013395466 1.3809086e-38 298 250
-0.028020019 0.76099998 -0.013342866 1.390164e-38 299 250
-0.026685731 0.76099998 -0.013342866 1.4086385e-38 300 250
-0.025351444 0.76099998 -0.013342866 1.4270417e-38 301 250
-0.023954039 0.759 -0.0133078 1.4454443e-38 302 250
-0.02262326 0.759 -0.0133078 1.4638474e-38 303 250
-0.02129248 0.759 -0.0133078 1.4362966e-38 304 250
-0.019909101 0.75700003 -0.013272733 1.4362966e-38 305 250
-0.018581826 0.75700003 -0.013272733 1.4454443e-38 306 250
-0.017208965 0.755 -0.013237666 1.4454443e-38 307 250
-0.015885198 0.755 -0.013237666 1.4362244e-38 308 250
-0.014561433 0.755 -0.013237666 1.4362244e-38 309 250
-0.013237666 0.755 -0.013237666 1.4085306e-38 310 250
-0.011913899 0.755 -0.013237666 1.380872e-38 311 250
-0.010590133 0.755 -0.013237666 1.3531063e-38 312 250
-0.0092663663 0.755 -0.013237666 1.3531063e-38 313 250
-0.0079425992 0.755 -0.013237666 1.3531779e-38 314 250
-0.0066188332 0.755 -0.013237666 1.3439583e-38 315 250
-0.0052950666 0.755 -0.013237666 1.3622177e-38 316 250
-0.0039712996 0.755 -0.013237666 1.3253754e-38 317 250
-0.0026475333 0.755 -0.013237666 1.3252321e-38 318 250
-0.0013237667 0.755 -0.013237666 1.3067931e-38 319 250
0 0.755 -0.013237666 1.315905e-38 320 250
0.0013237667 0.755 -0.013237666 1.3066855e-38 321 250
0.0026475333 0.755 -0.013237666 1.2790626e-38 322 250
0.0039712996 0.755 -0.013237666 1.2698072e-38 323 250
0.0052950666 0.755 -0.013237666 1.2789194e-38 324 250
0.0066188332 0.755 -0.013237666 1.2605163e-38 325 250
0.0079425992 0.755 -0.013237666 1.2237104e-38 326 250
0.0092663663 0.755 -0.013237666 1.2052352e-38 327 250
0.010590133 0.755 -0.013237666 1.1960159e-38 328 250
0.01194546 0.75700003 -0.013272733 1.1960159e-38 329 250
0.013272733 0.75700003 -0.013272733 1.1408432e-38 330 250
0.014600007 0.75700003 -0.013272733 1.1316236e-38 331 250
0.015969358 0.759 -0.0133078 1.1132211e-38 332 250
0.017300138 0.759 -0.0133078 1.0948178e-38 333 250
0.018680012 0.76099998 -0.013342866 1.0855629e-38 334 250
0.020014299 0.76099998 -0.013342866 1.0763434e-38 335 250
0.02137664 0.76200002 -0.0133604 1.021063e-38 336 250
0.02271268 0.76200002 -0.0133604 9.8418474e-39 337 250
0.024111839 0.764 -0.013395466 9.1982927e-39 338 250
0.025451386 0.764 -0.013395466 9.1982927e-39 339 250
0.026790932 0.764 -0.013395466 8.5579637e-39 340 250
0.028204117 0.76599997 -0.013430533 9.2033331e-39 341 250
0.029585747 0.76700002 -0.013448066 9.481362e-39 342 250
0.030930554 0.76700002 -0.013448066 9.8501459e-39 343 250
0.03227536 0.76700002 -0.013448066 9.4857046e-39 344 250
0.033620168 0.76700002 -0.013448066 1.2067182e-38 345 250
0.034964975 0.76700002 -0.013448066 1.5395244e-38 346 250
-0.039304473 0.773 -0.014908593 1.5580343e-38 291 251
-0.037949149 0.773 -0.014908593 1.3818147e-38 292 251
-0.036499143 0.77100003 -0.01487002 1.2251181e-38 293 251
-0.035056144 0.76899999 -0.014831445 1.325953e-38 294 251
-0.033620168 0.76700002 -0.014792874 1.3167335e-38 295 251
-0.03227536 0.76700002 -0.014792874 1.3441748e-38 296 251
-0.030890226 0.76599997 -0.014773586 1.3257717e-38 297 251
-0.029470026 0.764 -0.014735013 1.3716893e-38 298 251
-0.028020019 0.76099998 -0.014677152 1.3809089e-38 299 251
-0.026685731 0.76099998 -0.014677152 1.3901991e-38 300 251
-0.025351444 0.76099998 -0.014677152 1.4086382e-38 301 251
-0.023954039 0.759 -0.014638579 1.4270768e-38 302 251
-0.02262326 0.759 -0.014638579 1.4362963e-38 303 251
-0.02129248 0.759 -0.014638579 1.4362244e-38 304 251
-0.019909101 0.75700003 -0.014600007 1.4362244e-38 305 251
-0.018581826 0.75700003 -0.014600007 1.43626e-38 306 251
-0.017208965 0.755 -0.014561433 1.4270403e-38 307 251
-0.015885198 0.755 -0.014561433 1.4453715e-38 308 251
-0.014561433 0.755 -0.014561433 1.4269684e-38 309 251
-0.013237666 0.755 -0.014561433 1.3809795e-38 310 251
-0.011913899 0.755 -0.014561433 1.3717599e-38 311 251
-0.010590133 0.755 -0.014561433 1.343958e-38 312 251
-0.0092663663 0.755 -0.014561433 1.343958e-38 313 251
-0.0079425992 0.755 -0.014561433 1.343958e-38 314 251
-0.0066188332 0.755 -0.014561433 1.3163354e-38 315 251
-0.0052950666 0.755 -0.014561433 1.334595e-38 316 251
-0.0039712996 0.755 -0.014561433 1.3161198e-38 317 251
-0.0026475333 0.755 -0.014561433 1.2976454e-38 318 251
-0.0013237667 0.755 -0.014561433 1.2884258e-38 319 251
0 0.755 -0.014561433 1.3066857e-38 320 251
0.0013237667 0.755 -0.014561433 1.2882467e-38 321 251
0.0026475333 0.755 -0.014561433 1.2698796e-38 322 251
0.0039712996 0.755 -0.014561433 1.2606601e-38 323 251
0.0052950666 0.755 -0.014561433 1.2604807e-38 324 251
0.0066188332 0.755 -0.014561433 1.2420416e-38 325 251
0.0079425992 0.755 -0.014561433 1.2144555e-38 326 251
0.0092663663 0.755 -0.014561433 1.1959804e-38 327 251
0.010590133 0.755 -0.014561433 1.1592463e-38 328 251
0.01194546 0.75700003 -0.014600007 1.1592463e-38 329 251
0.013272733 0.75700003 -0.014600007 1.1316239e-38 330 251
0.014638579 0.759 -0.014638579 1.1224043e-38 331 251
0.015969358 0.759 -0.014638579 1.113149e-38 332 251
0.017300138 0.759 -0.014638579 1.1039295e-38 333 251
0.018680012 0.76099998 -0.014677152 1.0670882e-38 334 251
0.020014299 0.76099998 -0.014677152 1.0486491e-38 335 251
0.02137664 0.76200002 -0.01469644 9.9340486e-39 336 251
0.02271268 0.76200002 -0.01469644 9.5649074e-39 337 251
0.024111839 0.764 -0.014735013 8.8302318e-39 338 251
0.025451386 0.764 -0.014735013 8.7380362e-39 339 251
0.026790932 0.764 -0.014735013 8.4657681e-39 340 251
0.028204117 0.76599997 -0.014773586 9.1111375e-39 341 251
0.029585747 0.76700002 -0.014792874 9.4806403e-39 342 251
0.030930554 0.76700002 -0.014792874 9.7575859e-39 343 251
0.03227536 0.76700002 -0.014792874 9.8544829e-39 344 251
0.033620168 0.76700002 -0.014792874 1.2896939e-38 345 251
0.034964975 0.76700002 -0.014792874 1.5487441e-38 346 251
-0.039304473 0.773 -0.016263919 1.5673623e-38 291 252
-0.037949149 0.773 -0.016263919 1.4003264e-38 292 252
-0.036499143 0.77100003 -0.016221842 1.2436298e-38 293 252
-0.035056144 0.76899999 -0.016179759 1.3535396e-38 294 252
-0.033620168 0.76700002 -0.01613768 1.3351003e-38 295 252
-0.03227536 0.76700002 -0.01613768 1.3258436e-38 296 252
-0.030890226 0.76599997 -0.016116638 1.316624e-38 297 252
-0.029470026 0.764 -0.016074561 1.3441751e-38 298 252
-0.028020019 0.76099998 -0.016011439 1.3441751e-38 299 252
-0.026685731 0.76099998 -0.016011439 1.3350987e-38 300 252
-0.025351444 0.76099998 -0.016011439 1.3443183e-38 301 252
-0.023954039 0.759 -0.015969358 1.3718688e-38 302 252
-0.02262326 0.759 -0.015969358 1.3811244e-38 303 252
-0.02129248 0.759 -0.015969358 1.3902359e-38 304 252
-0.019909101 0.75700003 -0.015927281 1.3994556e-38 305 252
-0.018532733 0.755 -0.015885198 1.3719041e-38 306 252
-0.017208965 0.755 -0.015885198 1.3626846e-38 307 252
-0.015885198 0.755 -0.015885198 1.3993107e-38 308 252
-0.014561433 0.755 -0.015885198 1.3993107e-38 309 252
-0.013237666 0.755 -0.015885198 1.3533931e-38 310 252
-0.011913899 0.755 -0.015885198 1.334954e-38 311 252
-0.010590133 0.755 -0.015885198 1.3164435e-38 312 252
-0.0092663663 0.755 -0.015885198 1.2888209e-38 313 252
-0.0079425992 0.755 -0.015885198 1.298041e-38 314 252
-0.0066188332 0.755 -0.015885198 1.279566e-38 315 252
-0.0052950666 0.755 -0.015885198 1.2978253e-38 316 252
-0.0039712996 0.755 -0.015885198 1.2793861e-38 317 252
-0.0026475333 0.755 -0.015885198 1.2793142e-38 318 252
-0.0013237667 0.755 -0.015885198 1.2700946e-38 319 252
0 0.755 -0.015885198 1.2699877e-38 320 252
0.0013237667 0.755 -0.015885198 1.2607681e-38 321 252
0.0026475333 0.755 -0.015885198 1.2423656e-38 322 252
0.0039712996 0.755 -0.015885198 1.2239264e-38 323 252
0.0052950666 0.755 -0.015885198 1.2329665e-38 324 252
0.0066188332 0.755 -0.015885198 1.2053078e-38 325 252
0.0079425992 0.755 -0.015885198 1.1777213e-38 326 252
0.0092663663 0.755 -0.015885198 1.1685017e-38 327 252
0.010618187 0.75700003 -0.015927281 1.1592466e-38 328 252
0.01197702 0.759 -0.015969358 1.1408435e-38 329 252
0.0133078 0.759 -0.015969358 1.1041094e-38 330 252
0.014638579 0.759 -0.015969358 1.0856701e-38 331 252
0.015969358 0.759 -0.015969358 1.076415e-38 332 252
0.017345725 0.76099998 -0.016011439 1.0487923e-38 333 252
0.018680012 0.76099998 -0.016011439 1.0027678e-38 334 252
0.020014299 0.76099998 -0.016011439 9.659254e-39 335 252
0.02137664 0.76200002 -0.01603248 9.1986486e-39 336 252
0.02271268 0.76200002 -0.01603248 8.9217016e-39 337 252
0.024111839 0.764 -0.016074561 8.1873834e-39 338 252
0.025451386 0.764 -0.016074561 8.279579e-39 339 252
0.026861066 0.76599997 -0.016116638 8.19027e-39 340 252
0.02824094 0.76700002 -0.01613768 8.8356394e-39 341 252
0.029585747 0.76700002 -0.01613768 8.8377932e-39 342 252
0.030930554 0.76700002 -0.01613768 9.0221859e-39 343 252
0.032359518 0.76899999 -0.016179759 1.049985e-38 344 252
0.033620168 0.76700002 -0.01613768 1.3634501e-38 345 252
0.034964975 0.76700002 -0.01613768 1.5487438e-38 346 252
-0.037949149 0.773 -0.017619247 1.4190179e-38 292 253
-0.036499143 0.77100003 -0.01757366 1.2530659e-38 293 253
-0.035056144 0.76899999 -0.017528072 1.3258828e-38 294 253
-0.033707831 0.76899999 -0.017528072 1.3166631e-38 295 253
-0.03227536 0.76700002 -0.017482487 1.3258454e-38 296 253
-0.030890226 0.76599997 -0.017459691 1.2981869e-38 297 253
-0.029470026 0.764 -0.017414106 1.3348836e-38 298 253
-0.028020019 0.76099998 -0.017345725 1.3441032e-38 299 253
-0.026685731 0.76099998 -0.017345725 1.3349187e-38 300 253
-0.025351444 0.76099998 -0.017345725 1.3441382e-38 301 253
-0.023954039 0.759 -0.017300138 1.3717243e-38 302 253
-0.02262326 0.759 -0.017300138 1.3809439e-38 303 253
-0.02129248 0.759 -0.017300138 1.3809439e-38 304 253
-0.019909101 0.75700003 -0.017254554 1.3717243e-38 305 253
-0.018532733 0.755 -0.017208965 1.3809439e-38 306 253
-0.017208965 0.755 -0.017208965 1.3717243e-38 307 253
-0.015885198 0.755 -0.017208965 1.371688e-38 308 253
-0.014561433 0.755 -0.017208965 1.3624325e-38 309 253
-0.013237666 0.755 -0.017208965 1.3348817e-38 310 253
-0.011913899 0.755 -0.017208965 1.3256621e-38 311 253
-0.010590133 0.755 -0.017208965 1.3163356e-38 312 253
-0.0092663663 0.755 -0.017208965 1.3070802e-38 313 253
-0.0079425992 0.755 -0.017208965 1.2978259e-38 314 253
-0.0066188332 0.755 -0.017208965 1.2978259e-38 315 253
-0.0052950666 0.755 -0.017208965 1.2977539e-38 316 253
-0.0039712996 0.755 -0.017208965 1.2885343e-38 317 253
-0.0026475333 0.755 -0.017208965 1.2793145e-38 318 253
-0.0013237667 0.755 -0.017208965 1.2516199e-38 319 253
0 0.755 -0.017208965 1.2607681e-38 320 253
0.0013237667 0.755 -0.017208965 1.242293e-38 321 253
0.0026475333 0.755 -0.017208965 1.2330381e-38 322 253
0.0039712996 0.755 -0.017208965 1.2054154e-38 323 253
0.0053090933 0.75700003 -0.017254554 1.186976e-38 324 253
0.0066363667 0.75700003 -0.017254554 1.1685368e-38 325 253
0.0079636406 0.75700003 -0.017254554 1.1409501e-38 326 253
0.0092909131 0.75700003 -0.017254554 1.1409501e-38 327 253
0.01064624 0.759 -0.017300138 1.1316952e-38 328 253
0.01197702 0.759 -0.017300138 1.1132561e-38 329 253
0.0133078 0.759 -0.017300138 1.113149e-38 330 253
0.014638579 0.759 -0.017300138 1.0763068e-38 331 253
0.016011439 0.76099998 -0.017345725 1.057904e-38 332 253
0.017345725 0.76099998 -0.017345725 1.0210257e-38 333 253
0.018680012 0.76099998 -0.017345725 9.7503678e-39 334 253
0.020014299 0.76099998 -0.017345725 9.3819455e-39 335 253
0.02137664 0.76200002 -0.01736852 8.9217016e-39 336 253
0.02271268 0.76200002 -0.01736852 8.5532792e-39 337 253
0.024111839 0.764 -0.017414106 7.9118727e-39 338 253
0.025451386 0.764 -0.017414106 8.1884581e-39 339 253
0.026861066 0.76599997 -0.017459691 8.3746487e-39 340 253
0.02824094 0.76700002 -0.017482487 8.7430725e-39 341 253
0.02966289 0.76899999 -0.017528072 9.0207398e-39 342 253
0.031011207 0.76899999 -0.017528072 9.1129354e-39 343 253
0.032443684 0.77100003 -0.01757366 1.105554e-38 344 253
0.033795502 0.77100003 -0.01757366 1.382141e-38 345 253
-0.036499143 0.77100003 -0.018925481 1.3084198e-38 293 254
-0.035056144 0.76899999 -0.018876385 1.3535408e-38 294 254
-0.033707831 0.76899999 -0.018876385 1.3351377e-38 295 254
-0.03227536 0.76700002 -0.018827293 1.3626142e-38 296 254
-0.030890226 0.76599997 -0.018802745 1.325772e-38 297 254
-0.029470026 0.764 -0.018753653 1.3348836e-38 298 254
-0.028020019 0.76099998 -0.018680012 1.3348836e-38 299 254
-0.026685731 0.76099998 -0.018680012 1.3165521e-38 300 254
-0.025351444 0.76099998 -0.018680012 1.3165521e-38 301 254
-0.023954039 0.759 -0.01863092 1.3257717e-38 302 254
-0.02262326 0.759 -0.01863092 1.3257717e-38 303 254
-0.02129248 0.759 -0.01863092 1.3441032e-38 304 254
-0.019909101 0.75700003 -0.018581826 1.3441032e-38 305 254
-0.018532733 0.755 -0.018532733 1.3165168e-38 306 254
-0.017208965 0.755 -0.018532733 1.3072971e-38 307 254
-0.015885198 0.755 -0.018532733 1.3256283e-38 308 254
-0.014561433 0.755 -0.018532733 1.3164088e-38 309 254
-0.013237666 0.755 -0.018532733 1.2887861e-38 310 254
-0.011913899 0.755 -0.018532733 1.2795307e-38 311 254
-0.010590133 0.755 -0.018532733 1.2702396e-38 312 254
-0.0092663663 0.755 -0.018532733 1.2702396e-38 313 254
-0.0079425992 0.755 -0.018532733 1.2610561e-38 314 254
-0.0066188332 0.755 -0.018532733 1.2702758e-38 315 254
-0.0052950666 0.755 -0.018532733 1.279351e-38 316 254
-0.0039712996 0.755 -0.018532733 1.2517284e-38 317 254
-0.0026475333 0.755 -0.018532733 1.2607681e-38 318 254
-0.0013237667 0.755 -0.018532733 1.2515126e-38 319 254
0 0.755 -0.018532733 1.2422217e-38 320 254
0.0013237667 0.755 -0.018532733 1.2329662e-38 321 254
0.0026475333 0.755 -0.018532733 1.1870129e-38 322 254
0.0039712996 0.755 -0.018532733 1.1777933e-38 323 254
0.0053090933 0.75700003 -0.018581826 1.1593895e-38 324 254
0.0066363667 0.75700003 -0.018581826 1.1409504e-38 325 254
0.0079636406 0.75700003 -0.018581826 1.1226192e-38 326 254
0.00931546 0.759 -0.01863092 1.10418e-38 327 254
0.01064624 0.759 -0.01863092 1.1132208e-38 328 254
0.012008579 0.76099998 -0.018680012 1.0948175e-38 329 254
0.013342866 0.76099998 -0.018680012 1.0487567e-38 330 254
0.014677152 0.76099998 -0.018680012 1.0395372e-38 331 254
0.016011439 0.76099998 -0.018680012 9.9358353e-39 332 254
0.017345725 0.76099998 -0.018680012 9.5674115e-39 333 254
0.018680012 0.76099998 -0.018680012 9.1075222e-39 334 254
0.020014299 0.76099998 -0.018680012 8.7387396e-39 335 254
0.02137664 0.76200002 -0.01870456 8.2788503e-39 336 254
0.02271268 0.76200002 -0.01870456 8.2788503e-39 337 254
0.024111839 0.764 -0.018753653 7.9133104e-39 338 254
0.025451386 0.764 -0.018753653 8.0977031e-39 339 254
0.026861066 0.76599997 -0.018802745 8.0991506e-39 340 254
0.02824094 0.76700002 -0.018827293 8.6523244e-39 341 254
0.02966289 0.76899999 -0.018876385 8.5626497e-39 342 254
0.031011207 0.76899999 -0.018876385 8.9314322e-39 343 254
0.032359518 0.76899999 -0.018876385 1.1700558e-38 344 254
0.033795502 0.77100003 -0.018925481 1.4282034e-38 345 254
-0.035056144 0.76899999 -0.0202247 1.3352843e-38 294 255
-0.033707831 0.76899999 -0.0202247 1.3075897e-38 295 255
-0.03227536 0.76700002 -0.020172099 1.3534325e-38 296 255
-0.030890226 0.76599997 -0.020145798 1.3257379e-38 297 255
-0.029470026 0.764 -0.020093199 1.3440676e-38 298 255
-0.028020019 0.76099998 -0.020014299 1.3256283e-38 299 255
-0.026685731 0.76099998 -0.020014299 1.325699e-38 300 255
-0.025351444 0.76099998 -0.020014299 1.325699e-38 301 255
-0.023954039 0.759 -0.0199617 1.334882e-38 302 255
-0.02262326 0.759 -0.0199617 1.334882e-38 303 255
-0.02129248 0.759 -0.0199617 1.3164438e-38 304 255
-0.0199617 0.759 -0.0199617 1.3164438e-38 305 255
-0.018532733 0.755 -0.0198565 1.3164085e-38 306 255
-0.017208965 0.755 -0.0198565 1.2980054e-38 307 255
-0.015885198 0.755 -0.0198565 1.2980057e-38 308 255
-0.014561433 0.755 -0.0198565 1.2795307e-38 309 255
-0.013237666 0.755 -0.0198565 1.2610914e-38 310 255
-0.011913899 0.755 -0.0198565 1.2518718e-38 311 255
-0.010590133 0.755 -0.0198565 1.2700959e-38 312 255
-0.0092663663 0.755 -0.0198565 1.2516928e-38 313 255
-0.0079425992 0.755 -0.0198565 1.2517649e-38 314 255
-0.0066188332 0.755 -0.0198565 1.2517649e-38 315 255
-0.0052950666 0.755 -0.0198565 1.251693e-38 316 255
-0.0039712996 0.755 -0.0198565 1.233218e-38 317 255
-0.0026475333 0.755 -0.0198565 1.2605892e-38 318 255
-0.0013237667 0.755 -0.0198565 1.2329665e-38 319 255
0 0.755 -0.0198565 1.2420782e-38 320 255
0.0013237667 0.755 -0.0198565 1.2144555e-38 321 255
0.0026475333 0.755 -0.0198565 1.1777566e-38 322 255
0.0039818203 0.75700003 -0.019909101 1.1685012e-38 323 255
0.0053090933 0.75700003 -0.019909101 1.1409507e-38 324 255
0.0066363667 0.75700003 -0.019909101 1.1224757e-38 325 255
0.0079846792 0.759 -0.0199617 1.1316236e-38 326 255
0.00931546 0.759 -0.0199617 1.1131844e-38 327 255
0.010674292 0.76099998 -0.020014299 1.0947099e-38 328 255
0.012008579 0.76099998 -0.020014299 1.0763068e-38 329 255
0.013342866 0.76099998 -0.020014299 1.057904e-38 330 255
0.014677152 0.76099998 -0.020014299 1.0486844e-38 331 255
0.016011439 0.76099998 -0.020014299 9.5681276e-39 332 255
0.017345725 0.76099998 -0.020014299 9.1993465e-39 333 255
0.018680012 0.76099998 -0.020014299 8.9234882e-39 334 255
0.0200406 0.76200002 -0.0200406 8.7390956e-39 335 255
0.02137664 0.76200002 -0.0200406 8.3714019e-39 336 255
0.022772292 0.764 -0.020093199 8.3714019e-39 337 255
0.024111839 0.764 -0.020093199 8.005862e-39 338 255
0.025451386 0.764 -0.020093199 8.1902546e-39 339 255
0.026896132 0.76700002 -0.020172099 8.1917022e-39 340 255
0.02824094 0.76700002 -0.020172099 8.7448759e-39 341 255
0.02966289 0.76899999 -0.0202247 9.0225488e-39 342 255
0.031011207 0.76899999 -0.0202247 9.2072988e-39 343 255
0.032359518 0.76899999 -0.0202247 1.170164e-38 344 255
0.033795502 0.77100003 -0.020277301 1.4559344e-38 345 255
-0.03514732 0.77100003 -0.021629119 1.3447203e-38 294 256
-0.033795502 0.77100003 -0.021629119 1.2801834e-38 295 256
-0.03227536 0.76700002 -0.021516906 1.3534325e-38 296 256
-0.030890226 0.76599997 -0.021488851 1.3349575e-38 297 256
-0.029547172 0.76599997 -0.021488851 1.3165534e-38 298 256
-0.028020019 0.76099998 -0.021348584 1.2889306e-38 299 256
-0.026685731 0.76099998 -0.021348584 1.3164085e-38 300 256
-0.025351444 0.76099998 -0.021348584 1.3164085e-38 301 256
-0.023954039 0.759 -0.02129248 1.2980407e-38 302 256
-0.02262326 0.759 -0.02129248 1.2980407e-38 303 256
-0.02129248 0.759 -0.02129248 1.2887855e-38 304 256
-0.0199617 0.759 -0.02129248 1.2887855e-38 305 256
-0.01863092 0.759 -0.02129248 1.2796382e-38 306 256
-0.017300138 0.759 -0.02129248 1.2796382e-38 307 256
-0.015969358 0.759 -0.02129248 1.2520518e-38 308 256
-0.014600007 0.75700003 -0.021236373 1.2336125e-38 309 256
-0.013237666 0.755 -0.021180267 1.2242857e-38 310 256
-0.011913899 0.755 -0.021180267 1.1966272e-38 311 256
-0.010590133 0.755 -0.021180267 1.2057394e-38 312 256
-0.0092663663 0.755 -0.021180267 1.2057394e-38 313 256
-0.0079425992 0.755 -0.021180267 1.2332186e-38 314 256
-0.0066188332 0.755 -0.021180267 1.2332186e-38 315 256
-0.0052950666 0.755 -0.021180267 1.2515495e-38 316 256
-0.0039712996 0.755 -0.021180267 1.2239267e-38 317 256
-0.0026475333 0.755 -0.021180267 1.2146716e-38 318 256
-0.0013237667 0.755 -0.021180267 1.1870129e-38 319 256
0 0.755 -0.021180267 1.1869407e-38 320 256
0.0013237667 0.755 -0.021180267 1.177721e-38 321 256
0.0026545466 0.75700003 -0.021236373 1.1501699e-38 322 256
0.0039818203 0.75700003 -0.021236373 1.1409504e-38 323 256
0.0053090933 0.75700003 -0.021236373 1.1133643e-38 324 256
0.0066538998 0.759 -0.02129248 1.0949252e-38 325 256
0.0079846792 0.759 -0.02129248 1.0947822e-38 326 256
0.00931546 0.759 -0.02129248 1.0855627e-38 327 256
0.010674292 0.76099998 -0.021348584 1.0395372e-38 328 256
0.012008579 0.76099998 -0.021348584 1.0395372e-38 329 256
0.013342866 0.76099998 -0.021348584 1.0119861e-38 330 256
0.014677152 0.76099998 -0.021348584 9.9354682e-39 331 256
0.016011439 0.76099998 -0.021348584 9.5681276e-39 332 256
0.01736852 0.76200002 -0.02137664 9.2919008e-39 333 256
