# .PCD v.7 - Point Cloud Data file format
FIELDS x y z rgb imX imY
SIZE 4 4 4 4 4 4
TYPE F F F F F F
COUNT 1 1 1 1 1 1
WIDTH 833
HEIGHT 1
VIEWPOINT 0 0 0 1 0 0 0
POINTS 833
DATA ascii
-0.01101444 0.69800001 -0.037938625 1.5924922e-38 311 271
-0.0097906133 0.69800001 -0.037938625 1.5741259e-38 312 271
-0.0085667865 0.69800001 -0.037938625 1.5648705e-38 313 271
-0.0073429602 0.69800001 -0.037938625 1.5557234e-38 314 271
-0.006119133 0.69800001 -0.037938625 1.5557234e-38 315 271
-0.0048953067 0.69800001 -0.037938625 1.5648357e-38 316 271
-0.0036714801 0.69800001 -0.037938625 1.5924584e-38 317 271
-0.0024441467 0.69700003 -0.037884273 1.5741995e-38 318 271
-0.0012220733 0.69700003 -0.037884273 1.5926386e-38 319 271
0 0.69700003 -0.037884273 1.6018938e-38 320 271
0.0012203199 0.69599998 -0.037829921 1.6018938e-38 321 271
0.0024336267 0.69400001 -0.037721213 1.6109701e-38 322 271
0.0036504399 0.69400001 -0.037721213 1.6109701e-38 323 271
0.0048672534 0.69400001 -0.037721213 1.5835282e-38 324 271
0.0060840664 0.69400001 -0.037721213 1.6204065e-38 325 271
0.0072903596 0.69300002 -0.037666857 1.6848343e-38 326 271
0.0085054198 0.69300002 -0.037666857 1.6756147e-38 327 271
0.0097204801 0.69300002 -0.037666857 1.6755068e-38 328 271
0.010935539 0.69300002 -0.037666857 1.6386644e-38 329 271
0.012150601 0.69300002 -0.037666857 1.5652323e-38 330 271
0.013327086 0.69099998 -0.03755815 1.5928551e-38 331 271
0.014538639 0.69099998 -0.03755815 1.6294077e-38 332 271
0.015750192 0.69099998 -0.03755815 1.5740903e-38 333 271
0.01701084 0.69300002 -0.037666857 1.6200786e-38 334 271
0.018225901 0.69300002 -0.037666857 1.610859e-38 335 271
0.01944096 0.69300002 -0.037666857 1.59242e-38 336 271
0.020656019 0.69300002 -0.037666857 1.5739809e-38 337 271
0.021871079 0.69300002 -0.037666857 1.5555413e-38 338 271
0.023119451 0.69400001 -0.037721213 1.5371022e-38 339 271
0.024336265 0.69400001 -0.037721213 1.5371019e-38 340 271
0.025553079 0.69400001 -0.037721213 1.5371019e-38 341 271
0.026847038 0.69599998 -0.037829921 1.5371375e-38 342 271
0.028107686 0.69700003 -0.037884273 1.5463571e-38 343 271
0.02932976 0.69700003 -0.037884273 1.5280256e-38 344 271
0.030595668 0.69800001 -0.037938625 1.5280256e-38 345 271
0.031819493 0.69800001 -0.037938625 1.5372807e-38 346 271
0.033043321 0.69800001 -0.037938625 1.5372807e-38 347 271
0.034365334 0.69999999 -0.038047329 1.5280256e-38 348 271
0.035745207 0.70300001 -0.038210396 1.518806e-38 349 271
0.0372408 0.708 -0.038482159 1.5004758e-38 350 271
-0.027232772 0.70599997 -0.039611302 1.9360729e-38 298 272
-0.02603174 0.70700002 -0.039667413 1.4843143e-38 299 272
-0.024792133 0.70700002 -0.039667413 1.4461706e-38 300 272
-0.023552528 0.70700002 -0.039667413 1.2341205e-38 301 272
-0.022281358 0.70599997 -0.039611302 1.555686e-38 302 272
-0.021043506 0.70599997 -0.039611302 1.5464664e-38 303 272
-0.019749546 0.704 -0.039499093 1.5370693e-38 304 272
-0.018515198 0.704 -0.039499093 1.5370693e-38 305 272
-0.017256306 0.70300001 -0.039442986 1.5463963e-38 306 272
-0.015978126 0.70099998 -0.039330769 1.592494e-38 307 272
-0.014727999 0.69999999 -0.039274666 1.5924572e-38 308 272
-0.013462093 0.69800001 -0.039162453 1.5924572e-38 309 272
-0.012238266 0.69800001 -0.039162453 1.6107887e-38 310 272
-0.01101444 0.69800001 -0.039162453 1.5923497e-38 311 272
-0.0097906133 0.69800001 -0.039162453 1.5739824e-38 312 272
-0.0085667865 0.69800001 -0.039162453 1.5647629e-38 313 272
-0.0073429602 0.69800001 -0.039162453 1.5464316e-38 314 272
-0.006119133 0.69800001 -0.039162453 1.5372121e-38 315 272
-0.0048953067 0.69800001 -0.039162453 1.5647276e-38 316 272
-0.00366622 0.69700003 -0.039106347 1.5831667e-38 317 272
-0.0024406398 0.69599998 -0.039050236 1.5740556e-38 318 272
-0.0012203199 0.69599998 -0.039050236 1.5924588e-38 319 272
0 0.69599998 -0.039050236 1.6291573e-38 320 272
0.0012168133 0.69400001 -0.038938027 1.6291573e-38 321 272
0.00243012 0.69300002 -0.03888192 1.5924588e-38 322 272
0.0036451798 0.69300002 -0.03888192 1.6016784e-38 323 272
0.00486024 0.69300002 -0.03888192 1.5742371e-38 324 272
0.0060753003 0.69300002 -0.03888192 1.6110794e-38 325 272
0.0072903596 0.69300002 -0.03888192 1.6388456e-38 326 272
0.008480873 0.69099998 -0.038769703 1.629626e-38 327 272
0.0096924258 0.69099998 -0.038769703 1.6755068e-38 328 272
0.01090398 0.69099998 -0.038769703 1.629409e-38 329 272
0.012115533 0.69099998 -0.038769703 1.5835988e-38 330 272
0.013327086 0.69099998 -0.038769703 1.5559043e-38 331 272
0.014538639 0.69099998 -0.038769703 1.5373919e-38 332 272
0.015750192 0.69099998 -0.038769703 1.5466114e-38 333 272
0.016961746 0.69099998 -0.038769703 1.6108587e-38 334 272
0.018225901 0.69300002 -0.03888192 1.5924556e-38 335 272
0.01944096 0.69300002 -0.03888192 1.5740162e-38 336 272
0.020656019 0.69300002 -0.03888192 1.5555769e-38 337 272
0.021871079 0.69300002 -0.03888192 1.5462146e-38 338 272
0.023119451 0.69400001 -0.038938027 1.536995e-38 339 272
0.024336265 0.69400001 -0.038938027 1.5369947e-38 340 272
0.025553079 0.69400001 -0.038938027 1.5369947e-38 341 272
0.026847038 0.69599998 -0.039050236 1.5278102e-38 342 272
0.028067358 0.69599998 -0.039050236 1.5370656e-38 343 272
0.029287677 0.69599998 -0.039050236 1.5187341e-38 344 272
0.030551834 0.69700003 -0.039106347 1.5371373e-38 345 272
0.031819493 0.69800001 -0.039162453 1.5371375e-38 346 272
0.033043321 0.69800001 -0.039162453 1.5463571e-38 347 272
0.034267146 0.69800001 -0.039162453 1.5187707e-38 348 272
0.035592664 0.69999999 -0.039274666 1.5095512e-38 349 272
0.037188202 0.70700002 -0.039667413 1.4912199e-38 350 272
0.038482159 0.708 -0.039723519 1.4451221e-38 351 272
-0.027232772 0.70599997 -0.040849157 1.7336369e-38 298 273
-0.025994917 0.70599997 -0.040849157 1.1067426e-38 299 273
-0.024757065 0.70599997 -0.040849157 1.3622937e-38 300 273
-0.023519212 0.70599997 -0.040849157 1.4637449e-38 301 273
-0.022281358 0.70599997 -0.040849157 1.5465739e-38 302 273
-0.021043506 0.70599997 -0.040849157 1.5189153e-38 303 273
-0.019749546 0.704 -0.040733438 1.5279571e-38 304 273
-0.018515198 0.704 -0.040733438 1.5371768e-38 305 273
-0.017182667 0.69999999 -0.040502001 1.5464329e-38 306 273
-0.015955333 0.69999999 -0.040502001 1.5556525e-38 307 273
-0.01468592 0.69800001 -0.040386278 1.5649073e-38 308 273
-0.013462093 0.69800001 -0.040386278 1.5649073e-38 309 273
-0.012238266 0.69800001 -0.040386278 1.5556159e-38 310 273
-0.01099866 0.69700003 -0.040328421 1.5463963e-38 311 273
-0.0097765867 0.69700003 -0.040328421 1.51881e-38 312 273
-0.0085545136 0.69700003 -0.040328421 1.51881e-38 313 273
-0.00733244 0.69700003 -0.040328421 1.51881e-38 314 273
-0.0061103669 0.69700003 -0.040328421 1.5280295e-38 315 273
-0.0048812795 0.69599998 -0.040270556 1.5188821e-38 316 273
-0.0036504399 0.69400001 -0.040154841 1.5281017e-38 317 273
-0.0024336267 0.69400001 -0.040154841 1.5556177e-38 318 273
-0.0012168133 0.69400001 -0.040154841 1.5648373e-38 319 273
0 0.69400001 -0.040154841 1.5740206e-38 320 273
0.00121506 0.69300002 -0.04009698 1.5740206e-38 321 273
0.00243012 0.69300002 -0.04009698 1.564837e-38 322 273
0.0036451798 0.69300002 -0.04009698 1.564837e-38 323 273
0.0048462129 0.69099998 -0.039981257 1.4363765e-38 324 273
0.0060577663 0.69099998 -0.039981257 1.4824743e-38 325 273
0.0072693196 0.69099998 -0.039981257 1.6021471e-38 326 273
0.008480873 0.69099998 -0.039981257 1.6205863e-38 327 273
0.0096924258 0.69099998 -0.039981257 1.6296951e-38 328 273
0.010888199 0.69 -0.0399234 1.61122e-38 329 273
0.012097999 0.69 -0.0399234 1.6201528e-38 330 273
0.0133078 0.69 -0.0399234 1.574055e-38 331 273
0.014517599 0.69 -0.0399234 1.574055e-38 332 273
0.015750192 0.69099998 -0.039981257 1.574055e-38 333 273
0.016961746 0.69099998 -0.039981257 1.5557581e-38 334 273
0.018225901 0.69300002 -0.04009698 1.5281355e-38 335 273
0.01944096 0.69300002 -0.04009698 1.5280271e-38 336 273
0.020656019 0.69300002 -0.04009698 1.5004045e-38 337 273
0.021871079 0.69300002 -0.04009698 1.5186638e-38 338 273
0.02308614 0.69300002 -0.04009698 1.5186638e-38 339 273
0.024301201 0.69300002 -0.04009698 1.5095158e-38 340 273
0.025553079 0.69400001 -0.040154841 1.5002963e-38 341 273
0.026769891 0.69400001 -0.040154841 1.509444e-38 342 273
0.027986705 0.69400001 -0.040154841 1.5002244e-38 343 273
0.029203519 0.69400001 -0.040154841 1.4635982e-38 344 273
0.030551834 0.69700003 -0.040328421 1.4820013e-38 345 273
0.03177391 0.69700003 -0.040328421 1.4912565e-38 346 273
0.03299598 0.69700003 -0.040328421 1.5004761e-38 347 273
0.034218054 0.69700003 -0.040328421 1.5004039e-38 348 273
0.035490975 0.69800001 -0.040386278 1.4911843e-38 349 273
0.036872596 0.70099998 -0.040559858 1.4819648e-38 350 273
0.038373452 0.70599997 -0.040849157 1.4727452e-38 351 273
0.039667413 0.70700002 -0.040907022 1.4084629e-38 352 273
0.040964879 0.708 -0.040964879 1.4084629e-38 353 273
0.042206239 0.708 -0.040964879 1.5204716e-38 354 273
-0.027232772 0.70599997 -0.042087011 1.5578145e-38 298 274
-0.025994917 0.70599997 -0.042087011 1.0046768e-38 299 274
-0.024757065 0.70599997 -0.042087011 1.4451237e-38 300 274
-0.023452586 0.704 -0.041967787 1.5280999e-38 301 274
-0.022218239 0.704 -0.041967787 1.5372121e-38 302 274
-0.020983893 0.704 -0.041967787 1.5279565e-38 303 274
-0.019749546 0.704 -0.041967787 1.5279571e-38 304 274
-0.018488899 0.70300001 -0.041908171 1.5463963e-38 305 274
-0.017182667 0.69999999 -0.041729331 1.5464682e-38 306 274
-0.015955333 0.69999999 -0.041729331 1.5556878e-38 307 274
-0.01468592 0.69800001 -0.041610107 1.5556878e-38 308 274
-0.013462093 0.69800001 -0.041610107 1.5464682e-38 309 274
-0.012238266 0.69800001 -0.041610107 1.5280295e-38 310 274
-0.01099866 0.69700003 -0.041550495 1.51881e-38 311 274
-0.0097625591 0.69599998 -0.041490879 1.500371e-38 312 274
-0.0085422397 0.69599998 -0.041490879 1.500371e-38 313 274
-0.0073008798 0.69400001 -0.041371655 1.5095907e-38 314 274
-0.0060840664 0.69400001 -0.041371655 1.5095907e-38 315 274
-0.0048672534 0.69400001 -0.041371655 1.5096623e-38 316 274
-0.0036451798 0.69300002 -0.041312039 1.5096623e-38 317 274
-0.00243012 0.69300002 -0.041312039 1.5463963e-38 318 274
-0.00121506 0.69300002 -0.041312039 1.5648355e-38 319 274
0 0.69300002 -0.041312039 1.59235e-38 320 274
0.00121506 0.69300002 -0.041312039 1.5831304e-38 321 274
0.0024231065 0.69099998 -0.041192811 1.5371417e-38 322 274
0.0036346598 0.69099998 -0.041192811 1.4910439e-38 323 274
0.0048391996 0.69 -0.041133199 1.3166298e-38 324 274
0.0060489997 0.69 -0.041133199 1.3996058e-38 325 274
0.0072693196 0.69099998 -0.041192811 1.5375746e-38 326 274
0.0084686 0.69 -0.041133199 1.5837084e-38 327 274
0.0096783992 0.69 -0.041133199 1.6298396e-38 328 274
0.010888199 0.69 -0.041133199 1.5929255e-38 329 274
0.012097999 0.69 -0.041133199 1.6110052e-38 330 274
0.0133078 0.69 -0.041133199 1.5556878e-38 331 274
0.014517599 0.69 -0.041133199 1.5739827e-38 332 274
0.015727401 0.69 -0.041133199 1.5924218e-38 333 274
0.0169372 0.69 -0.041133199 1.555686e-38 334 274
0.0181733 0.69099998 -0.041192811 1.509624e-38 335 274
0.019384852 0.69099998 -0.041192811 1.5277752e-38 336 274
0.020596405 0.69099998 -0.041192811 1.5001524e-38 337 274
0.021807959 0.69099998 -0.041192811 1.4818932e-38 338 274
0.02308614 0.69300002 -0.041312039 1.5002963e-38 339 274
0.024301201 0.69300002 -0.041312039 1.500296e-38 340 274
0.02551626 0.69300002 -0.041312039 1.4726732e-38 341 274
0.026769891 0.69400001 -0.041371655 1.4817127e-38 342 274
0.027986705 0.69400001 -0.041371655 1.5001877e-38 343 274
0.029203519 0.69400001 -0.041371655 1.4727452e-38 344 274
0.030507999 0.69599998 -0.041490879 1.4911843e-38 345 274
0.031728316 0.69599998 -0.041490879 1.4820369e-38 346 274
0.032948639 0.69599998 -0.041490879 1.4912565e-38 347 274
0.034218054 0.69700003 -0.041550495 1.4911846e-38 348 274
0.035490975 0.69800001 -0.041610107 1.4819651e-38 349 274
0.036872596 0.70099998 -0.041788943 1.4636338e-38 350 274
0.038264744 0.704 -0.041967787 1.4820369e-38 351 274
0.039611302 0.70599997 -0.042087011 1.4453407e-38 352 274
0.040907022 0.70700002 -0.042146627 1.3900233e-38 353 274
0.042206239 0.708 -0.042206239 1.4464618e-38 354 274
0.043447599 0.708 -0.042206239 1.8982203e-38 355 274
0.044815198 0.70999998 -0.042325463 1.8438423e-38 356 274
-0.025994917 0.70599997 -0.043324865 1.1146276e-38 299 275
-0.024757065 0.70599997 -0.043324865 1.4820019e-38 300 275
-0.023452586 0.704 -0.043202132 1.500441e-38 301 275
-0.02218668 0.70300001 -0.043140765 1.5279568e-38 302 275
-0.020954086 0.70300001 -0.043140765 1.5371765e-38 303 275
-0.019721493 0.70300001 -0.043140765 1.5280648e-38 304 275
-0.018488899 0.70300001 -0.043140765 1.5280648e-38 305 275
-0.017182667 0.69999999 -0.042956665 1.5463963e-38 306 275
-0.015909746 0.69800001 -0.042833932 1.5463963e-38 307 275
-0.01466488 0.69700003 -0.042772565 1.5188821e-38 308 275
-0.013442807 0.69700003 -0.042772565 1.5096626e-38 309 275
-0.012238266 0.69800001 -0.042833932 1.5095907e-38 310 275
-0.010982879 0.69599998 -0.042711195 1.5095907e-38 311 275
-0.0097345067 0.69400001 -0.042588469 1.4820041e-38 312 275
-0.0085176928 0.69400001 -0.042588469 1.463565e-38 313 275
-0.0073008798 0.69400001 -0.042588469 1.463565e-38 314 275
-0.0060753003 0.69300002 -0.042527102 1.4820041e-38 315 275
-0.00486024 0.69300002 -0.042527102 1.4728565e-38 316 275
-0.0036451798 0.69300002 -0.042527102 1.4820762e-38 317 275
-0.00243012 0.69300002 -0.042527102 1.4820759e-38 318 275
-0.0012115532 0.69099998 -0.042404365 1.4912955e-38 319 275
0 0.69099998 -0.042404365 1.5279216e-38 320 275
0.0012115532 0.69099998 -0.042404365 1.5095184e-38 321 275
0.0024231065 0.69099998 -0.042404365 1.4818612e-38 322 275
0.0036346598 0.69099998 -0.042404365 1.4542027e-38 323 275
0.0048391996 0.69 -0.042342998 1.3439643e-38 324 275
0.0060489997 0.69 -0.042342998 1.4085013e-38 325 275
0.0072587994 0.69 -0.042342998 1.5281383e-38 326 275
0.0084686 0.69 -0.042342998 1.638809e-38 327 275
0.0096503468 0.68800002 -0.042220265 1.6480987e-38 328 275
0.010856641 0.68800002 -0.042220265 1.6020007e-38 329 275
0.012062933 0.68800002 -0.042220265 1.601677e-38 330 275
0.013269227 0.68800002 -0.042220265 1.5739824e-38 331 275
0.014517599 0.69 -0.042342998 1.5740903e-38 332 275
0.015727401 0.69 -0.042342998 1.5740903e-38 333 275
0.0169372 0.69 -0.042342998 1.555506e-38 334 275
0.018146999 0.69 -0.042342998 1.5094442e-38 335 275
0.019384852 0.69099998 -0.042404365 1.4634183e-38 336 275
0.020596405 0.69099998 -0.042404365 1.4634183e-38 337 275
0.021807959 0.69099998 -0.042404365 1.4634902e-38 338 275
0.023019511 0.69099998 -0.042404365 1.4634902e-38 339 275
0.024231065 0.69099998 -0.042404365 1.4634536e-38 340 275
0.02551626 0.69300002 -0.042527102 1.4634536e-38 341 275
0.02673132 0.69300002 -0.042527102 1.4542341e-38 342 275
0.027946379 0.69300002 -0.042527102 1.4726732e-38 343 275
0.029203519 0.69400001 -0.042588469 1.445159e-38 344 275
0.030507999 0.69599998 -0.042711195 1.4635982e-38 345 275
0.031728316 0.69599998 -0.042711195 1.4636348e-38 346 275
0.032948639 0.69599998 -0.042711195 1.4636348e-38 347 275
0.034218054 0.69700003 -0.042772565 1.4636704e-38 348 275
0.035490975 0.69800001 -0.042833932 1.4636704e-38 349 275
0.036819998 0.69999999 -0.042956665 1.4544508e-38 350 275
0.038210396 0.70300001 -0.043140765 1.4544508e-38 351 275
0.039499093 0.704 -0.043202132 1.463707e-38 352 275
0.040849157 0.70599997 -0.043324865 1.4083896e-38 353 275
0.042146627 0.70700002 -0.043386232 1.4460283e-38 354 275
0.043447599 0.708 -0.043447599 1.8700922e-38 355 275
0.044815198 0.70999998 -0.043570329 1.7976718e-38 356 275
0.046060063 0.70999998 -0.043570329 1.8899035e-38 357 275
-0.025994917 0.70599997 -0.044562716 1.2889716e-38 299 276
-0.024757065 0.70599997 -0.044562716 1.500406e-38 300 276
-0.023452586 0.704 -0.044436477 1.4911864e-38 301 276
-0.02218668 0.70300001 -0.04437336 1.5004054e-38 302 276
-0.020954086 0.70300001 -0.04437336 1.5096609e-38 303 276
-0.019637333 0.69999999 -0.044183996 1.518845e-38 304 276
-0.018409999 0.69999999 -0.044183996 1.518845e-38 305 276
-0.017133573 0.69800001 -0.04405776 1.5463242e-38 306 276
-0.015909746 0.69800001 -0.04405776 1.5463242e-38 307 276
-0.01466488 0.69700003 -0.043994639 1.4912592e-38 308 276
-0.013442807 0.69700003 -0.043994639 1.4912592e-38 309 276
-0.012220734 0.69700003 -0.043994639 1.4820395e-38 310 276
-0.01095132 0.69400001 -0.043805279 1.4820395e-38 311 276
-0.0097345067 0.69400001 -0.043805279 1.4727843e-38 312 276
-0.0085176928 0.69400001 -0.043805279 1.4635647e-38 313 276
-0.0072903596 0.69300002 -0.043742158 1.4634931e-38 314 276
-0.0060753003 0.69300002 -0.043742158 1.4818962e-38 315 276
-0.00486024 0.69300002 -0.043742158 1.4360502e-38 316 276
-0.0036346598 0.69099998 -0.043615919 1.4360502e-38 317 276
-0.0024231065 0.69099998 -0.043615919 1.4267954e-38 318 276
-0.0012062934 0.68800002 -0.043426562 1.4360149e-38 319 276
0 0.68800002 -0.043426562 1.445055e-38 320 276
0.0012097999 0.69 -0.043552797 1.4174322e-38 321 276
0.0024195998 0.69 -0.043552797 1.3989575e-38 322 276
0.0036188802 0.68800002 -0.043426562 1.3897379e-38 323 276
0.0048251734 0.68800002 -0.043426562 1.3805183e-38 324 276
0.0060314666 0.68800002 -0.043426562 1.4266522e-38 325 276
0.0072377604 0.68800002 -0.043426562 1.4728209e-38 326 276
0.0084440531 0.68800002 -0.043426562 1.5742721e-38 327 276
0.0096503468 0.68800002 -0.043426562 1.5926739e-38 328 276
0.010856641 0.68800002 -0.043426562 1.5373566e-38 329 276
0.012062933 0.68800002 -0.043426562 1.5922421e-38 330 276
0.013249939 0.68699998 -0.043363437 1.6106812e-38 331 276
0.014454478 0.68699998 -0.043363437 1.5466112e-38 332 276
0.015681813 0.68800002 -0.043426562 1.5373916e-38 333 276
0.016888106 0.68800002 -0.043426562 1.5279906e-38 334 276
0.018146999 0.69 -0.043552797 1.4726732e-38 335 276
0.019356798 0.69 -0.043552797 1.4725653e-38 336 276
0.020566599 0.69 -0.043552797 1.4725653e-38 337 276
0.021776399 0.69 -0.043552797 1.4541987e-38 338 276
0.023019511 0.69099998 -0.043615919 1.4541987e-38 339 276
0.024231065 0.69099998 -0.043615919 1.4725297e-38 340 276
0.025442619 0.69099998 -0.043615919 1.4541266e-38 341 276
0.02673132 0.69300002 -0.043742158 1.4449786e-38 342 276
0.027946379 0.69300002 -0.043742158 1.4634536e-38 343 276
0.029161438 0.69300002 -0.043742158 1.4450871e-38 344 276
0.030420333 0.69400001 -0.043805279 1.4727099e-38 345 276
0.031728316 0.69599998 -0.043931518 1.4543789e-38 346 276
0.032948639 0.69599998 -0.043931518 1.4635985e-38 347 276
0.034168959 0.69599998 -0.043931518 1.4268998e-38 348 276
0.035490975 0.69800001 -0.04405776 1.4268998e-38 349 276
0.036819998 0.69999999 -0.044183996 1.4451954e-38 350 276
0.038210396 0.70300001 -0.04437336 1.4451954e-38 351 276
0.039499093 0.704 -0.044436477 1.4453742e-38 352 276
0.040849157 0.70599997 -0.044562716 1.4084599e-38 353 276
0.042146627 0.70700002 -0.044625837 1.4459185e-38 354 276
0.043447599 0.708 -0.044688959 1.814701e-38 355 276
0.044815198 0.70999998 -0.044815198 1.7516098e-38 356 276
0.046060063 0.70999998 -0.044815198 1.8899032e-38 357 276
0.047304932 0.70999998 -0.044815198 1.8255832e-38 358 276
-0.02592128 0.704 -0.045670826 1.3992093e-38 299 277
-0.024686933 0.704 -0.045670826 1.4819666e-38 300 277
-0.023419274 0.70300001 -0.04560595 1.4819666e-38 301 277
-0.022091998 0.69999999 -0.04541133 1.5004054e-38 302 277
-0.020864666 0.69999999 -0.04541133 1.5004054e-38 303 277
-0.019637333 0.69999999 -0.04541133 1.5371401e-38 304 277
-0.0183574 0.69800001 -0.045281585 1.5371401e-38 305 277
-0.017133573 0.69800001 -0.045281585 1.5278849e-38 306 277
-0.015909746 0.69800001 -0.045281585 1.5278849e-38 307 277
-0.01466488 0.69700003 -0.045216713 1.481896e-38 308 277
-0.013442807 0.69700003 -0.045216713 1.4634929e-38 309 277
-0.0122032 0.69599998 -0.045151837 1.4634931e-38 310 277
-0.01095132 0.69400001 -0.045022093 1.4542377e-38 311 277
-0.0097345067 0.69400001 -0.045022093 1.454238e-38 312 277
-0.0085176928 0.69400001 -0.045022093 1.4450184e-38 313 277
-0.0072903596 0.69300002 -0.044957221 1.4175395e-38 314 277
-0.0060753003 0.69300002 -0.044957221 1.4267591e-38 315 277
-0.0048462129 0.69099998 -0.044827472 1.4084279e-38 316 277
-0.0036346598 0.69099998 -0.044827472 1.3991724e-38 317 277
-0.0024195998 0.69 -0.0447626 1.4082126e-38 318 277
-0.0012062934 0.68800002 -0.044632856 1.4082126e-38 319 277
0 0.68800002 -0.044632856 1.4172168e-38 320 277
0.0012062934 0.68800002 -0.044632856 1.4172168e-38 321 277
0.0024125867 0.68800002 -0.044632856 1.3804462e-38 322 277
0.0036188802 0.68800002 -0.044632856 1.3712265e-38 323 277
0.0048181596 0.68699998 -0.044567976 1.352895e-38 324 277
0.0060226996 0.68699998 -0.044567976 1.3989928e-38 325 277
0.0072377604 0.68800002 -0.044632856 1.4084273e-38 326 277
0.0084440531 0.68800002 -0.044632856 1.4913673e-38 327 277
0.0096503468 0.68800002 -0.044632856 1.5647276e-38 328 277
0.010840859 0.68699998 -0.044567976 1.5371047e-38 329 277
0.012045399 0.68699998 -0.044567976 1.5739824e-38 330 277
0.013249939 0.68699998 -0.044567976 1.5924216e-38 331 277
0.014454478 0.68699998 -0.044567976 1.5556865e-38 332 277
0.015681813 0.68800002 -0.044632856 1.5003691e-38 333 277
0.016888106 0.68800002 -0.044632856 1.5185912e-38 334 277
0.0180944 0.68800002 -0.044632856 1.481713e-38 335 277
0.019356798 0.69 -0.0447626 1.4725287e-38 336 277
0.020566599 0.69 -0.0447626 1.4632733e-38 337 277
0.021776399 0.69 -0.0447626 1.4356874e-38 338 277
0.022986198 0.69 -0.0447626 1.4264677e-38 339 277
0.024195999 0.69 -0.0447626 1.4356874e-38 340 277
0.025405798 0.69 -0.0447626 1.444907e-38 341 277
0.026654173 0.69099998 -0.044827472 1.4357593e-38 342 277
0.027865725 0.69099998 -0.044827472 1.4449789e-38 343 277
0.029161438 0.69300002 -0.044957221 1.4450871e-38 344 277
0.030420333 0.69400001 -0.045022093 1.4634902e-38 345 277
0.031637147 0.69400001 -0.045022093 1.4543787e-38 346 277
0.032948639 0.69599998 -0.045151837 1.4543787e-38 347 277
0.034168959 0.69599998 -0.045151837 1.4176442e-38 348 277
0.035490975 0.69800001 -0.045281585 1.4176442e-38 349 277
0.036819998 0.69999999 -0.04541133 1.4175726e-38 350 277
0.038101684 0.70099998 -0.045476202 1.4267921e-38 351 277
0.039442986 0.70300001 -0.04560595 1.4269714e-38 352 277
0.040675577 0.70300001 -0.04560595 1.4269714e-38 353 277
0.041967787 0.704 -0.045670826 1.3998207e-38 354 277
0.043447599 0.708 -0.045930319 1.6948467e-38 355 277
0.044815198 0.70999998 -0.046060063 1.7422097e-38 356 277
0.046124939 0.71100003 -0.046124939 1.926601e-38 357 277
0.047371563 0.71100003 -0.046124939 1.8346946e-38 358 277
-0.024476532 0.69800001 -0.046505414 1.4543802e-38 300 278
-0.023252707 0.69800001 -0.046505414 1.4451606e-38 301 278
-0.02202888 0.69800001 -0.046505414 1.4360858e-38 302 278
-0.020805053 0.69800001 -0.046505414 1.4453054e-38 303 278
-0.019581227 0.69800001 -0.046505414 1.4727843e-38 304 278
-0.0183574 0.69800001 -0.046505414 1.4727843e-38 305 278
-0.017133573 0.69800001 -0.046505414 1.4452335e-38 306 278
-0.015886955 0.69700003 -0.046438783 1.4267585e-38 307 278
-0.01466488 0.69700003 -0.046438783 1.4173237e-38 308 278
-0.013423519 0.69599998 -0.046372157 1.3989206e-38 309 278
-0.0122032 0.69599998 -0.046372157 1.4082126e-38 310 278
-0.01095132 0.69400001 -0.046238903 1.4082126e-38 311 278
-0.0097345067 0.69400001 -0.046238903 1.4082126e-38 312 278
-0.0085054198 0.69300002 -0.04617228 1.4082126e-38 313 278
-0.0072903596 0.69300002 -0.04617228 1.3899883e-38 314 278
-0.0060577663 0.69099998 -0.046039023 1.399208e-38 315 278
-0.0048462129 0.69099998 -0.046039023 1.3899883e-38 316 278
-0.0036293997 0.69 -0.045972396 1.3622937e-38 317 278
-0.0024125867 0.68800002 -0.045839146 1.3621149e-38 318 278
-0.0012062934 0.68800002 -0.045839146 1.3621149e-38 319 278
0 0.68800002 -0.045839146 1.3711193e-38 320 278
0.0012062934 0.68800002 -0.045839146 1.3711193e-38 321 278
0.0024125867 0.68800002 -0.045839146 1.3711543e-38 322 278
0.0036188802 0.68800002 -0.045839146 1.3895933e-38 323 278
0.0048181596 0.68699998 -0.045772515 1.3621856e-38 324 278
0.0060226996 0.68699998 -0.045772515 1.3990278e-38 325 278
0.0072272392 0.68699998 -0.045772515 1.3809484e-38 326 278
0.0084317802 0.68699998 -0.045772515 1.4270461e-38 327 278
0.0096363192 0.68699998 -0.045772515 1.4820392e-38 328 278
0.010840859 0.68699998 -0.045772515 1.4912587e-38 329 278
0.012045399 0.68699998 -0.045772515 1.5464679e-38 330 278
0.013249939 0.68699998 -0.045772515 1.5188453e-38 331 278
0.014454478 0.68699998 -0.045772515 1.500154e-38 332 278
0.015659019 0.68699998 -0.045772515 1.4448367e-38 333 278
0.01686356 0.68699998 -0.045772515 1.4724581e-38 334 278
0.0180944 0.68800002 -0.045839146 1.4632385e-38 335 278
0.019300694 0.68800002 -0.045839146 1.4540187e-38 336 278
0.020506985 0.68800002 -0.045839146 1.4356154e-38 337 278
0.021713281 0.68800002 -0.045839146 1.4447271e-38 338 278
0.022919573 0.68800002 -0.045839146 1.4447271e-38 339 278
0.024125867 0.68800002 -0.045839146 1.3989533e-38 340 278
0.025405798 0.69 -0.045972396 1.408173e-38 341 278
0.026615599 0.69 -0.045972396 1.4173928e-38 342 278
0.027825398 0.69 -0.045972396 1.4358319e-38 343 278
0.029077278 0.69099998 -0.046039023 1.4359394e-38 344 278
0.0303765 0.69300002 -0.04617228 1.445159e-38 345 278
0.031591557 0.69300002 -0.04617228 1.4268275e-38 346 278
0.032853961 0.69400001 -0.046238903 1.4268275e-38 347 278
0.034168959 0.69599998 -0.046372157 1.39917e-38 348 278
0.035490975 0.69800001 -0.046505414 1.39917e-38 349 278
0.036819998 0.69999999 -0.046638668 1.3991703e-38 350 278
0.038101684 0.70099998 -0.046705291 1.3991703e-38 351 278
0.039330769 0.70099998 -0.046705291 1.3993497e-38 352 278
0.040559858 0.70099998 -0.046705291 1.4270442e-38 353 278
0.041908171 0.70300001 -0.046838548 1.3906014e-38 354 278
0.043202132 0.704 -0.046905171 1.5934318e-38 355 278
0.044815198 0.70999998 -0.047304932 1.7235541e-38 356 278
0.046124939 0.71100003 -0.047371563 1.9540433e-38 357 278
0.047371563 0.71100003 -0.047371563 1.8439497e-38 358 278
-0.028389972 0.704 -0.048139516 1.1975686e-38 297 279
-0.025700359 0.69800001 -0.047729239 1.4450886e-38 299 279
-0.024476532 0.69800001 -0.047729239 1.4174297e-38 300 279
-0.023252707 0.69800001 -0.047729239 1.3897711e-38 301 279
-0.02202888 0.69800001 -0.047729239 1.4263269e-38 302 279
-0.020805053 0.69800001 -0.047729239 1.4540215e-38 303 279
-0.019581227 0.69800001 -0.047729239 1.4540934e-38 304 279
-0.018331099 0.69700003 -0.047660861 1.4633129e-38 305 279
-0.017109027 0.69700003 -0.047660861 1.4448735e-38 306 279
-0.015886955 0.69700003 -0.047660861 1.435654e-38 307 279
-0.01466488 0.69700003 -0.047660861 1.3437823e-38 308 279
-0.013423519 0.69599998 -0.047592476 1.3437823e-38 309 279
-0.012168133 0.69400001 -0.047455717 1.3712262e-38 310 279
-0.01095132 0.69400001 -0.047455717 1.3712262e-38 311 279
-0.0097204801 0.69300002 -0.047387339 1.3621865e-38 312 279
-0.0085054198 0.69300002 -0.047387339 1.3714061e-38 313 279
-0.0072693196 0.69099998 -0.047250576 1.3624016e-38 314 279
-0.0060577663 0.69099998 -0.047250576 1.3624016e-38 315 279
-0.0048391996 0.69 -0.047182199 1.3715133e-38 316 279
-0.0036188802 0.68800002 -0.047045439 1.3346711e-38 317 279
-0.0024125867 0.68800002 -0.047045439 1.3437107e-38 318 279
-0.0012062934 0.68800002 -0.047045439 1.3344911e-38 319 279
0 0.68800002 -0.047045439 1.3527505e-38 320 279
0.0012062934 0.68800002 -0.047045439 1.3527505e-38 321 279
0.0024125867 0.68800002 -0.047045439 1.3528221e-38 322 279
0.0036136196 0.68699998 -0.046977058 1.3712971e-38 323 279
0.0048181596 0.68699998 -0.046977058 1.3805162e-38 324 279
0.0060226996 0.68699998 -0.046977058 1.3989912e-38 325 279
0.0072272392 0.68699998 -0.046977058 1.4358325e-38 326 279
0.0084317802 0.68699998 -0.046977058 1.445052e-38 327 279
0.0095942402 0.68400002 -0.046771921 1.5094805e-38 328 279
0.01079352 0.68400002 -0.046771921 1.5279555e-38 329 279
0.0119928 0.68400002 -0.046771921 1.5369953e-38 330 279
0.013230653 0.68599999 -0.046908677 1.4908975e-38 331 279
0.014454478 0.68699998 -0.046977058 1.4539836e-38 332 279
0.015659019 0.68699998 -0.046977058 1.4263608e-38 333 279
0.01686356 0.68699998 -0.046977058 1.4722428e-38 334 279
0.018068098 0.68699998 -0.046977058 1.4538397e-38 335 279
0.019300694 0.68800002 -0.047045439 1.4446552e-38 336 279
0.020506985 0.68800002 -0.047045439 1.4354356e-38 337 279
0.021713281 0.68800002 -0.047045439 1.4354707e-38 338 279
0.022919573 0.68800002 -0.047045439 1.4354707e-38 339 279
0.024125867 0.68800002 -0.047045439 1.4172476e-38 340 279
0.02533216 0.68800002 -0.047045439 1.4265031e-38 341 279
0.026615599 0.69 -0.047182199 1.4357593e-38 342 279
0.027825398 0.69 -0.047182199 1.4541985e-38 343 279
0.029077278 0.69099998 -0.047250576 1.4359388e-38 344 279
0.0303765 0.69300002 -0.047387339 1.4359388e-38 345 279
0.031591557 0.69300002 -0.047387339 1.4176079e-38 346 279
0.032853961 0.69400001 -0.047455717 1.4083883e-38 347 279
0.034168959 0.69599998 -0.047592476 1.3807669e-38 348 279
0.035440128 0.69700003 -0.047660861 1.3715474e-38 349 279
0.0367148 0.69800001 -0.047729239 1.3807669e-38 350 279
0.038101684 0.70099998 -0.047934376 1.3807669e-38 351 279
0.039330769 0.70099998 -0.047934376 1.3993132e-38 352 279
0.040559858 0.70099998 -0.047934376 1.4269361e-38 353 279
0.041908171 0.70300001 -0.048071139 1.4089682e-38 354 279
0.043202132 0.704 -0.048139516 1.5564813e-38 355 279
0.044562716 0.70599997 -0.048276275 1.6774563e-38 356 279
0.04580057 0.70599997 -0.048276275 1.9540433e-38 357 279
-0.028389972 0.704 -0.049373865 1.2247584e-38 297 280
-0.027155625 0.704 -0.049373865 1.4359041e-38 298 280
-0.025700359 0.69800001 -0.048953064 1.417465e-38 299 280
-0.024476532 0.69800001 -0.048953064 1.4173225e-38 300 280
-0.023252707 0.69800001 -0.048953064 1.3896636e-38 301 280
-0.02199732 0.69700003 -0.048882935 1.3621152e-38 302 280
-0.020775247 0.69700003 -0.048882935 1.3621152e-38 303 280
-0.019581227 0.69800001 -0.048953064 1.3620796e-38 304 280
-0.018331099 0.69700003 -0.048882935 1.3620796e-38 305 280
-0.017109027 0.69700003 -0.048882935 1.3437122e-38 306 280
-0.015886955 0.69700003 -0.048882935 1.3160896e-38 307 280
-0.014643839 0.69599998 -0.048812799 1.2885748e-38 308 280
-0.013423519 0.69599998 -0.048812799 1.2885748e-38 309 280
-0.012168133 0.69400001 -0.048672531 1.2885748e-38 310 280
-0.01095132 0.69400001 -0.048672531 1.2977944e-38 311 280
-0.0097204801 0.69300002 -0.048602402 1.2796073e-38 312 280
-0.0085054198 0.69300002 -0.048602402 1.2888269e-38 313 280
-0.0072693196 0.69099998 -0.04846213 1.2980462e-38 314 280
-0.0060489997 0.69 -0.048391998 1.2980462e-38 315 280
-0.0048251734 0.68800002 -0.048251733 1.3438553e-38 316 280
-0.0036188802 0.68800002 -0.048251733 1.3346358e-38 317 280
-0.0024125867 0.68800002 -0.048251733 1.3161962e-38 318 280
-0.0012045399 0.68699998 -0.048181597 1.2977571e-38 319 280
0 0.68699998 -0.048181597 1.2976852e-38 320 280
0.0012062934 0.68800002 -0.048251733 1.2976852e-38 321 280
0.0024090798 0.68699998 -0.048181597 1.3620422e-38 322 280
0.0036136196 0.68699998 -0.048181597 1.3712618e-38 323 280
0.0048181596 0.68699998 -0.048181597 1.3712252e-38 324 280
0.0060139326 0.68599999 -0.048111461 1.3712252e-38 325 280
0.0071956799 0.68400002 -0.0479712 1.3254508e-38 326 280
0.0083949603 0.68400002 -0.0479712 1.3623291e-38 327 280
0.0095942402 0.68400002 -0.0479712 1.4907195e-38 328 280
0.01077774 0.68300003 -0.047901068 1.4907195e-38 329 280
0.011975267 0.68300003 -0.047901068 1.463061e-38 330 280
0.01319208 0.68400002 -0.0479712 1.463061e-38 331 280
0.01443344 0.68599999 -0.048111461 1.407923e-38 332 280
0.015636226 0.68599999 -0.048111461 1.4171425e-38 333 280
0.01686356 0.68699998 -0.048181597 1.4078508e-38 334 280
0.018068098 0.68699998 -0.048181597 1.4078508e-38 335 280
0.019272638 0.68699998 -0.048181597 1.4078861e-38 336 280
0.020477179 0.68699998 -0.048181597 1.3986665e-38 337 280
0.021713281 0.68800002 -0.048251733 1.3987019e-38 338 280
0.022919573 0.68800002 -0.048251733 1.3987019e-38 339 280
0.024125867 0.68800002 -0.048251733 1.3895546e-38 340 280
0.02533216 0.68800002 -0.048251733 1.4171773e-38 341 280
0.026538454 0.68800002 -0.048251733 1.3898064e-38 342 280
0.027744746 0.68800002 -0.048251733 1.4266845e-38 343 280
0.029035198 0.69 -0.048391998 1.4084249e-38 344 280
0.030288832 0.69099998 -0.04846213 1.3992053e-38 345 280
0.031591557 0.69300002 -0.048602402 1.408353e-38 346 280
0.03280662 0.69300002 -0.048602402 1.408353e-38 347 280
0.034168959 0.69599998 -0.048812799 1.3898786e-38 348 280
0.035440128 0.69700003 -0.048882935 1.3898786e-38 349 280
0.0367148 0.69800001 -0.048953064 1.3532527e-38 350 280
0.038047329 0.69999999 -0.049093332 1.3624723e-38 351 280
0.039330769 0.70099998 -0.049163464 1.3533623e-38 352 280
0.040559858 0.70099998 -0.049163464 1.4086795e-38 353 280
0.041788943 0.70099998 -0.049163464 1.3903512e-38 354 280
0.043140765 0.70300001 -0.049303733 1.4918024e-38 355 280
0.044436477 0.704 -0.049373865 1.6404341e-38 356 280
0.045670826 0.704 -0.049373865 1.9631188e-38 357 280
-0.029624319 0.704 -0.050608214 1.1877357e-38 296 281
-0.028349647 0.70300001 -0.050536323 1.2338335e-38 297 281
-0.027117053 0.70300001 -0.050536323 1.3990979e-38 298 281
-0.025773998 0.69999999 -0.050320663 1.3898783e-38 299 281
-0.024476532 0.69800001 -0.050176892 1.380587e-38 300 281
-0.023252707 0.69800001 -0.050176892 1.3713674e-38 301 281
-0.02199732 0.69700003 -0.050105009 1.3528574e-38 302 281
-0.020775247 0.69700003 -0.050105009 1.3528574e-38 303 281
-0.019553173 0.69700003 -0.050105009 1.3527505e-38 304 281
-0.018331099 0.69700003 -0.050105009 1.3527505e-38 305 281
-0.017109027 0.69700003 -0.050105009 1.3251641e-38 306 281
-0.015864158 0.69599998 -0.050033119 1.3159445e-38 307 281
-0.014643839 0.69599998 -0.050033119 1.2884656e-38 308 281
-0.013423519 0.69599998 -0.050033119 1.2884656e-38 309 281
-0.012168133 0.69400001 -0.049889345 1.2701707e-38 310 281
-0.010935539 0.69300002 -0.049817458 1.2793903e-38 311 281
-0.0097204801 0.69300002 -0.049817458 1.2703152e-38 312 281
-0.008480873 0.69099998 -0.049673684 1.2703152e-38 313 281
-0.0072587994 0.69 -0.049601797 1.2887903e-38 314 281
-0.0060314666 0.68800002 -0.049458027 1.2887903e-38 315 281
-0.0048251734 0.68800002 -0.049458027 1.3254525e-38 316 281
-0.0036188802 0.68800002 -0.049458027 1.2978297e-38 317 281
-0.0024125867 0.68800002 -0.049458027 1.2977218e-38 318 281
-0.0012045399 0.68699998 -0.049386136 1.2608435e-38 319 281
0 0.68699998 -0.049386136 1.2974334e-38 320 281
0.0012045399 0.68699998 -0.049386136 1.3066529e-38 321 281
0.0024090798 0.68699998 -0.049386136 1.3434234e-38 322 281
0.0036136196 0.68699998 -0.049386136 1.371082e-38 323 281
0.0048181596 0.68699998 -0.049386136 1.3432438e-38 324 281
0.0059964 0.68400002 -0.049170479 1.297146e-38 325 281
0.0071956799 0.68400002 -0.049170479 1.3154772e-38 326 281
0.0083949603 0.68400002 -0.049170479 1.4445511e-38 327 281
0.0095802136 0.68300003 -0.049098592 1.4080307e-38 328 281
0.01077774 0.68300003 -0.049098592 1.3895915e-38 329 281
0.011975267 0.68300003 -0.049098592 1.453695e-38 330 281
0.013172794 0.68300003 -0.049098592 1.4444754e-38 331 281
0.01439136 0.68400002 -0.049170479 1.4169245e-38 332 281
0.015636226 0.68599999 -0.049314249 1.4261442e-38 333 281
0.01686356 0.68699998 -0.049386136 1.4168536e-38 334 281
0.018068098 0.68699998 -0.049386136 1.4168536e-38 335 281
0.019272638 0.68699998 -0.049386136 1.4077415e-38 336 281
0.020477179 0.68699998 -0.049386136 1.3984861e-38 337 281
0.021713281 0.68800002 -0.049458027 1.3801899e-38 338 281
0.022919573 0.68800002 -0.049458027 1.3801899e-38 339 281
0.024125867 0.68800002 -0.049458027 1.3895173e-38 340 281
0.02533216 0.68800002 -0.049458027 1.4079565e-38 341 281
0.026538454 0.68800002 -0.049458027 1.3896984e-38 342 281
0.027744746 0.68800002 -0.049458027 1.4081376e-38 343 281
0.029035198 0.69 -0.049601797 1.3990979e-38 344 281
0.030288832 0.69099998 -0.049673684 1.4083533e-38 345 281
0.031500384 0.69099998 -0.049673684 1.408353e-38 346 281
0.03280662 0.69300002 -0.049817458 1.3991335e-38 347 281
0.034168959 0.69599998 -0.050033119 1.3899139e-38 348 281
0.035389278 0.69599998 -0.050033119 1.3806585e-38 349 281
0.036819998 0.69999999 -0.050320663 1.3715474e-38 350 281
0.038047329 0.69999999 -0.050320663 1.3807669e-38 351 281
0.039274666 0.69999999 -0.050320663 1.3808751e-38 352 281
0.040559858 0.70099998 -0.050392549 1.3993502e-38 353 281
0.041788943 0.70099998 -0.050392549 1.3720901e-38 354 281
0.043140765 0.70300001 -0.050536323 1.4458466e-38 355 281
0.044436477 0.704 -0.050608214 1.585152e-38 356 281
0.045670826 0.704 -0.050608214 1.9170565e-38 357 281
-0.030858666 0.704 -0.051842559 1.2814837e-38 295 282
-0.029624319 0.704 -0.051842559 1.1139436e-38 296 282
-0.028389972 0.704 -0.051842559 1.169261e-38 297 282
-0.027117053 0.70300001 -0.051768921 1.3162668e-38 298 282
-0.025773998 0.69999999 -0.051547997 1.3070114e-38 299 282
-0.024476532 0.69800001 -0.051400717 1.3345981e-38 300 282
-0.023252707 0.69800001 -0.051400717 1.3161949e-38 301 282
-0.02199732 0.69700003 -0.051327083 1.3344909e-38 302 282
-0.020775247 0.69700003 -0.051327083 1.3252713e-38 303 282
-0.019553173 0.69700003 -0.051327083 1.2976852e-38 304 282
-0.018331099 0.69700003 -0.051327083 1.2976852e-38 305 282
-0.017084479 0.69599998 -0.051253434 1.2792101e-38 306 282
-0.015864158 0.69599998 -0.051253434 1.2792101e-38 307 282
-0.014643839 0.69599998 -0.051253434 1.2517314e-38 308 282
-0.013423519 0.69599998 -0.051253434 1.2517314e-38 309 282
-0.012168133 0.69400001 -0.051106159 1.2334369e-38 310 282
-0.010935539 0.69300002 -0.051032521 1.2426565e-38 311 282
-0.0096924258 0.69099998 -0.050885238 1.2059584e-38 312 282
-0.0084686 0.69 -0.050811596 1.2243616e-38 313 282
-0.0072587994 0.69 -0.050811596 1.2611678e-38 314 282
-0.0060314666 0.68800002 -0.050664321 1.2611678e-38 315 282
-0.0048251734 0.68800002 -0.050664321 1.2610237e-38 316 282
-0.0036188802 0.68800002 -0.050664321 1.2425846e-38 317 282
-0.0024125867 0.68800002 -0.050664321 1.2515526e-38 318 282
-0.0012045399 0.68699998 -0.050590675 1.2330776e-38 319 282
0 0.68699998 -0.050590675 1.2421174e-38 320 282
0.0012045399 0.68699998 -0.050590675 1.251337e-38 321 282
0.0024090798 0.68699998 -0.050590675 1.2789236e-38 322 282
0.0036136196 0.68699998 -0.050590675 1.2789236e-38 323 282
0.0048111463 0.68599999 -0.050517038 1.3063309e-38 324 282
0.0059964 0.68400002 -0.050369758 1.2786362e-38 325 282
0.0071851597 0.68300003 -0.05029612 1.2421526e-38 326 282
0.0083826864 0.68300003 -0.05029612 1.29747e-38 327 282
0.0095802136 0.68300003 -0.05029612 1.3251267e-38 328 282
0.01077774 0.68300003 -0.05029612 1.3343464e-38 329 282
0.011975267 0.68300003 -0.05029612 1.3801551e-38 330 282
0.013172794 0.68300003 -0.05029612 1.3893747e-38 331 282
0.014370319 0.68300003 -0.05029612 1.3801548e-38 332 282
0.015636226 0.68599999 -0.050517038 1.3893744e-38 333 282
0.016839013 0.68599999 -0.050517038 1.3801551e-38 334 282
0.018068098 0.68699998 -0.050590675 1.3709355e-38 335 282
0.019272638 0.68699998 -0.050590675 1.3709353e-38 336 282
0.020477179 0.68699998 -0.050590675 1.3709353e-38 337 282
0.021713281 0.68800002 -0.050664321 1.3526756e-38 338 282
0.022919573 0.68800002 -0.050664321 1.3526756e-38 339 282
0.024125867 0.68800002 -0.050664321 1.3435643e-38 340 282
0.02533216 0.68800002 -0.050664321 1.3435643e-38 341 282
0.026538454 0.68800002 -0.050664321 1.3528924e-38 342 282
0.027744746 0.68800002 -0.050664321 1.3713674e-38 343 282
0.029035198 0.69 -0.050811596 1.3530729e-38 344 282
0.030288832 0.69099998 -0.050885238 1.371512e-38 345 282
0.031500384 0.69099998 -0.050885238 1.3897714e-38 346 282
0.03280662 0.69300002 -0.051032521 1.3897714e-38 347 282
0.034070771 0.69400001 -0.051106159 1.380659e-38 348 282
0.035389278 0.69599998 -0.051253434 1.380659e-38 349 282
0.0367148 0.69800001 -0.051400717 1.3622206e-38 350 282
0.038047329 0.69999999 -0.051547997 1.3806237e-38 351 282
0.039274666 0.69999999 -0.051547997 1.362437e-38 352 282
0.040502001 0.69999999 -0.051547997 1.3993152e-38 353 282
0.041729331 0.69999999 -0.051547997 1.3720898e-38 354 282
0.043018032 0.70099998 -0.051621638 1.4458822e-38 355 282
0.04437336 0.70300001 -0.051768921 1.5391616e-38 356 282
0.04560595 0.70300001 -0.051768921 1.8802854e-38 357 282
-0.030858666 0.704 -0.053076904 1.1891792e-38 295 283
-0.029624319 0.704 -0.053076904 1.0677016e-38 296 283
-0.028389972 0.704 -0.053076904 1.0861407e-38 297 283
-0.027117053 0.70300001 -0.053001512 1.2516227e-38 298 283
-0.025810819 0.70099998 -0.052850723 1.2700258e-38 299 283
-0.024546666 0.69999999 -0.052775331 1.2884654e-38 300 283
-0.023252707 0.69800001 -0.052624546 1.2884654e-38 301 283
-0.02202888 0.69800001 -0.052624546 1.2977205e-38 302 283
-0.020805053 0.69800001 -0.052624546 1.2977205e-38 303 283
-0.019553173 0.69700003 -0.052549154 1.2884651e-38 304 283
-0.018331099 0.69700003 -0.052549154 1.2884651e-38 305 283
-0.017084479 0.69599998 -0.052473757 1.2701692e-38 306 283
-0.015864158 0.69599998 -0.052473757 1.2609495e-38 307 283
-0.014643839 0.69599998 -0.052473757 1.2609139e-38 308 283
-0.013423519 0.69599998 -0.052473757 1.2609139e-38 309 283
-0.012168133 0.69400001 -0.052322973 1.2426199e-38 310 283
-0.010935539 0.69300002 -0.05224758 1.2426199e-38 311 283
-0.0096924258 0.69099998 -0.052096792 1.2149978e-38 312 283
-0.0084686 0.69 -0.052021399 1.2334369e-38 313 283
-0.0072587994 0.69 -0.052021399 1.2426565e-38 314 283
-0.0060314666 0.68800002 -0.051870614 1.2334369e-38 315 283
-0.0048251734 0.68800002 -0.051870614 1.2515886e-38 316 283
-0.0036136196 0.68699998 -0.051795214 1.2147464e-38 317 283
-0.0024090798 0.68699998 -0.051795214 1.2604486e-38 318 283
-0.0012045399 0.68699998 -0.051795214 1.2328258e-38 319 283
0 0.68699998 -0.051795214 1.205275e-38 320 283
0.0012045399 0.68699998 -0.051795214 1.2236781e-38 321 283
0.0024055731 0.68599999 -0.051719822 1.2236063e-38 322 283
0.00360836 0.68599999 -0.051719822 1.2236063e-38 323 283
0.0048111463 0.68599999 -0.051719822 1.223606e-38 324 283
0.0059964 0.68400002 -0.051569041 1.223606e-38 325 283
0.0071851597 0.68300003 -0.051493648 1.232968e-38 326 283
0.0083826864 0.68300003 -0.051493648 1.2421876e-38 327 283
0.0095802136 0.68300003 -0.051493648 1.3065435e-38 328 283
0.01077774 0.68300003 -0.051493648 1.3157631e-38 329 283
0.011975267 0.68300003 -0.051493648 1.370935e-38 330 283
0.013172794 0.68300003 -0.051493648 1.3801904e-38 331 283
0.014370319 0.68300003 -0.051493648 1.3802255e-38 332 283
0.015636226 0.68599999 -0.051719822 1.3802255e-38 333 283
0.016839013 0.68599999 -0.051719822 1.3801901e-38 334 283
0.018041799 0.68599999 -0.051719822 1.361751e-38 335 283
0.019272638 0.68699998 -0.051795214 1.3617154e-38 336 283
0.020477179 0.68699998 -0.051795214 1.3617154e-38 337 283
0.021681719 0.68699998 -0.051795214 1.3526394e-38 338 283
0.022919573 0.68800002 -0.051870614 1.3526394e-38 339 283
0.024125867 0.68800002 -0.051870614 1.3527112e-38 340 283
0.02533216 0.68800002 -0.051870614 1.3527112e-38 341 283
0.026538454 0.68800002 -0.051870614 1.3436007e-38 342 283
0.027744746 0.68800002 -0.051870614 1.3528561e-38 343 283
0.029035198 0.69 -0.052021399 1.3621123e-38 344 283
0.030288832 0.69099998 -0.052096792 1.3713318e-38 345 283
0.031500384 0.69099998 -0.052096792 1.3896633e-38 346 283
0.03280662 0.69300002 -0.05224758 1.398883e-38 347 283
0.034070771 0.69400001 -0.052322973 1.3622202e-38 348 283
0.035287585 0.69400001 -0.052322973 1.3622202e-38 349 283
0.0367148 0.69800001 -0.052624546 1.3622206e-38 350 283
0.037938625 0.69800001 -0.052624546 1.3806237e-38 351 283
0.039274666 0.69999999 -0.052775331 1.3531818e-38 352 283
0.040502001 0.69999999 -0.052775331 1.3900601e-38 353 283
0.041729331 0.69999999 -0.052775331 1.3813096e-38 354 283
0.043018032 0.70099998 -0.052850723 1.436627e-38 355 283
0.04437336 0.70300001 -0.053001512 1.5298701e-38 356 283
0.04560595 0.70300001 -0.053001512 1.8986166e-38 357 283
-0.030858666 0.704 -0.054311249 1.1336816e-38 295 284
-0.029624319 0.704 -0.054311249 1.1137288e-38 296 284
-0.028349647 0.70300001 -0.054234106 1.1506429e-38 297 284
-0.027117053 0.70300001 -0.054234106 1.214818e-38 298 284
-0.025810819 0.70099998 -0.054079808 1.2055984e-38 299 284
-0.024546666 0.69999999 -0.054002665 1.2424394e-38 300 284
-0.023252707 0.69800001 -0.053848371 1.251659e-38 301 284
-0.02199732 0.69700003 -0.053771228 1.279281e-38 302 284
-0.020775247 0.69700003 -0.053771228 1.279281e-38 303 284
-0.019553173 0.69700003 -0.053771228 1.2609141e-38 304 284
-0.018331099 0.69700003 -0.053771228 1.2701338e-38 305 284
-0.017084479 0.69599998 -0.053694077 1.2609139e-38 306 284
-0.015818574 0.69400001 -0.053539783 1.2701694e-38 307 284
-0.01460176 0.69400001 -0.053539783 1.2609495e-38 308 284
-0.013384946 0.69400001 -0.053539783 1.2701692e-38 309 284
-0.012168133 0.69400001 -0.053539783 1.2426912e-38 310 284
-0.010935539 0.69300002 -0.053462639 1.2426912e-38 311 284
-0.0096924258 0.69099998 -0.053308345 1.2151051e-38 312 284
-0.0084686 0.69 -0.053231198 1.2151051e-38 313 284
-0.0072377604 0.68800002 -0.053076908 1.1965943e-38 314 284
-0.0060314666 0.68800002 -0.053076908 1.1873388e-38 315 284
-0.0048251734 0.68800002 -0.053076908 1.2237859e-38 316 284
-0.0036136196 0.68699998 -0.052999757 1.2053466e-38 317 284
-0.0024090798 0.68699998 -0.052999757 1.2053103e-38 318 284
-0.0012045399 0.68699998 -0.052999757 1.1960549e-38 319 284
0 0.68699998 -0.052999757 1.1776877e-38 320 284
0.0012027866 0.68599999 -0.05292261 1.1776877e-38 321 284
0.0024055731 0.68599999 -0.05292261 1.1501016e-38 322 284
0.00360836 0.68599999 -0.05292261 1.1501016e-38 323 284
0.0047971201 0.68400002 -0.05276832 1.159249e-38 324 284
0.0059876335 0.68300003 -0.052691177 1.159249e-38 325 284
0.0071851597 0.68300003 -0.052691177 1.1960902e-38 326 284
0.0083826864 0.68300003 -0.052691177 1.1960902e-38 327 284
0.0095802136 0.68300003 -0.052691177 1.2788491e-38 328 284
0.01077774 0.68300003 -0.052691177 1.2972883e-38 329 284
0.011975267 0.68300003 -0.052691177 1.3433845e-38 330 284
0.013172794 0.68300003 -0.052691177 1.352604e-38 331 284
0.014370319 0.68300003 -0.052691177 1.3709706e-38 332 284
0.01559064 0.68400002 -0.05276832 1.3709706e-38 333 284
0.016839013 0.68599999 -0.05292261 1.3617154e-38 334 284
0.018041799 0.68599999 -0.05292261 1.3433123e-38 335 284
0.019244585 0.68599999 -0.05292261 1.334093e-38 336 284
0.020477179 0.68699998 -0.052999757 1.334093e-38 337 284
0.021681719 0.68699998 -0.052999757 1.3341646e-38 338 284
0.022886258 0.68699998 -0.052999757 1.3433842e-38 339 284
0.024125867 0.68800002 -0.053076908 1.325053e-38 340 284
0.02533216 0.68800002 -0.053076908 1.325053e-38 341 284
0.026538454 0.68800002 -0.053076908 1.2975032e-38 342 284
0.027744746 0.68800002 -0.053076908 1.3251617e-38 343 284
0.029077278 0.69099998 -0.053308345 1.3252342e-38 344 284
0.030288832 0.69099998 -0.053308345 1.3344896e-38 345 284
0.031591557 0.69300002 -0.053462639 1.3528927e-38 346 284
0.03280662 0.69300002 -0.053462639 1.3528927e-38 347 284
0.034070771 0.69400001 -0.053539783 1.3438164e-38 348 284
0.035287585 0.69400001 -0.053539783 1.3438164e-38 349 284
0.036662199 0.69700003 -0.053771228 1.3530003e-38 350 284
0.037938625 0.69800001 -0.053848371 1.3622199e-38 351 284
0.039162453 0.69800001 -0.053848371 1.3439973e-38 352 284
0.040502001 0.69999999 -0.054002665 1.3808754e-38 353 284
0.041729331 0.69999999 -0.054002665 1.3629058e-38 354 284
0.043018032 0.70099998 -0.054079808 1.4274428e-38 355 284
0.044247117 0.70099998 -0.054079808 1.5757519e-38 356 284
0.045476202 0.70099998 -0.054079808 1.9537538e-38 357 284
-0.030858666 0.704 -0.055545598 1.0966594e-38 295 285
-0.029582238 0.70300001 -0.0554667 1.1507148e-38 296 285
-0.028349647 0.70300001 -0.0554667 1.169154e-38 297 285
-0.027117053 0.70300001 -0.0554667 1.1964515e-38 298 285
-0.025810819 0.70099998 -0.055308893 1.1687928e-38 299 285
-0.024546666 0.69999999 -0.055229999 1.1781193e-38 300 285
-0.023252707 0.69800001 -0.0550722 1.1965943e-38 301 285
-0.02199732 0.69700003 -0.054993302 1.2333634e-38 302 285
-0.020775247 0.69700003 -0.054993302 1.2333634e-38 303 285
-0.019525118 0.69599998 -0.054914396 1.2700258e-38 304 285
-0.018304799 0.69599998 -0.054914396 1.2792454e-38 305 285
-0.017035386 0.69400001 -0.054756597 1.2792454e-38 306 285
-0.015818574 0.69400001 -0.054756597 1.2792454e-38 307 285
