# .PCD v.7 - Point Cloud Data file format
FIELDS x y z rgb imX imY
SIZE 4 4 4 4 4 4
TYPE F F F F F F
COUNT 1 1 1 1 1 1
WIDTH 860
HEIGHT 1
VIEWPOINT 0 0 0 1 0 0 0
POINTS 860
DATA ascii
-0.020093199 0.764 0.013395466 1.7861368e-38 305 230
-0.018753653 0.764 0.013395466 1.786138e-38 306 230
-0.017414106 0.764 0.013395466 1.7953576e-38 307 230
-0.01603248 0.76200002 0.0133604 1.7862102e-38 308 230
-0.01469644 0.76200002 0.0133604 1.7678071e-38 309 230
-0.0133604 0.76200002 0.0133604 1.7034867e-38 310 230
-0.01202436 0.76200002 0.0133604 1.6020355e-38 311 230
-0.01068832 0.76200002 0.0133604 1.5101995e-38 312 230
-0.0093522798 0.76200002 0.0133604 1.5101995e-38 313 230
-0.0080162399 0.76200002 0.0133604 1.3634425e-38 314 230
-0.0066801999 0.76200002 0.0133604 1.3634425e-38 315 230
-0.0053581866 0.764 0.013395466 1.2989074e-38 316 230
-0.0040081199 0.76200002 0.0133604 1.24359e-38 317 230
-0.00267208 0.76200002 0.0133604 1.2893288e-38 318 230
-0.00133604 0.76200002 0.0133604 1.3261711e-38 319 230
0 0.76200002 0.0133604 1.5002988e-38 320 230
0.00133604 0.76200002 0.0133604 1.5002988e-38 321 230
0.00267208 0.76200002 0.0133604 1.5002259e-38 322 230
0.0040081199 0.76200002 0.0133604 1.4633477e-38 323 230
0.0053441599 0.76200002 0.0133604 1.4538763e-38 324 230
0.006697733 0.764 0.013395466 1.4262176e-38 325 230
0.0080372803 0.764 0.013395466 1.3893395e-38 326 230
0.0093768267 0.764 0.013395466 1.3709002e-38 327 230
0.010744425 0.76599997 0.013430533 1.3064713e-38 328 230
0.012087479 0.76599997 0.013430533 1.2788125e-38 329 230
0.013430533 0.76599997 0.013430533 1.2237113e-38 330 230
0.014773586 0.76599997 0.013430533 1.2052722e-38 331 230
0.01613768 0.76700002 0.013448066 1.1776144e-38 332 230
0.017482487 0.76700002 0.013448066 1.1683589e-38 333 230
0.018876385 0.76899999 0.013483133 1.1315901e-38 334 230
0.0202247 0.76899999 0.013483133 1.1408097e-38 335 230
0.021629119 0.77100003 0.013518199 1.0949655e-38 336 230
0.023040552 0.773 0.013553266 1.0489037e-38 337 230
0.02442744 0.77399999 0.013570799 7.8312405e-39 338 230
0.025784519 0.77399999 0.013570799 1.2441022e-38 339 230
0.027141599 0.77399999 0.013570799 1.4388314e-38 340 230
0.028498679 0.77399999 0.013570799 1.6693565e-38 341 230
-0.039304473 0.773 0.012197939 1.7887044e-38 291 231
-0.037949149 0.773 0.012197939 1.5942619e-38 292 231
-0.036593821 0.773 0.012197939 1.4559684e-38 293 231
-0.03528408 0.77399999 0.01221372 1.6849399e-38 294 231
-0.033883166 0.773 0.012197939 1.6849399e-38 295 231
-0.032527838 0.773 0.012197939 1.7399298e-38 296 231
-0.031091858 0.77100003 0.01216638 1.7399298e-38 297 231
-0.02966289 0.76899999 0.012134819 1.7583326e-38 298 231
-0.02824094 0.76700002 0.01210326 1.7860272e-38 299 231
-0.026896132 0.76700002 0.01210326 1.7677693e-38 300 231
-0.025518013 0.76599997 0.012087479 1.795428e-38 301 231
-0.024174958 0.76599997 0.012087479 1.8137597e-38 302 231
-0.022772292 0.764 0.01205592 1.8045043e-38 303 231
-0.021432746 0.764 0.01205592 1.7677342e-38 304 231
-0.020093199 0.764 0.01205592 1.7769538e-38 305 231
-0.018753653 0.764 0.01205592 1.7585519e-38 306 231
-0.01736852 0.76200002 0.01202436 1.7677715e-38 307 231
-0.01603248 0.76200002 0.01202436 1.7677718e-38 308 231
-0.014677152 0.76099998 0.012008579 1.7585522e-38 309 231
-0.013342866 0.76099998 0.012008579 1.7308577e-38 310 231
-0.012008579 0.76099998 0.012008579 1.6017838e-38 311 231
-0.010674292 0.76099998 0.012008579 1.4731771e-38 312 231
-0.0093400059 0.76099998 0.012008579 1.5192389e-38 313 231
-0.0080057196 0.76099998 0.012008579 1.2444147e-38 314 231
-0.0066714329 0.76099998 0.012008579 1.2628538e-38 315 231
-0.0053371461 0.76099998 0.012008579 1.2532765e-38 316 231
-0.0040028598 0.76099998 0.012008579 1.1887396e-38 317 231
-0.00267208 0.76200002 0.01202436 1.2342282e-38 318 231
-0.0013342865 0.76099998 0.012008579 1.2342282e-38 319 231
0 0.76099998 0.012008579 1.4450906e-38 320 231
0.00133604 0.76200002 0.01202436 1.4635297e-38 321 231
0.00267208 0.76200002 0.01202436 1.4726396e-38 322 231
0.0040081199 0.76200002 0.01202436 1.4357972e-38 323 231
0.0053441599 0.76200002 0.01202436 1.4356174e-38 324 231
0.0066801999 0.76200002 0.01202436 1.4079227e-38 325 231
0.0080162399 0.76200002 0.01202436 1.3985593e-38 326 231
0.0093768267 0.764 0.01205592 1.3709005e-38 327 231
0.010716373 0.764 0.01205592 1.3249098e-38 328 231
0.012087479 0.76599997 0.012087479 1.2880674e-38 329 231
0.013430533 0.76599997 0.012087479 1.2421135e-38 330 231
0.014773586 0.76599997 0.012087479 1.2144549e-38 331 231
0.01613768 0.76700002 0.01210326 1.1684664e-38 332 231
0.017482487 0.76700002 0.01210326 1.1408079e-38 333 231
0.018827293 0.76700002 0.01210326 1.1132586e-38 334 231
0.0202247 0.76899999 0.012134819 1.1224782e-38 335 231
0.021629119 0.77100003 0.01216638 1.0950011e-38 336 231
0.023040552 0.773 0.012197939 1.1042208e-38 337 231
0.02442744 0.77399999 0.01221372 9.0218482e-39 338 231
0.025784519 0.77399999 0.01221372 1.068173e-38 339 231
0.027141599 0.77399999 0.01221372 1.0611155e-38 340 231
0.028498679 0.77399999 0.01221372 1.5681556e-38 341 231
-0.0406598 0.773 0.010842613 1.8254384e-38 290 232
-0.039304473 0.773 0.010842613 1.7148037e-38 291 232
-0.037949149 0.773 0.010842613 1.5570943e-38 292 232
-0.036593821 0.773 0.010842613 1.4648986e-38 293 232
-0.03528408 0.77399999 0.01085664 1.7032702e-38 294 232
-0.033883166 0.773 0.010842613 1.6940147e-38 295 232
-0.032527838 0.773 0.010842613 1.7490415e-38 296 232
-0.031091858 0.77100003 0.01081456 1.7397859e-38 297 232
-0.02966289 0.76899999 0.010786506 1.7583324e-38 298 232
-0.02824094 0.76700002 0.010758453 1.7768074e-38 299 232
-0.026896132 0.76700002 0.010758453 1.7862084e-38 300 232
-0.025518013 0.76599997 0.010744425 1.7862084e-38 301 232
-0.024111839 0.764 0.010716373 1.7954295e-38 302 232
-0.022772292 0.764 0.010716373 1.7678068e-38 303 232
-0.02137664 0.76200002 0.01068832 1.7676989e-38 304 232
-0.0200406 0.76200002 0.01068832 1.7584794e-38 305 232
-0.01870456 0.76200002 0.01068832 1.7584438e-38 306 232
-0.01736852 0.76200002 0.01068832 1.7676633e-38 307 232
-0.016011439 0.76099998 0.010674292 1.7676639e-38 308 232
-0.014677152 0.76099998 0.010674292 1.7676639e-38 309 232
-0.013342866 0.76099998 0.010674292 1.7400775e-38 310 232
-0.012008579 0.76099998 0.010674292 1.6202232e-38 311 232
-0.010674292 0.76099998 0.010674292 1.500656e-38 312 232
-0.0093400059 0.76099998 0.010674292 1.4084602e-38 313 232
-0.0080057196 0.76099998 0.010674292 1.1525077e-38 314 232
-0.0066714329 0.76099998 0.010674292 1.2262642e-38 315 232
-0.0053371461 0.76099998 0.010674292 1.2076478e-38 316 232
-0.0040028598 0.76099998 0.010674292 1.0969771e-38 317 232
-0.0026685731 0.76099998 0.010674292 1.234048e-38 318 232
-0.0013342865 0.76099998 0.010674292 1.1695111e-38 319 232
0 0.76099998 0.010674292 1.3531821e-38 320 232
0.0013342865 0.76099998 0.010674292 1.3900603e-38 321 232
0.00267208 0.76200002 0.01068832 1.4633482e-38 322 232
0.0040081199 0.76200002 0.01068832 1.4541287e-38 323 232
0.0053441599 0.76200002 0.01068832 1.4263625e-38 324 232
0.0066801999 0.76200002 0.01068832 1.4078874e-38 325 232
0.0080162399 0.76200002 0.01068832 1.370973e-38 326 232
0.0093768267 0.764 0.010716373 1.3617533e-38 327 232
0.010716373 0.764 0.010716373 1.32491e-38 328 232
0.01205592 0.764 0.010716373 1.2972514e-38 329 232
0.013395466 0.764 0.010716373 1.2237467e-38 330 232
0.014735013 0.764 0.010716373 1.1960878e-38 331 232
0.016116638 0.76599997 0.010744425 1.1500996e-38 332 232
0.017459691 0.76599997 0.010744425 1.1316605e-38 333 232
0.018827293 0.76700002 0.010758453 1.1132942e-38 334 232
0.020172099 0.76700002 0.010758453 1.1132942e-38 335 232
0.021629119 0.77100003 0.01081456 1.0857444e-38 336 232
0.023040552 0.773 0.010842613 1.094964e-38 337 232
0.02442744 0.77399999 0.01085664 9.8476278e-39 338 232
0.025784519 0.77399999 0.01085664 9.8476278e-39 339 232
0.027141599 0.77399999 0.01085664 9.4972387e-39 340 232
0.028572321 0.77600002 0.010884693 1.475239e-38 341 232
-0.0406598 0.773 0.0094872871 1.7701208e-38 290 233
-0.039304473 0.773 0.0094872871 1.6226078e-38 291 233
-0.037949149 0.773 0.0094872871 1.5476581e-38 292 233
-0.036593821 0.773 0.0094872871 1.4554623e-38 293 233
-0.035238493 0.773 0.0094872871 1.7123813e-38 294 233
-0.033883166 0.773 0.0094872871 1.6939421e-38 295 233
-0.032443684 0.77100003 0.0094627403 1.712272e-38 296 233
-0.031091858 0.77100003 0.0094627403 1.7214917e-38 297 233
-0.02966289 0.76899999 0.0094381925 1.7399311e-38 298 233
-0.02824094 0.76700002 0.0094136465 1.7860289e-38 299 233
-0.026896132 0.76700002 0.0094136465 1.758587e-38 300 233
-0.025518013 0.76599997 0.0094013726 1.7678065e-38 301 233
-0.024111839 0.764 0.0093768267 1.7861383e-38 302 233
-0.02271268 0.76200002 0.0093522798 1.7769188e-38 303 233
-0.02137664 0.76200002 0.0093522798 1.7401125e-38 304 233
-0.0200406 0.76200002 0.0093522798 1.7308928e-38 305 233
-0.01870456 0.76200002 0.0093522798 1.7032711e-38 306 233
-0.017345725 0.76099998 0.0093400059 1.7217463e-38 307 233
-0.016011439 0.76099998 0.0093400059 1.7308223e-38 308 233
-0.014677152 0.76099998 0.0093400059 1.7400419e-38 309 233
-0.013342866 0.76099998 0.0093400059 1.7399329e-38 310 233
-0.012008579 0.76099998 0.0093400059 1.6846155e-38 311 233
-0.010674292 0.76099998 0.0093400059 1.5557934e-38 312 233
-0.0093400059 0.76099998 0.0093400059 1.4912565e-38 313 233
-0.0080057196 0.76099998 0.0093400059 1.2165074e-38 314 233
-0.0066714329 0.76099998 0.0093400059 1.2810444e-38 315 233
-0.0053371461 0.76099998 0.0093400059 1.17034e-38 316 233
-0.0040028598 0.76099998 0.0093400059 1.0688887e-38 317 233
-0.0026685731 0.76099998 0.0093400059 1.1602562e-38 318 233
-0.0013342865 0.76099998 0.0093400059 1.1602562e-38 319 233
0 0.76099998 0.0093400059 1.3897726e-38 320 233
0.0013342865 0.76099998 0.0093400059 1.4082476e-38 321 233
0.00267208 0.76200002 0.0093522798 1.4265423e-38 322 233
0.0040028598 0.76099998 0.0093400059 1.4080673e-38 323 233
0.0053371461 0.76099998 0.0093400059 1.3711896e-38 324 233
0.0066801999 0.76200002 0.0093522798 1.3527505e-38 325 233
0.0080162399 0.76200002 0.0093522798 1.3710086e-38 326 233
0.0093522798 0.76200002 0.0093522798 1.3433139e-38 327 233
0.01068832 0.76200002 0.0093522798 1.3248377e-38 328 233
0.01205592 0.764 0.0093768267 1.3063986e-38 329 233
0.013395466 0.764 0.0093768267 1.2603728e-38 330 233
0.014735013 0.764 0.0093768267 1.2511533e-38 331 233
0.016074561 0.764 0.0093768267 1.1776491e-38 332 233
0.017414106 0.764 0.0093768267 1.1684296e-38 333 233
0.018802745 0.76599997 0.0094013726 1.1133655e-38 334 233
0.020172099 0.76700002 0.0094136465 1.0949264e-38 335 233
0.021573013 0.76899999 0.0094381925 1.0489387e-38 336 233
0.02298094 0.77100003 0.0094627403 1.0581583e-38 337 233
0.02442744 0.77399999 0.0094995592 1.0031296e-38 338 233
0.025784519 0.77399999 0.0094995592 9.5703178e-39 339 233
0.027141599 0.77399999 0.0094995592 8.5677126e-39 340 233
0.028572321 0.77600002 0.009524107 1.3269691e-38 341 233
0.029932907 0.77600002 0.009524107 1.5031518e-38 342 233
-0.0406598 0.773 0.0081319595 1.7330255e-38 290 234
-0.039304473 0.773 0.0081319595 1.5394146e-38 291 234
-0.037949149 0.773 0.0081319595 1.5932504e-38 292 234
-0.036593821 0.773 0.0081319595 1.5655557e-38 293 234
-0.035238493 0.773 0.0081319595 1.6938686e-38 294 234
-0.033883166 0.773 0.0081319595 1.6938686e-38 295 234
-0.032443684 0.77100003 0.0081109209 1.7305666e-38 296 234
-0.031011207 0.76899999 0.0080898795 1.7490059e-38 297 234
-0.029585747 0.76700002 0.00806884 1.7582976e-38 298 234
-0.02824094 0.76700002 0.00806884 1.7675172e-38 299 234
-0.026861066 0.76599997 0.0080583189 1.758622e-38 300 234
-0.025451386 0.764 0.0080372803 1.758622e-38 301 234
-0.024111839 0.764 0.0080372803 1.7769182e-38 302 234
-0.022682872 0.76099998 0.0080057196 1.7676986e-38 303 234
-0.021348584 0.76099998 0.0080057196 1.7308926e-38 304 234
-0.0200406 0.76200002 0.0080162399 1.7032699e-38 305 234
-0.018680012 0.76099998 0.0080057196 1.7123815e-38 306 234
-0.017345725 0.76099998 0.0080057196 1.703162e-38 307 234
-0.016011439 0.76099998 0.0080057196 1.7214939e-38 308 234
-0.014677152 0.76099998 0.0080057196 1.7491525e-38 309 234
-0.013342866 0.76099998 0.0080057196 1.7033415e-38 310 234
-0.012008579 0.76099998 0.0080057196 1.6756828e-38 311 234
-0.010674292 0.76099998 0.0080057196 1.6386951e-38 312 234
-0.0093400059 0.76099998 0.0080057196 1.4727788e-38 313 234
-0.0080057196 0.76099998 0.0080057196 1.2062395e-38 314 234
-0.0066538998 0.759 0.0079846792 1.0310328e-38 315 234
-0.0053231199 0.759 0.0079846792 9.6671419e-39 316 234
-0.0040028598 0.76099998 0.0080057196 1.0035923e-38 317 234
-0.00266156 0.759 0.0079846792 1.1598952e-38 318 234
-0.00133078 0.759 0.0079846792 1.270566e-38 319 234
0 0.759 0.0079846792 1.4635645e-38 320 234
0.0013342865 0.76099998 0.0080057196 1.4451253e-38 321 234
0.00267208 0.76200002 0.0080162399 1.4080676e-38 322 234
0.0040028598 0.76099998 0.0080057196 1.3527502e-38 323 234
0.0053371461 0.76099998 0.0080057196 1.3710101e-38 324 234
0.0066801999 0.76200002 0.0080162399 1.352535e-38 325 234
0.0080162399 0.76200002 0.0080162399 1.3433507e-38 326 234
0.0093522798 0.76200002 0.0080162399 1.3249476e-38 327 234
0.01068832 0.76200002 0.0080162399 1.3247675e-38 328 234
0.01202436 0.76200002 0.0080162399 1.3063283e-38 329 234
0.0133604 0.76200002 0.0080162399 1.2512624e-38 330 234
0.01469644 0.76200002 0.0080162399 1.2144202e-38 331 234
0.01603248 0.76200002 0.0080162399 1.177686e-38 332 234
0.017414106 0.764 0.0080372803 1.177686e-38 333 234
0.018753653 0.764 0.0080372803 1.0951065e-38 334 234
0.020145798 0.76599997 0.0080583189 1.0582284e-38 335 234
0.021516906 0.76700002 0.00806884 1.0489738e-38 336 234
0.022921326 0.76899999 0.0080898795 1.0305345e-38 337 234
0.024395877 0.773 0.0081319595 1.0031283e-38 338 234
0.025751207 0.773 0.0081319595 1.0031283e-38 339 234
0.027141599 0.77399999 0.0081424797 8.8385387e-39 340 234
0.028498679 0.77399999 0.0081424797 1.0129278e-38 341 234
0.029855758 0.77399999 0.0081424797 1.2634789e-38 342 234
-0.0406598 0.773 0.0067766332 1.6591601e-38 290 235
-0.039304473 0.773 0.0067766332 1.428671e-38 291 235
-0.037949149 0.773 0.0067766332 1.5838494e-38 292 235
-0.036593821 0.773 0.0067766332 1.5838494e-38 293 235
-0.035238493 0.773 0.0067766332 1.6755008e-38 294 235
-0.033795502 0.77100003 0.0067590997 1.6755008e-38 295 235
-0.032359518 0.76899999 0.0067415666 1.7029799e-38 296 235
-0.030930554 0.76700002 0.006724033 1.7214549e-38 297 235
-0.029585747 0.76700002 0.006724033 1.71238e-38 298 235
-0.028204117 0.76599997 0.0067152665 1.7492222e-38 299 235
-0.026861066 0.76599997 0.0067152665 1.7401476e-38 300 235
-0.025451386 0.764 0.006697733 1.7401476e-38 301 235
-0.024017159 0.76099998 0.0066714329 1.7676986e-38 302 235
-0.022682872 0.76099998 0.0066714329 1.7584791e-38 303 235
-0.021348584 0.76099998 0.0066714329 1.7032696e-38 304 235
-0.020014299 0.76099998 0.0066714329 1.69405e-38 305 235
-0.018680012 0.76099998 0.0066714329 1.7031617e-38 306 235
-0.017345725 0.76099998 0.0066714329 1.7031617e-38 307 235
-0.015969358 0.759 0.0066538998 1.7032699e-38 308 235
-0.014638579 0.759 0.0066538998 1.721673e-38 309 235
-0.0133078 0.759 0.0066538998 1.7217083e-38 310 235
-0.01197702 0.759 0.0066538998 1.6940856e-38 311 235
-0.01064624 0.759 0.0066538998 1.6571695e-38 312 235
-0.00931546 0.759 0.0066538998 1.5649739e-38 313 235
-0.0079846792 0.759 0.0066538998 1.4357205e-38 314 235
-0.0066538998 0.759 0.0066538998 1.3343053e-38 315 235
-0.0053231199 0.759 0.0066538998 1.2607681e-38 316 235
-0.0039923396 0.759 0.0066538998 1.3068299e-38 317 235
-0.00266156 0.759 0.0066538998 1.3990994e-38 318 235
-0.0013272733 0.75700003 0.0066363667 1.4360137e-38 319 235
0 0.755 0.0066188332 1.4911864e-38 320 235
0.0013237667 0.755 0.0066188332 1.4358691e-38 321 235
0.0026685731 0.76099998 0.0066714329 1.3618253e-38 322 235
0.0040028598 0.76099998 0.0066714329 1.343386e-38 323 235
0.0053371461 0.76099998 0.0066714329 1.3343111e-38 324 235
0.0066714329 0.76099998 0.0066714329 1.3250914e-38 325 235
0.0080057196 0.76099998 0.0066714329 1.3249473e-38 326 235
0.0093400059 0.76099998 0.0066714329 1.3157278e-38 327 235
0.010674292 0.76099998 0.0066714329 1.2972519e-38 328 235
0.01202436 0.76200002 0.0066801999 1.2879965e-38 329 235
0.0133604 0.76200002 0.0066801999 1.2604457e-38 330 235
0.01469644 0.76200002 0.0066801999 1.2420066e-38 331 235
0.01603248 0.76200002 0.0066801999 1.1776138e-38 332 235
0.01736852 0.76200002 0.0066801999 1.1776138e-38 333 235
0.018753653 0.764 0.006697733 1.1225851e-38 334 235
0.020145798 0.76599997 0.0067152665 1.0949264e-38 335 235
0.021516906 0.76700002 0.006724033 1.0214227e-38 336 235
0.022921326 0.76899999 0.0067415666 1.0214227e-38 337 235
0.02433276 0.77100003 0.0067590997 9.6639526e-39 338 235
0.02568458 0.77100003 0.0067590997 9.8487026e-39 339 235
0.027106533 0.773 0.0067766332 9.2037283e-39 340 235
0.028498679 0.77399999 0.0067853997 9.0189769e-39 341 235
0.029855758 0.77399999 0.0067853997 1.1427965e-38 342 235
-0.0406598 0.773 0.0054213065 1.5851868e-38 290 236
-0.039304473 0.773 0.0054213065 1.3639173e-38 291 236
-0.037949149 0.773 0.0054213065 1.5744496e-38 292 236
-0.036593821 0.773 0.0054213065 1.5836692e-38 293 236
-0.03514732 0.77100003 0.0054072798 1.6662099e-38 294 236
-0.033707831 0.76899999 0.0053932532 1.6662099e-38 295 236
-0.03227536 0.76700002 0.0053792265 1.693796e-38 296 236
-0.030930554 0.76700002 0.0053792265 1.7214547e-38 297 236
-0.029585747 0.76700002 0.0053792265 1.7307115e-38 298 236
-0.028204117 0.76599997 0.0053722127 1.7399311e-38 299 236
-0.026790932 0.764 0.0053581866 1.7308563e-38 300 236
-0.025451386 0.764 0.0053581866 1.7400758e-38 301 236
-0.024017159 0.76099998 0.0053371461 1.7401478e-38 302 236
-0.022682872 0.76099998 0.0053371461 1.7309281e-38 303 236
-0.021348584 0.76099998 0.0053371461 1.7033771e-38 304 236
-0.020014299 0.76099998 0.0053371461 1.6849021e-38 305 236
-0.018680012 0.76099998 0.0053371461 1.6848658e-38 306 236
-0.017300138 0.759 0.0053231199 1.6756462e-38 307 236
-0.015969358 0.759 0.0053231199 1.69405e-38 308 236
-0.014638579 0.759 0.0053231199 1.7032696e-38 309 236
-0.0133078 0.759 0.0053231199 1.7033064e-38 310 236
-0.01197702 0.759 0.0053231199 1.6940869e-38 311 236
-0.01064624 0.759 0.0053231199 1.6938704e-38 312 236
-0.0092909131 0.75700003 0.0053090933 1.6569923e-38 313 236
-0.0079636406 0.75700003 0.0053090933 1.6568128e-38 314 236
-0.0066363667 0.75700003 0.0053090933 1.5830561e-38 315 236
-0.0053090933 0.75700003 0.0053090933 1.546467e-38 316 236
-0.0039818203 0.75700003 0.0053090933 1.5649061e-38 317 236
-0.0026545466 0.75700003 0.0053090933 1.5649061e-38 318 236
-0.0013237667 0.755 0.0052950666 1.5372115e-38 319 236
0 0.75400001 0.0052880533 1.5004408e-38 320 236
0.0013220133 0.75400001 0.0052880533 1.4359038e-38 321 236
0.0026475333 0.755 0.0052950666 1.3894117e-38 322 236
0.0039712996 0.755 0.0052950666 1.3710086e-38 323 236
0.0053231199 0.759 0.0053231199 1.3526783e-38 324 236
0.0066538998 0.759 0.0053231199 1.3434587e-38 325 236
0.0079846792 0.759 0.0053231199 1.3249473e-38 326 236
0.00931546 0.759 0.0053231199 1.3065082e-38 327 236
0.010674292 0.76099998 0.0053371461 1.3155478e-38 328 236
0.01202436 0.76200002 0.0053441599 1.3063283e-38 329 236
0.0133604 0.76200002 0.0053441599 1.2236397e-38 330 236
0.01469644 0.76200002 0.0053441599 1.2144202e-38 331 236
0.01603248 0.76200002 0.0053441599 1.1960172e-38 332 236
0.01736852 0.76200002 0.0053441599 1.1960172e-38 333 236
0.018753653 0.764 0.0053581866 1.1225135e-38 334 236
0.020145798 0.76599997 0.0053722127 1.1040744e-38 335 236
0.021488851 0.76599997 0.0053722127 1.0398261e-38 336 236
0.022861714 0.76700002 0.0053792265 1.021423e-38 337 236
0.02433276 0.77100003 0.0054072798 9.7561356e-39 338 236
0.02568458 0.77100003 0.0054072798 9.8483312e-39 339 236
0.027106533 0.773 0.0054213065 9.8479963e-39 340 236
0.028461859 0.773 0.0054213065 8.8342045e-39 341 236
0.029855758 0.77399999 0.0054283198 9.860629e-39 342 236
-0.042015124 0.773 0.0040659797 1.7972049e-38 289 237
-0.0406598 0.773 0.0040659797 1.557311e-38 290 237
-0.039304473 0.773 0.0040659797 1.3452611e-38 291 237
-0.037949149 0.773 0.0040659797 1.5927437e-38 292 237
-0.036499143 0.77100003 0.0040554604 1.5927437e-38 293 237
-0.03514732 0.77100003 0.0040554604 1.6477347e-38 294 237
-0.033620168 0.76700002 0.00403442 1.6569544e-38 295 237
-0.03227536 0.76700002 0.00403442 1.6936885e-38 296 237
-0.030890226 0.76599997 0.0040291594 1.7121635e-38 297 237
-0.029547172 0.76599997 0.0040291594 1.6939405e-38 298 237
-0.028130481 0.764 0.0040186401 1.7123797e-38 299 237
-0.026790932 0.764 0.0040186401 1.7215645e-38 300 237
-0.025351444 0.76099998 0.0040028598 1.7399676e-38 301 237
-0.024017159 0.76099998 0.0040028598 1.703342e-38 302 237
-0.022682872 0.76099998 0.0040028598 1.703342e-38 303 237
-0.021348584 0.76099998 0.0040028598 1.6757907e-38 304 237
-0.020014299 0.76099998 0.0040028598 1.6480961e-38 305 237
-0.018680012 0.76099998 0.0040028598 1.6755386e-38 306 237
-0.017300138 0.759 0.0039923396 1.666319e-38 307 237
-0.015969358 0.759 0.0039923396 1.666356e-38 308 237
-0.014600007 0.75700003 0.0039818203 1.6755756e-38 309 237
-0.013272733 0.75700003 0.0039818203 1.6848317e-38 310 237
-0.01194546 0.75700003 0.0039818203 1.6848317e-38 311 237
-0.010618187 0.75700003 0.0039818203 1.6847952e-38 312 237
-0.0092909131 0.75700003 0.0039818203 1.6847952e-38 313 237
-0.0079636406 0.75700003 0.0039818203 1.6753241e-38 314 237
-0.0066188332 0.755 0.0039712996 1.6015317e-38 315 237
-0.0052950666 0.755 0.0039712996 1.5740175e-38 316 237
-0.0039818203 0.75700003 0.0039818203 1.5647979e-38 317 237
-0.0026545466 0.75700003 0.0039818203 1.5371751e-38 318 237
-0.0013237667 0.755 0.0039712996 1.5187001e-38 319 237
0 0.75400001 0.00396604 1.5462502e-38 320 237
0.0013220133 0.75400001 0.00396604 1.4817132e-38 321 237
0.0026475333 0.755 0.0039712996 1.4539116e-38 322 237
0.0039712996 0.755 0.0039712996 1.490754e-38 323 237
0.0053090933 0.75700003 0.0039818203 1.4080307e-38 324 237
0.0066363667 0.75700003 0.0039818203 1.3711523e-38 325 237
0.0079846792 0.759 0.0039923396 1.3616451e-38 326 237
0.00931546 0.759 0.0039923396 1.3340224e-38 327 237
0.01064624 0.759 0.0039923396 1.3063636e-38 328 237
0.012008579 0.76099998 0.0040028598 1.2971081e-38 329 237
0.0133604 0.76200002 0.0040081199 1.2511905e-38 330 237
0.01469644 0.76200002 0.0040081199 1.2327514e-38 331 237
0.01603248 0.76200002 0.0040081199 1.1959453e-38 332 237
0.01736852 0.76200002 0.0040081199 1.1959453e-38 333 237
0.018753653 0.764 0.0040186401 1.1225135e-38 334 237
0.020145798 0.76599997 0.0040291594 1.1040744e-38 335 237
0.021488851 0.76599997 0.0040291594 1.0397905e-38 336 237
0.022861714 0.76700002 0.00403442 1.0213874e-38 337 237
0.024269639 0.76899999 0.0040449398 9.9394506e-39 338 237
0.025617953 0.76899999 0.0040449398 1.0031646e-38 339 237
0.027036399 0.77100003 0.0040554604 9.7565069e-39 340 237
0.028461859 0.773 0.0040659797 9.0185832e-39 341 237
0.029817186 0.773 0.0040659797 9.3974746e-39 342 237
0.03117251 0.773 0.0040659797 1.4375679e-38 343 237
-0.042015124 0.773 0.0027106532 1.6593065e-38 289 238
-0.0406598 0.773 0.0027106532 1.5111038e-38 290 238
-0.03920278 0.77100003 0.0027036399 1.317493e-38 291 238
-0.037850961 0.77100003 0.0027036399 1.5928146e-38 292 238
-0.036404461 0.76899999 0.0026966266 1.5835592e-38 293 238
-0.035056144 0.76899999 0.0026966266 1.6110723e-38 294 238
-0.033620168 0.76700002 0.0026896133 1.6110723e-38 295 238
-0.032233275 0.76599997 0.0026861064 1.6386232e-38 296 238
-0.030890226 0.76599997 0.0026861064 1.6570982e-38 297 238
-0.029547172 0.76599997 0.0026861064 1.675466e-38 298 238
-0.028130481 0.764 0.0026790933 1.7031248e-38 299 238
-0.0267208 0.76200002 0.00267208 1.6939068e-38 300 238
-0.025351444 0.76099998 0.0026685731 1.7031264e-38 301 238
-0.024017159 0.76099998 0.0026685731 1.6665727e-38 302 238
-0.022682872 0.76099998 0.0026685731 1.6665727e-38 303 238
-0.021348584 0.76099998 0.0026685731 1.6572807e-38 304 238
-0.020014299 0.76099998 0.0026685731 1.6204383e-38 305 238
-0.018680012 0.76099998 0.0026685731 1.6294778e-38 306 238
-0.017300138 0.759 0.00266156 1.6294778e-38 307 238
-0.015969358 0.759 0.00266156 1.6202951e-38 308 238
-0.014600007 0.75700003 0.0026545466 1.6387342e-38 309 238
-0.013272733 0.75700003 0.0026545466 1.6480261e-38 310 238
-0.01194546 0.75700003 0.0026545466 1.6664652e-38 311 238
-0.010618187 0.75700003 0.0026545466 1.7032699e-38 312 238
-0.0092909131 0.75700003 0.0026545466 1.6755753e-38 313 238
-0.0079636406 0.75700003 0.0026545466 1.6844705e-38 314 238
-0.0066188332 0.755 0.0026475333 1.6291531e-38 315 238
-0.0052950666 0.755 0.0026475333 1.6016026e-38 316 238
-0.0039818203 0.75700003 0.0026545466 1.5831276e-38 317 238
-0.0026545466 0.75700003 0.0026545466 1.555506e-38 318 238
-0.0013237667 0.755 0.0026475333 1.5462865e-38 319 238
0 0.75400001 0.0026440267 1.5186635e-38 320 238
0.0013220133 0.75400001 0.0026440267 1.4910047e-38 321 238
0.0026475333 0.755 0.0026475333 1.5000795e-38 322 238
0.0039712996 0.755 0.0026475333 1.5000795e-38 323 238
0.0053090933 0.75700003 0.0026545466 1.4356157e-38 324 238
0.0066363667 0.75700003 0.0026545466 1.389482e-38 325 238
0.0079636406 0.75700003 0.0026545466 1.3708284e-38 326 238
0.0092909131 0.75700003 0.0026545466 1.3523892e-38 327 238
0.01064624 0.759 0.00266156 1.2880321e-38 328 238
0.012008579 0.76099998 0.0026685731 1.2788125e-38 329 238
0.013342866 0.76099998 0.0026685731 1.241971e-38 330 238
0.014677152 0.76099998 0.0026685731 1.2235317e-38 331 238
0.016011439 0.76099998 0.0026685731 1.1959456e-38 332 238
0.017345725 0.76099998 0.0026685731 1.186726e-38 333 238
0.01870456 0.76200002 0.00267208 1.1316254e-38 334 238
0.020093199 0.764 0.0026790933 1.1131504e-38 335 238
0.021432746 0.764 0.0026790933 1.01224e-38 336 238
0.022831906 0.76599997 0.0026861064 1.0214596e-38 337 238
0.024269639 0.76899999 0.0026966266 1.0122044e-38 338 238
0.025617953 0.76899999 0.0026966266 1.021424e-38 339 238
0.027036399 0.77100003 0.0027036399 9.7565069e-39 340 238
0.028461859 0.773 0.0027106532 9.0185832e-39 341 238
0.029740039 0.77100003 0.0027036399 8.3825996e-39 342 238
0.031091858 0.77100003 0.0027036399 1.2807631e-38 343 238
0.032443684 0.77100003 0.0027036399 1.5766549e-38 344 238
-0.042015124 0.773 0.0013553266 1.4844941e-38 289 239
-0.040554602 0.77100003 0.00135182 1.4740811e-38 290 239
-0.03920278 0.77100003 0.00135182 1.3265681e-38 291 239
-0.03775277 0.76899999 0.0013483133 1.6111809e-38 292 239
-0.036404461 0.76899999 0.0013483133 1.5743385e-38 293 239
-0.034964975 0.76700002 0.0013448066 1.6109641e-38 294 239
-0.033620168 0.76700002 0.0013448066 1.6109641e-38 295 239
-0.032233275 0.76599997 0.0013430532 1.6476984e-38 296 239
-0.030809574 0.764 0.0013395466 1.6661377e-38 297 239
-0.029470026 0.764 0.0013395466 1.6754657e-38 298 239
-0.028130481 0.764 0.0013395466 1.6846853e-38 299 239
-0.0267208 0.76200002 0.00133604 1.6573513e-38 300 239
-0.025351444 0.76099998 0.0013342865 1.6573513e-38 301 239
-0.024017159 0.76099998 0.0013342865 1.6298371e-38 302 239
-0.02262326 0.759 0.00133078 1.6206175e-38 303 239
-0.02129248 0.759 0.00133078 1.6387327e-38 304 239
-0.020014299 0.76099998 0.0013342865 1.6202935e-38 305 239
-0.01863092 0.759 0.00133078 1.6294052e-38 306 239
-0.017300138 0.759 0.00133078 1.6294052e-38 307 239
-0.015927281 0.75700003 0.0013272733 1.6110387e-38 308 239
-0.014600007 0.75700003 0.0013272733 1.6202582e-38 309 239
-0.013272733 0.75700003 0.0013272733 1.6571363e-38 310 239
-0.01194546 0.75700003 0.0013272733 1.6847952e-38 311 239
-0.010618187 0.75700003 0.0013272733 1.7032702e-38 312 239
-0.0092909131 0.75700003 0.0013272733 1.6755756e-38 313 239
-0.0079636406 0.75700003 0.0013272733 1.6753957e-38 314 239
-0.0066188332 0.755 0.0013237667 1.6385176e-38 315 239
-0.0052950666 0.755 0.0013237667 1.5925275e-38 316 239
-0.0039712996 0.755 0.0013237667 1.5648329e-38 317 239
-0.0026545466 0.75700003 0.0013272733 1.5280271e-38 318 239
-0.0013237667 0.755 0.0013237667 1.509624e-38 319 239
0 0.755 0.0013237667 1.5004045e-38 320 239
0.0013237667 0.755 0.0013237667 1.4819295e-38 321 239
0.0026475333 0.755 0.0013237667 1.4727455e-38 322 239
0.0039712996 0.755 0.0013237667 1.4450868e-38 323 239
0.0052950666 0.755 0.0013237667 1.4171773e-38 324 239
0.0066363667 0.75700003 0.0013272733 1.3711155e-38 325 239
0.0079636406 0.75700003 0.0013272733 1.3432422e-38 326 239
0.0092909131 0.75700003 0.0013272733 1.3247672e-38 327 239
0.01064624 0.759 0.00133078 1.2605176e-38 328 239
0.01197702 0.759 0.00133078 1.251298e-38 329 239
0.0133078 0.759 0.00133078 1.2236395e-38 330 239
0.014638579 0.759 0.00133078 1.2144199e-38 331 239
0.016011439 0.76099998 0.0013342865 1.1960175e-38 332 239
0.017345725 0.76099998 0.0013342865 1.1591394e-38 333 239
0.018680012 0.76099998 0.0013342865 1.0948195e-38 334 239
0.0200406 0.76200002 0.00133604 1.0763802e-38 335 239
0.02137664 0.76200002 0.00133604 1.0212794e-38 336 239
0.022831906 0.76599997 0.0013430532 1.0397186e-38 337 239
0.024206521 0.76700002 0.0013448066 9.9394478e-39 338 239
0.025617953 0.76899999 0.0013483133 9.8472522e-39 339 239
0.026966266 0.76899999 0.0013483133 9.3880775e-39 340 239
0.028388219 0.77100003 0.00135182 8.8349052e-39 341 239
0.029740039 0.77100003 0.00135182 7.5528348e-39 342 239
0.031091858 0.77100003 0.00135182 1.105627e-38 343 239
0.032443684 0.77100003 0.00135182 1.548996e-38 344 239
-0.043370452 0.773 -0 1.7517167e-38 288 240
-0.042015124 0.773 -0 1.429032e-38 289 240
-0.040554602 0.77100003 -0 1.4829043e-38 290 240
-0.039101087 0.76899999 -0 1.4091478e-38 291 240
-0.03775277 0.76899999 -0 1.5560436e-38 292 240
-0.036309779 0.76700002 -0 1.546824e-38 293 240
-0.034964975 0.76700002 -0 1.5650468e-38 294 240
-0.033576332 0.76599997 -0 1.5650468e-38 295 240
-0.032233275 0.76599997 -0 1.5925623e-38 296 240
-0.030809574 0.764 -0 1.6294405e-38 297 240
-0.029470026 0.764 -0 1.6020339e-38 298 240
-0.028056841 0.76200002 -0 1.6481317e-38 299 240
-0.0267208 0.76200002 -0 1.6206169e-38 300 240
-0.025351444 0.76099998 -0 1.6298724e-38 301 240
-0.024017159 0.76099998 -0 1.6022863e-38 302 240
-0.02262326 0.759 -0 1.5838111e-38 303 240
-0.02129248 0.759 -0 1.583703e-38 304 240
-0.020014299 0.76099998 -0 1.5560083e-38 305 240
-0.01863092 0.759 -0 1.5743751e-38 306 240
-0.017300138 0.759 -0 1.5743751e-38 307 240
-0.015927281 0.75700003 -0 1.5835595e-38 308 240
-0.014600007 0.75700003 -0 1.6019986e-38 309 240
-0.013237666 0.755 -0 1.611255e-38 310 240
-0.011913899 0.755 -0 1.6205106e-38 311 240
-0.010618187 0.75700003 -0 1.6571013e-38 312 240
-0.0092663663 0.755 -0 1.6571013e-38 313 240
-0.0079425992 0.755 -0 1.6477374e-38 314 240
-0.0066188332 0.755 -0 1.6200786e-38 315 240
-0.0052950666 0.755 -0 1.5832723e-38 316 240
-0.0039712996 0.755 -0 1.5648332e-38 317 240
-0.0026475333 0.755 -0 1.5280271e-38 318 240
-0.0013237667 0.755 -0 1.509624e-38 319 240
0 0.755 -0 1.4454108e-38 320 240
0.0013237667 0.755 -0 1.4361912e-38 321 240
0.0026475333 0.755 -0 1.4268998e-38 322 240
0.0039712996 0.755 -0 1.380802e-38 323 240
0.0052950666 0.755 -0 1.3988461e-38 324 240
0.0066188332 0.755 -0 1.3343091e-38 325 240
0.0079425992 0.755 -0 1.343242e-38 326 240
0.0092909131 0.75700003 -0 1.3155831e-38 327 240
0.010618187 0.75700003 -0 1.2604454e-38 328 240
0.01197702 0.759 -0 1.2512258e-38 329 240
0.0133078 0.759 -0 1.2053078e-38 330 240
0.014638579 0.759 -0 1.1960522e-38 331 240
0.016011439 0.76099998 -0 1.1684661e-38 332 240
0.017345725 0.76099998 -0 1.1408435e-38 333 240
0.018680012 0.76099998 -0 1.0947825e-38 334 240
0.0200406 0.76200002 -0 1.0855629e-38 335 240
0.02137664 0.76200002 -0 9.9369297e-39 336 240
0.022831906 0.76599997 -0 1.0029125e-38 337 240
0.024206521 0.76700002 -0 9.6628666e-39 338 240
0.025551327 0.76700002 -0 9.8468991e-39 339 240
0.026966266 0.76899999 -0 9.6635896e-39 340 240
0.028388219 0.77100003 -0 9.479197e-39 341 240
0.02966289 0.76899999 -0 8.3793528e-39 342 240
0.031011207 0.76899999 -0 1.096083e-38 343 240
0.032359518 0.76899999 -0 1.4844225e-38 344 240
-0.043370452 0.773 -0.0013553266 1.7792315e-38 288 241
-0.04190642 0.77100003 -0.00135182 1.4104489e-38 289 241
-0.0404494 0.76899999 -0.0013483133 1.4919794e-38 290 241
-0.039101087 0.76899999 -0.0013483133 1.4274425e-38 291 241
-0.037654586 0.76700002 -0.0013448066 1.5560436e-38 292 241
-0.036309779 0.76700002 -0.0013448066 1.5376044e-38 293 241
-0.034964975 0.76700002 -0.0013448066 1.583378e-38 294 241
-0.033576332 0.76599997 -0.0013430532 1.583378e-38 295 241
-0.032233275 0.76599997 -0.0013430532 1.6109641e-38 296 241
-0.030809574 0.764 -0.0013395466 1.6294032e-38 297 241
-0.029392879 0.76200002 -0.00133604 1.6204355e-38 298 241
-0.028056841 0.76200002 -0.00133604 1.6389105e-38 299 241
-0.0267208 0.76200002 -0.00133604 1.602321e-38 300 241
-0.025351444 0.76099998 -0.0013342865 1.602321e-38 301 241
-0.024017159 0.76099998 -0.0013342865 1.5838462e-38 302 241
-0.02262326 0.759 -0.00133078 1.5562235e-38 303 241
-0.02129248 0.759 -0.00133078 1.5927778e-38 304 241
-0.0199617 0.759 -0.00133078 1.5743385e-38 305 241
-0.01863092 0.759 -0.00133078 1.5743382e-38 306 241
-0.017300138 0.759 -0.00133078 1.5835578e-38 307 241
-0.015927281 0.75700003 -0.0013272733 1.5835581e-38 308 241
-0.014600007 0.75700003 -0.0013272733 1.5927778e-38 309 241
-0.013237666 0.755 -0.0013237667 1.638625e-38 310 241
-0.011913899 0.755 -0.0013237667 1.6294055e-38 311 241
-0.010590133 0.755 -0.0013237667 1.6292632e-38 312 241
-0.0092663663 0.755 -0.0013237667 1.6292632e-38 313 241
-0.0079425992 0.755 -0.0013237667 1.6108967e-38 314 241
-0.0066188332 0.755 -0.0013237667 1.601677e-38 315 241
-0.0052950666 0.755 -0.0013237667 1.5648705e-38 316 241
-0.0039712996 0.755 -0.0013237667 1.5464314e-38 317 241
-0.0026475333 0.755 -0.0013237667 1.5096606e-38 318 241
-0.0013237667 0.755 -0.0013237667 1.4912215e-38 319 241
0 0.755 -0.0013237667 1.4267571e-38 320 241
0.0013237667 0.755 -0.0013237667 1.389843e-38 321 241
0.0026475333 0.755 -0.0013237667 1.4172503e-38 322 241
0.0039712996 0.755 -0.0013237667 1.3895915e-38 323 241
0.0052950666 0.755 -0.0013237667 1.3710804e-38 324 241
0.0066188332 0.755 -0.0013237667 1.3249826e-38 325 241
0.0079425992 0.755 -0.0013237667 1.3155831e-38 326 241
0.0092909131 0.75700003 -0.0013272733 1.3063636e-38 327 241
0.010618187 0.75700003 -0.0013272733 1.251298e-38 328 241
0.01194546 0.75700003 -0.0013272733 1.2420784e-38 329 241
0.013272733 0.75700003 -0.0013272733 1.2144921e-38 330 241
0.014638579 0.759 -0.00133078 1.1960528e-38 331 241
0.015969358 0.759 -0.00133078 1.1592466e-38 332 241
0.017345725 0.76099998 -0.0013342865 1.1408435e-38 333 241
0.018680012 0.76099998 -0.0013342865 1.0765233e-38 334 241
0.0200406 0.76200002 -0.00133604 1.0488286e-38 335 241
0.02137664 0.76200002 -0.00133604 9.846169e-39 336 241
0.022772292 0.764 -0.0013395466 9.846169e-39 337 241
0.024206521 0.76700002 -0.0013448066 9.8465319e-39 338 241
0.025551327 0.76700002 -0.0013448066 9.8465319e-39 339 241
0.026966266 0.76899999 -0.0013483133 9.4802746e-39 340 241
0.028388219 0.77100003 -0.00135182 9.6643057e-39 341 241
0.02966289 0.76899999 -0.0013483133 9.0218482e-39 342 241
0.031011207 0.76899999 -0.0013483133 1.0957956e-38 343 241
0.032359518 0.76899999 -0.0013483133 1.4565127e-38 344 241
-0.044610061 0.77100003 -0.0027036399 1.8348026e-38 287 242
-0.043258239 0.77100003 -0.0027036399 1.7332053e-38 288 242
-0.04190642 0.77100003 -0.0027036399 1.336764e-38 289 242
-0.0404494 0.76899999 -0.0026966266 1.4643203e-38 290 242
-0.039101087 0.76899999 -0.0026966266 1.4182225e-38 291 242
-0.037654586 0.76700002 -0.0026896133 1.5467518e-38 292 242
-0.036309779 0.76700002 -0.0026896133 1.5375323e-38 293 242
-0.034964975 0.76700002 -0.0026896133 1.5743017e-38 294 242
-0.033576332 0.76599997 -0.0026861064 1.5743017e-38 295 242
-0.032233275 0.76599997 -0.0026861064 1.5927401e-38 296 242
-0.030809574 0.764 -0.0026790933 1.6203989e-38 297 242
-0.029392879 0.76200002 -0.00267208 1.6021396e-38 298 242
-0.028056841 0.76200002 -0.00267208 1.6389818e-38 299 242
-0.0267208 0.76200002 -0.00267208 1.6022843e-38 300 242
-0.025351444 0.76099998 -0.0026685731 1.6022843e-38 301 242
-0.024017159 0.76099998 -0.0026685731 1.5838096e-38 302 242
-0.02262326 0.759 -0.00266156 1.5653705e-38 303 242
-0.02129248 0.759 -0.00266156 1.5836295e-38 304 242
-0.0199617 0.759 -0.00266156 1.5744098e-38 305 242
-0.01863092 0.759 -0.00266156 1.5743379e-38 306 242
-0.017254554 0.75700003 -0.0026545466 1.5835575e-38 307 242
-0.015885198 0.755 -0.0026475333 1.5926341e-38 308 242
-0.014561433 0.755 -0.0026475333 1.5926341e-38 309 242
-0.013237666 0.755 -0.0026475333 1.5925641e-38 310 242
-0.011913899 0.755 -0.0026475333 1.574161e-38 311 242
-0.010590133 0.755 -0.0026475333 1.5924216e-38 312 242
-0.0092663663 0.755 -0.0026475333 1.5924216e-38 313 242
-0.0079425992 0.755 -0.0026475333 1.5924572e-38 314 242
-0.0066188332 0.755 -0.0026475333 1.5832376e-38 315 242
-0.0052950666 0.755 -0.0026475333 1.546467e-38 316 242
-0.0039712996 0.755 -0.0026475333 1.5279918e-38 317 242
-0.0026475333 0.755 -0.0026475333 1.4819666e-38 318 242
-0.0013237667 0.755 -0.0026475333 1.4450883e-38 319 242
0 0.755 -0.0026475333 1.3620054e-38 320 242
0.0013237667 0.755 -0.0026475333 1.306688e-38 321 242
0.0026475333 0.755 -0.0026475333 1.3618256e-38 322 242
0.0039712996 0.755 -0.0026475333 1.3710451e-38 323 242
0.0052950666 0.755 -0.0026475333 1.361753e-38 324 242
0.0066188332 0.755 -0.0026475333 1.3248747e-38 325 242
0.0079425992 0.755 -0.0026475333 1.2879965e-38 326 242
0.0092663663 0.755 -0.0026475333 1.2787769e-38 327 242
0.010618187 0.75700003 -0.0026545466 1.2237116e-38 328 242
0.01194546 0.75700003 -0.0026545466 1.2237116e-38 329 242
0.013272733 0.75700003 -0.0026545466 1.2052369e-38 330 242
0.014638579 0.759 -0.00266156 1.1776141e-38 331 242
0.015969358 0.759 -0.00266156 1.1592469e-38 332 242
0.017345725 0.76099998 -0.0026685731 1.1408079e-38 333 242
0.018680012 0.76099998 -0.0026685731 1.0948548e-38 334 242
0.0200406 0.76200002 -0.00267208 1.0579766e-38 335 242
0.02137664 0.76200002 -0.00267208 9.8447313e-39 336 242
0.022772292 0.764 -0.0026790933 9.9372856e-39 337 242
0.024206521 0.76700002 -0.0026896133 9.4795473e-39 338 242
0.025551327 0.76700002 -0.0026896133 9.5717429e-39 339 242
0.026966266 0.76899999 -0.0026966266 9.7557881e-39 340 242
0.028388219 0.77100003 -0.0027036399 9.8479837e-39 341 242
0.02966289 0.76899999 -0.0026966266 9.1140494e-39 342 242
0.031011207 0.76899999 -0.0026966266 1.040443e-38 343 242
0.032443684 0.77100003 -0.0027036399 1.4103789e-38 344 242
0.033795502 0.77100003 -0.0027036399 1.7422831e-38 345 242
-0.044610061 0.77100003 -0.0040554604 1.8348029e-38 287 243
-0.043258239 0.77100003 -0.0040554604 1.696363e-38 288 243
-0.04190642 0.77100003 -0.0040554604 1.3091414e-38 289 243
-0.0404494 0.76899999 -0.0040449398 1.4459888e-38 290 243
-0.039101087 0.76899999 -0.0040449398 1.4091466e-38 291 243
-0.037654586 0.76700002 -0.00403442 1.5468593e-38 292 243
-0.036309779 0.76700002 -0.00403442 1.5283843e-38 293 243
-0.034964975 0.76700002 -0.00403442 1.5651537e-38 294 243
-0.033576332 0.76599997 -0.0040291594 1.5743733e-38 295 243
-0.032233275 0.76599997 -0.0040291594 1.5928827e-38 296 243
-0.030809574 0.764 -0.0040186401 1.6205414e-38 297 243
-0.029392879 0.76200002 -0.0040081199 1.5839155e-38 298 243
-0.028056841 0.76200002 -0.0040081199 1.6023547e-38 299 243
-0.0267208 0.76200002 -0.0040081199 1.5931364e-38 300 243
-0.025351444 0.76099998 -0.0040028598 1.5839168e-38 301 243
-0.024017159 0.76099998 -0.0040028598 1.57459e-38 302 243
-0.02262326 0.759 -0.0039923396 1.5653705e-38 303 243
-0.02129248 0.759 -0.0039923396 1.5653339e-38 304 243
-0.0199617 0.759 -0.0039923396 1.5560783e-38 305 243
-0.01863092 0.759 -0.0039923396 1.5560423e-38 306 243
-0.017254554 0.75700003 -0.0039818203 1.5467869e-38 307 243
-0.015885198 0.755 -0.0039712996 1.5557919e-38 308 243
-0.014561433 0.755 -0.0039712996 1.5557919e-38 309 243
-0.013237666 0.755 -0.0039712996 1.5648332e-38 310 243
-0.011913899 0.755 -0.0039712996 1.5464301e-38 311 243
-0.010590133 0.755 -0.0039712996 1.546502e-38 312 243
-0.0092663663 0.755 -0.0039712996 1.5372824e-38 313 243
-0.0079425992 0.755 -0.0039712996 1.5555413e-38 314 243
-0.0066188332 0.755 -0.0039712996 1.5463218e-38 315 243
-0.0052950666 0.755 -0.0039712996 1.5094805e-38 316 243
-0.0039712996 0.755 -0.0039712996 1.500261e-38 317 243
-0.0026545466 0.75700003 -0.0039818203 1.4358691e-38 318 243
-0.0013237667 0.755 -0.0039712996 1.3989909e-38 319 243
0 0.755 -0.0039712996 1.343351e-38 320 243
0.0013237667 0.755 -0.0039712996 1.324912e-38 321 243
0.0026475333 0.755 -0.0039712996 1.352534e-38 322 243
0.0039712996 0.755 -0.0039712996 1.3709732e-38 323 243
0.0052950666 0.755 -0.0039712996 1.3249823e-38 324 243
0.0066188332 0.755 -0.0039712996 1.2973237e-38 325 243
0.0079425992 0.755 -0.0039712996 1.2420429e-38 326 243
0.0092663663 0.755 -0.0039712996 1.2420429e-38 327 243
0.010590133 0.755 -0.0039712996 1.1961252e-38 328 243
0.01194546 0.75700003 -0.0039818203 1.2053448e-38 329 243
0.013272733 0.75700003 -0.0039818203 1.1869057e-38 330 243
0.014638579 0.759 -0.0039923396 1.177686e-38 331 243
0.015969358 0.759 -0.0039923396 1.1684311e-38 332 243
0.017345725 0.76099998 -0.0040028598 1.1408084e-38 333 243
0.018680012 0.76099998 -0.0040028598 1.1131504e-38 334 243
0.0200406 0.76200002 -0.0040081199 1.0855276e-38 335 243
0.02137664 0.76200002 -0.0040081199 9.9372828e-39 336 243
0.022831906 0.76599997 -0.0040291594 9.8450872e-39 337 243
0.024206521 0.76700002 -0.00403442 9.5710213e-39 338 243
0.025551327 0.76700002 -0.00403442 9.6632169e-39 339 243
0.026966266 0.76899999 -0.0040449398 9.6632337e-39 340 243
0.028388219 0.77100003 -0.0040554604 9.8479837e-39 341 243
0.029740039 0.77100003 -0.0040554604 9.02293e-39 342 243
0.031091858 0.77100003 -0.0040554604 9.6682994e-39 343 243
0.032443684 0.77100003 -0.0040554604 1.3735001e-38 344 243
0.033795502 0.77100003 -0.0040554604 1.7146239e-38 345 243
-0.044610061 0.77100003 -0.0054072798 1.8347673e-38 287 244
-0.043258239 0.77100003 -0.0054072798 1.6871435e-38 288 244
-0.04190642 0.77100003 -0.0054072798 1.2722271e-38 289 244
-0.0404494 0.76899999 -0.0053932532 1.4552084e-38 290 244
-0.039101087 0.76899999 -0.0053932532 1.4091466e-38 291 244
-0.03775277 0.76899999 -0.0053932532 1.5284925e-38 292 244
-0.036309779 0.76700002 -0.0053792265 1.5100534e-38 293 244
-0.034964975 0.76700002 -0.0053792265 1.574373e-38 294 244
-0.033576332 0.76599997 -0.0053722127 1.5928481e-38 295 244
-0.032149121 0.764 -0.0053581866 1.5929548e-38 296 244
-0.030688593 0.76099998 -0.0053371461 1.6022102e-38 297 244
-0.029354304 0.76099998 -0.0053371461 1.5839153e-38 298 244
-0.028056841 0.76200002 -0.0053441599 1.5931348e-38 299 244
-0.026685731 0.76099998 -0.0053371461 1.5746251e-38 300 244
-0.025351444 0.76099998 -0.0053371461 1.5746251e-38 301 244
-0.024017159 0.76099998 -0.0053371461 1.5836298e-38 302 244
-0.022682872 0.76099998 -0.0053371461 1.5836298e-38 303 244
-0.021348584 0.76099998 -0.0053371461 1.546859e-38 304 244
-0.0199617 0.759 -0.0053231199 1.5376395e-38 305 244
-0.01863092 0.759 -0.0053231199 1.5558988e-38 306 244
-0.017254554 0.75700003 -0.0053090933 1.5282761e-38 307 244
-0.015927281 0.75700003 -0.0053090933 1.5097297e-38 308 244
-0.014561433 0.755 -0.0052950666 1.5004742e-38 309 244
-0.013237666 0.755 -0.0052950666 1.5186988e-38 310 244
-0.011913899 0.755 -0.0052950666 1.5186988e-38 311 244
-0.010590133 0.755 -0.0052950666 1.5094793e-38 312 244
-0.0092663663 0.755 -0.0052950666 1.472565e-38 313 244
-0.0079425992 0.755 -0.0052950666 1.5092991e-38 314 244
-0.0066188332 0.755 -0.0052950666 1.5000795e-38 315 244
-0.0052950666 0.755 -0.0052950666 1.4356872e-38 316 244
-0.0039712996 0.755 -0.0052950666 1.4172479e-38 317 244
-0.0026475333 0.755 -0.0052950666 1.4171054e-38 318 244
-0.0013272733 0.75700003 -0.0053090933 1.3986663e-38 319 244
0 0.755 -0.0052950666 1.3709005e-38 320 244
0.0013237667 0.755 -0.0052950666 1.3616451e-38 321 244
0.0026475333 0.755 -0.0052950666 1.3343097e-38 322 244
0.0039712996 0.755 -0.0052950666 1.3250542e-38 323 244
0.0052950666 0.755 -0.0052950666 1.3064711e-38 324 244
0.0066188332 0.755 -0.0052950666 1.2511177e-38 325 244
0.0079425992 0.755 -0.0052950666 1.2144202e-38 326 244
0.0092663663 0.755 -0.0052950666 1.2144202e-38 327 244
0.010590133 0.755 -0.0052950666 1.186941e-38 328 244
0.011913899 0.755 -0.0052950666 1.186941e-38 329 244
0.013237666 0.755 -0.0052950666 1.1960525e-38 330 244
0.014600007 0.75700003 -0.0053090933 1.1776494e-38 331 244
0.015969358 0.759 -0.0053231199 1.1592113e-38 332 244
0.017345725 0.76099998 -0.0053371461 1.1408082e-38 333 244
0.018680012 0.76099998 -0.0053371461 1.1040744e-38 334 244
0.0200406 0.76200002 -0.0053441599 1.0855992e-38 335 244
0.021432746 0.764 -0.0053581866 9.7539706e-39 336 244
0.022772292 0.764 -0.0053581866 9.5695793e-39 337 244
0.024206521 0.76700002 -0.0053792265 9.5699451e-39 338 244
0.025551327 0.76700002 -0.0053792265 9.7543363e-39 339 244
0.026966266 0.76899999 -0.0053932532 9.2955288e-39 340 244
0.028388219 0.77100003 -0.0054072798 9.4799214e-39 341 244
0.029740039 0.77100003 -0.0054072798 8.2860782e-39 342 244
0.031091858 0.77100003 -0.0054072798 9.116199e-39 343 244
0.032527838 0.773 -0.0054213065 1.3366571e-38 344 244
0.033883166 0.773 -0.0054213065 1.7054396e-38 345 244
-0.044725779 0.773 -0.0067766332 1.8531341e-38 287 245
-0.043370452 0.773 -0.0067766332 1.705438e-38 288 245
-0.04190642 0.77100003 -0.0067590997 1.2813022e-38 289 245
-0.040554602 0.77100003 -0.0067590997 1.473503e-38 290 245
-0.039101087 0.76899999 -0.0067415666 1.4550639e-38 291 245
-0.03775277 0.76899999 -0.0067415666 1.5193448e-38 292 245
-0.036309779 0.76700002 -0.006724033 1.5009417e-38 293 245
-0.034964975 0.76700002 -0.006724033 1.5285278e-38 294 245
-0.033576332 0.76599997 -0.0067152665 1.5377474e-38 295 245
-0.032149121 0.764 -0.006697733 1.5562213e-38 296 245
-0.030688593 0.76099998 -0.0066714329 1.5654408e-38 297 245
-0.029354304 0.76099998 -0.0066714329 1.5471096e-38 298 245
-0.028020019 0.76099998 -0.0066714329 1.5471096e-38 299 245
-0.026685731 0.76099998 -0.0066714329 1.5653702e-38 300 245
-0.025351444 0.76099998 -0.0066714329 1.5377474e-38 301 245
-0.024017159 0.76099998 -0.0066714329 1.5375689e-38 302 245
-0.02262326 0.759 -0.0066538998 1.5375689e-38 303 245
-0.02129248 0.759 -0.0066538998 1.5007632e-38 304 245
-0.0199617 0.759 -0.0066538998 1.4915436e-38 305 245
-0.01863092 0.759 -0.0066538998 1.5098381e-38 306 245
-0.017254554 0.75700003 -0.0066363667 1.4821796e-38 307 245
-0.015885198 0.755 -0.0066188332 1.4912194e-38 308 245
-0.014561433 0.755 -0.0066188332 1.4727802e-38 309 245
-0.013237666 0.755 -0.0066188332 1.4726735e-38 310 245
-0.011913899 0.755 -0.0066188332 1.463418e-38 311 245
-0.010590133 0.755 -0.0066188332 1.4724947e-38 312 245
-0.0092663663 0.755 -0.0066188332 1.444872e-38 313 245
-0.0079425992 0.755 -0.0066188332 1.4539834e-38 314 245
-0.0066188332 0.755 -0.0066188332 1.4263605e-38 315 245
-0.0052950666 0.755 -0.0066188332 1.3894114e-38 316 245
-0.0039712996 0.755 -0.0066188332 1.3617886e-38 317 245
-0.0026475333 0.755 -0.0066188332 1.352535e-38 318 245
-0.0013237667 0.755 -0.0066188332 1.3249123e-38 319 245
0 0.755 -0.0066188332 1.3339874e-38 320 245
0.0013237667 0.755 -0.0066188332 1.3339874e-38 321 245
0.0026475333 0.755 -0.0066188332 1.2881764e-38 322 245
0.0039712996 0.755 -0.0066188332 1.2789568e-38 323 245
0.0052950666 0.755 -0.0066188332 1.2236044e-38 324 245
0.0066188332 0.755 -0.0066188332 1.186726e-38 325 245
0.0079425992 0.755 -0.0066188332 1.1592115e-38 326 245
0.0092663663 0.755 -0.0066188332 1.1592115e-38 327 245
0.010590133 0.755 -0.0066188332 1.1134011e-38 328 245
0.011913899 0.755 -0.0066188332 1.1134011e-38 329 245
0.013237666 0.755 -0.0066188332 1.1225135e-38 330 245
0.014600007 0.75700003 -0.0066363667 1.1225135e-38 331 245
0.015969358 0.759 -0.0066538998 1.1316252e-38 332 245
0.017300138 0.759 -0.0066538998 1.1316252e-38 333 245
0.018680012 0.76099998 -0.0066714329 1.0949264e-38 334 245
0.020014299 0.76099998 -0.0066714329 1.0580482e-38 335 245
0.021432746 0.764 -0.006697733 9.8450844e-39 336 245
