# .PCD v.7 - Point Cloud Data file format
FIELDS x y z rgb imX imY
SIZE 4 4 4 4 4 4
TYPE F F F F F F
COUNT 1 1 1 1 1 1
WIDTH 857
HEIGHT 1
VIEWPOINT 0 0 0 1 0 0 0
POINTS 857
DATA ascii
-0.0040186401 0.764 0.014735013 1.6110054e-38 317 229
-0.0026790933 0.764 0.014735013 1.6202235e-38 318 229
-0.0013395466 0.764 0.014735013 1.6110039e-38 319 229
0 0.764 0.014735013 1.5833074e-38 320 229
0.0013395466 0.764 0.014735013 1.5187704e-38 321 229
0.0026790933 0.764 0.014735013 1.5278811e-38 322 229
0.0040186401 0.764 0.014735013 1.4910029e-38 323 229
0.0053581866 0.764 0.014735013 1.4817836e-38 324 229
0.0067152665 0.76599997 0.014773586 1.4725281e-38 325 229
0.0080583189 0.76599997 0.014773586 1.444942e-38 326 229
0.0094136465 0.76700002 0.014792874 1.4357225e-38 327 229
0.010758453 0.76700002 0.014792874 1.4265031e-38 328 229
0.012134819 0.76899999 0.014831445 1.4172476e-38 329 229
0.013483133 0.76899999 0.014831445 1.3988814e-38 330 229
0.014831445 0.76899999 0.014831445 1.4081009e-38 331 229
0.016221842 0.77100003 0.01487002 1.3712618e-38 332 229
0.01757366 0.77100003 0.01487002 1.3989206e-38 333 229
-0.045015078 0.778 0.013640933 1.5950933e-38 287 230
-0.043650985 0.778 0.013640933 1.6034086e-38 288 230
-0.042286891 0.778 0.013640933 1.3452608e-38 289 230
-0.040922798 0.778 0.013640933 1.6204386e-38 290 230
-0.039457016 0.77600002 0.013605867 1.6204386e-38 291 230
-0.037998237 0.77399999 0.013570799 1.6570626e-38 292 230
-0.036593821 0.773 0.013553266 1.6570626e-38 293 230
-0.035238493 0.773 0.013553266 1.6570629e-38 294 230
-0.033620168 0.76700002 0.013448066 1.6846856e-38 295 230
-0.03227536 0.76700002 0.013448066 1.666319e-38 296 230
-0.030930554 0.76700002 0.013448066 1.6755386e-38 297 230
-0.029547172 0.76599997 0.013430533 1.7030898e-38 298 230
-0.028204117 0.76599997 0.013430533 1.7123094e-38 299 230
-0.026790932 0.764 0.013395466 1.7123813e-38 300 230
-0.025451386 0.764 0.013395466 1.7123813e-38 301 230
-0.024111839 0.764 0.013395466 1.7306765e-38 302 230
-0.02271268 0.76200002 0.0133604 1.7306765e-38 303 230
-0.02137664 0.76200002 0.0133604 1.703162e-38 304 230
-0.0200406 0.76200002 0.0133604 1.6939424e-38 305 230
-0.01870456 0.76200002 0.0133604 1.5925638e-38 306 230
-0.01736852 0.76200002 0.0133604 1.5372824e-38 307 230
-0.01603248 0.76200002 0.0133604 1.2801446e-38 308 230
-0.01469644 0.76200002 0.0133604 1.3354261e-38 309 230
-0.0133604 0.76200002 0.0133604 1.2256569e-38 310 230
-0.01202436 0.76200002 0.0133604 1.0873635e-38 311 230
-0.01068832 0.76200002 0.0133604 9.492847e-39 312 230
-0.0093522798 0.76200002 0.0133604 1.0138216e-38 313 230
-0.0080162399 0.76200002 0.0133604 1.3719449e-38 314 230
-0.0066801999 0.76200002 0.0133604 1.454957e-38 315 230
-0.0053441599 0.76200002 0.0133604 1.5650876e-38 316 230
-0.0040081199 0.76200002 0.0133604 1.5466483e-38 317 230
-0.00267208 0.76200002 0.0133604 1.5925288e-38 318 230
-0.0013395466 0.764 0.013395466 1.5556865e-38 319 230
0 0.76200002 0.0133604 1.5922755e-38 320 230
0.00133604 0.76200002 0.0133604 1.5646167e-38 321 230
0.0026790933 0.764 0.013395466 1.5186258e-38 322 230
0.0040081199 0.76200002 0.0133604 1.4910031e-38 323 230
0.0053441599 0.76200002 0.0133604 1.4726003e-38 324 230
0.006697733 0.764 0.013395466 1.4449776e-38 325 230
0.0080583189 0.76599997 0.013430533 1.417391e-38 326 230
0.0094013726 0.76599997 0.013430533 1.4081713e-38 327 230
0.010758453 0.76700002 0.013448066 1.4172832e-38 328 230
0.01210326 0.76700002 0.013448066 1.3896247e-38 329 230
0.013483133 0.76899999 0.013483133 1.3804422e-38 330 230
0.014831445 0.76899999 0.013483133 1.3896618e-38 331 230
0.016179759 0.76899999 0.013483133 1.3712971e-38 332 230
0.01757366 0.77100003 0.013518199 1.3897364e-38 333 230
-0.045015078 0.778 0.012276839 1.3370887e-38 287 231
-0.043538772 0.77600002 0.01224528 1.5657728e-38 288 231
-0.042178184 0.77600002 0.01224528 1.4459185e-38 289 231
-0.040712398 0.77399999 0.01221372 1.6387327e-38 290 231
-0.039304473 0.773 0.012197939 1.6295131e-38 291 231
-0.037949149 0.773 0.012197939 1.6569194e-38 292 231
-0.036499143 0.77100003 0.01216638 1.6569194e-38 293 231
-0.035056144 0.76899999 0.012134819 1.6478433e-38 294 231
-0.033620168 0.76700002 0.01210326 1.6570629e-38 295 231
-0.03227536 0.76700002 0.01210326 1.675431e-38 296 231
-0.030930554 0.76700002 0.01210326 1.6846505e-38 297 231
-0.029547172 0.76599997 0.012087479 1.7030901e-38 298 231
-0.028204117 0.76599997 0.012087479 1.7030901e-38 299 231
-0.026790932 0.764 0.01205592 1.6939068e-38 300 231
-0.025451386 0.764 0.01205592 1.6939068e-38 301 231
-0.024111839 0.764 0.01205592 1.6938352e-38 302 231
-0.02271268 0.76200002 0.01202436 1.6846155e-38 303 231
-0.02137664 0.76200002 0.01202436 1.6569572e-38 304 231
-0.0200406 0.76200002 0.01202436 1.6385181e-38 305 231
-0.01870456 0.76200002 0.01202436 1.5832007e-38 306 231
-0.01736852 0.76200002 0.01202436 1.5186638e-38 307 231
-0.016011439 0.76099998 0.012008579 1.2428698e-38 308 231
-0.014677152 0.76099998 0.012008579 1.2704924e-38 309 231
-0.013342866 0.76099998 0.012008579 1.068672e-38 310 231
-0.012008579 0.76099998 0.012008579 1.004135e-38 311 231
-0.010674292 0.76099998 0.012008579 1.0591284e-38 312 231
-0.0093400059 0.76099998 0.012008579 1.1697632e-38 313 231
-0.0080057196 0.76099998 0.012008579 1.4178262e-38 314 231
-0.0066714329 0.76099998 0.012008579 1.4731436e-38 315 231
-0.0053371461 0.76099998 0.012008579 1.5282089e-38 316 231
-0.0040028598 0.76099998 0.012008579 1.5098058e-38 317 231
-0.0026685731 0.76099998 0.012008579 1.5463244e-38 318 231
-0.00133604 0.76200002 0.01202436 1.5278852e-38 319 231
0 0.76200002 0.01202436 1.4911145e-38 320 231
0.00133604 0.76200002 0.01202436 1.4818591e-38 321 231
0.00267208 0.76200002 0.01202436 1.4726381e-38 322 231
0.0040081199 0.76200002 0.01202436 1.4449436e-38 323 231
0.0053441599 0.76200002 0.01202436 1.4449423e-38 324 231
0.006697733 0.764 0.01205592 1.4357228e-38 325 231
0.0080583189 0.76599997 0.012087479 1.4172832e-38 326 231
0.0094013726 0.76599997 0.012087479 1.4172832e-38 327 231
0.010758453 0.76700002 0.01210326 1.4080283e-38 328 231
0.01210326 0.76700002 0.01210326 1.3804057e-38 329 231
0.013448066 0.76700002 0.01210326 1.352784e-38 330 231
0.014831445 0.76899999 0.012134819 1.3711871e-38 331 231
0.016179759 0.76899999 0.012134819 1.3620419e-38 332 231
0.017528072 0.76899999 0.012134819 1.3989562e-38 333 231
0.018925481 0.77100003 0.01216638 1.2979411e-38 334 231
-0.044899363 0.77600002 0.010884693 1.2262722e-38 287 232
-0.043426558 0.77399999 0.01085664 1.5838504e-38 288 232
-0.042069476 0.77399999 0.01085664 1.5377884e-38 289 232
-0.0406598 0.773 0.010842613 1.6478077e-38 290 232
-0.039304473 0.773 0.010842613 1.6385882e-38 291 232
-0.037850961 0.77100003 0.01081456 1.6661024e-38 292 232
-0.036309779 0.76700002 0.010758453 1.6661024e-38 293 232
-0.034964975 0.76700002 0.010758453 1.6569547e-38 294 232
-0.033620168 0.76700002 0.010758453 1.6569547e-38 295 232
-0.032233275 0.76599997 0.010744425 1.702873e-38 296 232
-0.030890226 0.76599997 0.010744425 1.7120926e-38 297 232
-0.029547172 0.76599997 0.010744425 1.6938333e-38 298 232
-0.028204117 0.76599997 0.010744425 1.7122364e-38 299 232
-0.026790932 0.764 0.010716373 1.6937982e-38 300 232
-0.025451386 0.764 0.010716373 1.6937982e-38 301 232
-0.024111839 0.764 0.010716373 1.6753957e-38 302 232
-0.02271268 0.76200002 0.01068832 1.6569926e-38 303 232
-0.02137664 0.76200002 0.01068832 1.6568847e-38 304 232
-0.020014299 0.76099998 0.010674292 1.629226e-38 305 232
-0.018680012 0.76099998 0.010674292 1.5832007e-38 306 232
-0.017345725 0.76099998 0.010674292 1.5094442e-38 307 232
-0.016011439 0.76099998 0.010674292 1.3530725e-38 308 232
-0.014677152 0.76099998 0.010674292 1.3161944e-38 309 232
-0.013342866 0.76099998 0.010674292 1.0589842e-38 310 232
-0.012008579 0.76099998 0.010674292 1.022106e-38 311 232
-0.01064624 0.759 0.01064624 1.2701704e-38 312 232
-0.00931546 0.759 0.01064624 1.4269389e-38 313 232
-0.0079846792 0.759 0.01064624 1.4363724e-38 314 232
-0.0066714329 0.76099998 0.010674292 1.4548474e-38 315 232
-0.0053371461 0.76099998 0.010674292 1.5465035e-38 316 232
-0.0040028598 0.76099998 0.010674292 1.518845e-38 317 232
-0.0026685731 0.76099998 0.010674292 1.5278496e-38 318 232
-0.0013342865 0.76099998 0.010674292 1.4540931e-38 319 232
0 0.76099998 0.010674292 1.4540934e-38 320 232
0.0013342865 0.76099998 0.010674292 1.4540934e-38 321 232
0.0026685731 0.76099998 0.010674292 1.4448367e-38 322 232
0.0040081199 0.76200002 0.01068832 1.4263974e-38 323 232
0.0053441599 0.76200002 0.01068832 1.4263603e-38 324 232
0.006697733 0.764 0.010716373 1.4171407e-38 325 232
0.0080372803 0.764 0.010716373 1.3987013e-38 326 232
0.0093768267 0.764 0.010716373 1.3987013e-38 327 232
0.010744425 0.76599997 0.010744425 1.3711508e-38 328 232
0.01210326 0.76700002 0.010758453 1.3618952e-38 329 232
0.013448066 0.76700002 0.010758453 1.343564e-38 330 232
0.014831445 0.76899999 0.010786506 1.343564e-38 331 232
0.016179759 0.76899999 0.010786506 1.3527489e-38 332 232
0.017528072 0.76899999 0.010786506 1.3988107e-38 333 232
0.018925481 0.77100003 0.01081456 1.3255978e-38 334 232
-0.044899363 0.77600002 0.009524107 1.2442782e-38 287 233
-0.043426558 0.77399999 0.0094995592 1.5745942e-38 288 233
-0.042069476 0.77399999 0.0094995592 1.556155e-38 289 233
-0.0406598 0.773 0.0094872871 1.6294052e-38 290 233
-0.039101087 0.76899999 0.0094381925 1.6110019e-38 291 233
-0.03775277 0.76899999 0.0094381925 1.647735e-38 292 233
-0.036309779 0.76700002 0.0094136465 1.647735e-38 293 233
-0.034964975 0.76700002 0.0094136465 1.6477e-38 294 233
-0.033576332 0.76599997 0.0094013726 1.6477e-38 295 233
-0.032233275 0.76599997 0.0094013726 1.6110384e-38 296 233
-0.030890226 0.76599997 0.0094013726 1.6295134e-38 297 233
-0.029547172 0.76599997 0.0094013726 1.675431e-38 298 233
-0.028130481 0.764 0.0093768267 1.675431e-38 299 233
-0.026790932 0.764 0.0093768267 1.6387695e-38 300 233
-0.025451386 0.764 0.0093768267 1.6203304e-38 301 233
-0.02404872 0.76200002 0.0093522798 1.6294427e-38 302 233
-0.022682872 0.76099998 0.0093400059 1.6202232e-38 303 233
-0.021348584 0.76099998 0.0093400059 1.6292986e-38 304 233
-0.020014299 0.76099998 0.0093400059 1.6108234e-38 305 233
-0.018680012 0.76099998 0.0093400059 1.5648685e-38 306 233
-0.017345725 0.76099998 0.0093400059 1.5187707e-38 307 233
-0.016011439 0.76099998 0.0093400059 1.491075e-38 308 233
-0.014638579 0.759 0.00931546 1.4265381e-38 309 233
-0.0133078 0.759 0.00931546 1.2518e-38 310 233
-0.012008579 0.76099998 0.0093400059 1.2702391e-38 311 233
-0.01064624 0.759 0.00931546 1.380587e-38 312 233
-0.00931546 0.759 0.00931546 1.4819663e-38 313 233
-0.0079846792 0.759 0.00931546 1.4730702e-38 314 233
-0.0066538998 0.759 0.00931546 1.4914733e-38 315 233
-0.0053231199 0.759 0.00931546 1.5281004e-38 316 233
-0.0040028598 0.76099998 0.0093400059 1.518845e-38 317 233
-0.0026685731 0.76099998 0.0093400059 1.5462512e-38 318 233
-0.0013342865 0.76099998 0.0093400059 1.5001894e-38 319 233
0 0.76099998 0.0093400059 1.463383e-38 320 233
0.0013342865 0.76099998 0.0093400059 1.4541634e-38 321 233
0.0026685731 0.76099998 0.0093400059 1.4263252e-38 322 233
0.0040081199 0.76200002 0.0093522798 1.4171057e-38 323 233
0.0053441599 0.76200002 0.0093522798 1.4079214e-38 324 233
0.0066801999 0.76200002 0.0093522798 1.4079214e-38 325 233
0.0080162399 0.76200002 0.0093522798 1.4078848e-38 326 233
0.0093522798 0.76200002 0.0093522798 1.3894097e-38 327 233
0.010716373 0.764 0.0093768267 1.3893744e-38 328 233
0.012087479 0.76599997 0.0094013726 1.3801548e-38 329 233
0.013430533 0.76599997 0.0094013726 1.3343447e-38 330 233
0.014792874 0.76700002 0.0094136465 1.3343447e-38 331 233
0.01613768 0.76700002 0.0094136465 1.3252698e-38 332 233
0.017482487 0.76700002 0.0094136465 1.3160501e-38 333 233
0.018876385 0.76899999 0.0094381925 1.3164483e-38 334 233
0.0202247 0.76899999 0.0094381925 1.3348874e-38 335 233
-0.046259947 0.77600002 0.0081635201 1.5390517e-38 286 234
-0.044899363 0.77600002 0.0081635201 1.2901236e-38 287 234
-0.043426558 0.77399999 0.0081424797 1.6111481e-38 288 234
-0.042015124 0.773 0.0081319595 1.6019285e-38 289 234
-0.040554602 0.77100003 0.0081109209 1.6201133e-38 290 234
-0.039101087 0.76899999 0.0080898795 1.6201133e-38 291 234
-0.037654586 0.76700002 0.00806884 1.6476266e-38 292 234
-0.036309779 0.76700002 0.00806884 1.6660297e-38 293 234
-0.034964975 0.76700002 0.00806884 1.6475559e-38 294 234
-0.033576332 0.76599997 0.0080583189 1.6291168e-38 295 234
-0.032233275 0.76599997 0.0080583189 1.5648332e-38 296 234
-0.030890226 0.76599997 0.0080583189 1.5832723e-38 297 234
-0.029470026 0.764 0.0080372803 1.6018194e-38 298 234
-0.028056841 0.76200002 0.0080162399 1.6110389e-38 299 234
-0.0267208 0.76200002 0.0080162399 1.6293348e-38 300 234
-0.025451386 0.764 0.0080372803 1.6109317e-38 301 234
-0.024017159 0.76099998 0.0080057196 1.6293001e-38 302 234
-0.022682872 0.76099998 0.0080057196 1.6108611e-38 303 234
-0.021348584 0.76099998 0.0080057196 1.6108614e-38 304 234
-0.020014299 0.76099998 0.0080057196 1.5924221e-38 305 234
-0.018680012 0.76099998 0.0080057196 1.5648708e-38 306 234
-0.017345725 0.76099998 0.0080057196 1.5556512e-38 307 234
-0.015969358 0.759 0.0079846792 1.4730699e-38 308 234
-0.014638579 0.759 0.0079846792 1.4638502e-38 309 234
-0.0133078 0.759 0.0079846792 1.4913658e-38 310 234
-0.012008579 0.76099998 0.0080057196 1.463707e-38 311 234
-0.01064624 0.759 0.0079846792 1.4452683e-38 312 234
-0.00931546 0.759 0.0079846792 1.4913661e-38 313 234
-0.0079846792 0.759 0.0079846792 1.5189172e-38 314 234
-0.0066538998 0.759 0.0079846792 1.5189172e-38 315 234
-0.0053231199 0.759 0.0079846792 1.5463963e-38 316 234
-0.0040028598 0.76099998 0.0080057196 1.5463963e-38 317 234
-0.0026685731 0.76099998 0.0080057196 1.5465388e-38 318 234
-0.00133078 0.759 0.0079846792 1.5188803e-38 319 234
0 0.759 0.0079846792 1.4453742e-38 320 234
0.00133078 0.759 0.0079846792 1.3992404e-38 321 234
0.0026685731 0.76099998 0.0080057196 1.4264677e-38 322 234
0.0040028598 0.76099998 0.0080057196 1.3895896e-38 323 234
0.0053371461 0.76099998 0.0080057196 1.4079211e-38 324 234
0.0066714329 0.76099998 0.0080057196 1.3987016e-38 325 234
0.0080057196 0.76099998 0.0080057196 1.3896252e-38 326 234
0.0093400059 0.76099998 0.0080057196 1.3804057e-38 327 234
0.01068832 0.76200002 0.0080162399 1.3618586e-38 328 234
0.01205592 0.764 0.0080372803 1.3618586e-38 329 234
0.013395466 0.764 0.0080372803 1.3251965e-38 330 234
0.014773586 0.76599997 0.0080583189 1.3067934e-38 331 234
0.016116638 0.76599997 0.0080583189 1.3158703e-38 332 234
0.017482487 0.76700002 0.00806884 1.343529e-38 333 234
0.018827293 0.76700002 0.00806884 1.2978297e-38 334 234
0.020172099 0.76700002 0.00806884 1.3439275e-38 335 234
0.021629119 0.77100003 0.0081109209 1.169804e-38 336 234
-0.047620531 0.77600002 0.0068029333 1.4201374e-38 285 235
-0.046140719 0.77399999 0.0067853997 1.4742261e-38 286 235
-0.044783637 0.77399999 0.0067853997 1.3082381e-38 287 235
-0.043370452 0.773 0.0067766332 1.5651576e-38 288 235
-0.042015124 0.773 0.0067766332 1.5467184e-38 289 235
-0.040554602 0.77100003 0.0067590997 1.5833074e-38 290 235
-0.038999394 0.76700002 0.006724033 1.5833074e-38 291 235
-0.037654586 0.76700002 0.006724033 1.6201123e-38 292 235
-0.036262438 0.76599997 0.0067152665 1.6201123e-38 293 235
-0.034919381 0.76599997 0.0067152665 1.6198982e-38 294 235
-0.033576332 0.76599997 0.0067152665 1.5922755e-38 295 235
-0.032233275 0.76599997 0.0067152665 1.5370319e-38 296 235
-0.030890226 0.76599997 0.0067152665 1.555471e-38 297 235
-0.029392879 0.76200002 0.0066801999 1.5282086e-38 298 235
-0.028056841 0.76200002 0.0066801999 1.5374282e-38 299 235
-0.0267208 0.76200002 0.0066801999 1.5556881e-38 300 235
-0.025351444 0.76099998 0.0066714329 1.5556881e-38 301 235
-0.024017159 0.76099998 0.0066714329 1.5648723e-38 302 235
-0.02262326 0.759 0.0066538998 1.574092e-38 303 235
-0.02129248 0.759 0.0066538998 1.5741272e-38 304 235
-0.0199617 0.759 0.0066538998 1.5649076e-38 305 235
-0.01863092 0.759 0.0066538998 1.5280651e-38 306 235
-0.017300138 0.759 0.0066538998 1.5003704e-38 307 235
-0.015969358 0.759 0.0066538998 1.4452683e-38 308 235
-0.014638579 0.759 0.0066538998 1.4360487e-38 309 235
-0.0133078 0.759 0.0066538998 1.4451957e-38 310 235
-0.01197702 0.759 0.0066538998 1.4544152e-38 311 235
-0.010618187 0.75700003 0.0066363667 1.4453051e-38 312 235
-0.0092909131 0.75700003 0.0066363667 1.4453051e-38 313 235
-0.0079846792 0.759 0.0066538998 1.4819688e-38 314 235
-0.0066538998 0.759 0.0066538998 1.4727493e-38 315 235
-0.0053231199 0.759 0.0066538998 1.4727496e-38 316 235
-0.0040028598 0.76099998 0.0066714329 1.4634941e-38 317 235
-0.00266156 0.759 0.0066538998 1.5095181e-38 318 235
-0.0013272733 0.75700003 0.0066363667 1.5002985e-38 319 235
0 0.75700003 0.0066363667 1.5003316e-38 320 235
0.0013272733 0.75700003 0.0066363667 1.4542338e-38 321 235
0.0026545466 0.75700003 0.0066363667 1.4356505e-38 322 235
0.0039818203 0.75700003 0.0066363667 1.4172113e-38 323 235
0.0053231199 0.759 0.0066538998 1.3896249e-38 324 235
0.0066538998 0.759 0.0066538998 1.4080281e-38 325 235
0.0079846792 0.759 0.0066538998 1.3896247e-38 326 235
0.00931546 0.759 0.0066538998 1.3804051e-38 327 235
0.01064624 0.759 0.0066538998 1.3711138e-38 328 235
0.01202436 0.76200002 0.0066801999 1.3618942e-38 329 235
0.013395466 0.764 0.006697733 1.3159053e-38 330 235
0.014773586 0.76599997 0.0067152665 1.3066857e-38 331 235
0.016116638 0.76599997 0.0067152665 1.279029e-38 332 235
0.017482487 0.76700002 0.006724033 1.3066877e-38 333 235
0.018827293 0.76700002 0.006724033 1.2518042e-38 334 235
0.020172099 0.76700002 0.006724033 1.2979018e-38 335 235
0.021573013 0.76899999 0.0067415666 1.1695159e-38 336 235
-0.047497798 0.77399999 0.0054283198 1.3554555e-38 285 236
-0.046081103 0.773 0.0054213065 1.4829415e-38 286 236
-0.044725779 0.773 0.0054213065 1.3630872e-38 287 236
-0.043258239 0.77100003 0.0054072798 1.592529e-38 288 236
-0.04190642 0.77100003 0.0054072798 1.5648705e-38 289 236
-0.0404494 0.76899999 0.0053932532 1.5923477e-38 290 236
-0.038999394 0.76700002 0.0053792265 1.6015673e-38 291 236
-0.037605491 0.76599997 0.0053722127 1.6198619e-38 292 236
-0.036262438 0.76599997 0.0053722127 1.6198619e-38 293 236
-0.034919381 0.76599997 0.0053722127 1.6014598e-38 294 236
-0.033576332 0.76599997 0.0053722127 1.573801e-38 295 236
-0.032149121 0.764 0.0053581866 1.5186288e-38 296 236
-0.030809574 0.764 0.0053581866 1.5462514e-38 297 236
-0.029392879 0.76200002 0.0053441599 1.5281723e-38 298 236
-0.028056841 0.76200002 0.0053441599 1.5189169e-38 299 236
-0.0267208 0.76200002 0.0053441599 1.5462891e-38 300 236
-0.025351444 0.76099998 0.0053371461 1.5278499e-38 301 236
-0.023954039 0.759 0.0053231199 1.5279945e-38 302 236
-0.02262326 0.759 0.0053231199 1.5463976e-38 303 236
-0.02129248 0.759 0.0053231199 1.5556528e-38 304 236
-0.0199617 0.759 0.0053231199 1.5464332e-38 305 236
-0.01863092 0.759 0.0053231199 1.500371e-38 306 236
-0.017300138 0.759 0.0053231199 1.4542733e-38 307 236
-0.015927281 0.75700003 0.0053090933 1.4357268e-38 308 236
-0.014600007 0.75700003 0.0053090933 1.4357268e-38 309 236
-0.013272733 0.75700003 0.0053090933 1.4082126e-38 310 236
-0.01194546 0.75700003 0.0053090933 1.445055e-38 311 236
-0.010618187 0.75700003 0.0053090933 1.4360505e-38 312 236
-0.0092909131 0.75700003 0.0053090933 1.4360505e-38 313 236
-0.0079636406 0.75700003 0.0053090933 1.4634578e-38 314 236
-0.0066363667 0.75700003 0.0053090933 1.4450187e-38 315 236
-0.0052950666 0.755 0.0052950666 1.4356562e-38 316 236
-0.0039712996 0.755 0.0052950666 1.4356562e-38 317 236
-0.00266156 0.759 0.0053231199 1.4632423e-38 318 236
-0.0013272733 0.75700003 0.0053090933 1.4724979e-38 319 236
0 0.755 0.0052950666 1.4726396e-38 320 236
0.0013237667 0.755 0.0052950666 1.4265776e-38 321 236
0.0026545466 0.75700003 0.0053090933 1.4264324e-38 322 236
0.0039818203 0.75700003 0.0053090933 1.4079933e-38 323 236
0.0053231199 0.759 0.0053231199 1.3895896e-38 324 236
0.0066538998 0.759 0.0053231199 1.3895896e-38 325 236
0.0079636406 0.75700003 0.0053090933 1.3896966e-38 326 236
0.0092909131 0.75700003 0.0053090933 1.3712574e-38 327 236
0.01064624 0.759 0.0053231199 1.3618586e-38 328 236
0.01202436 0.76200002 0.0053441599 1.3434195e-38 329 236
0.013395466 0.764 0.0053581866 1.3065785e-38 330 236
0.014773586 0.76599997 0.0053722127 1.2973588e-38 331 236
0.016116638 0.76599997 0.0053722127 1.2698092e-38 332 236
0.017482487 0.76700002 0.0053792265 1.2790287e-38 333 236
0.018827293 0.76700002 0.0053792265 1.2424044e-38 334 236
0.0202247 0.76899999 0.0053932532 1.2793187e-38 335 236
0.021573013 0.76899999 0.0053932532 1.1877749e-38 336 236
0.02298094 0.77100003 0.0054072798 1.4551422e-38 337 236
-0.047497798 0.77399999 0.0040712398 1.3276524e-38 285 237
-0.046081103 0.773 0.0040659797 1.5194952e-38 286 237
-0.044610061 0.77100003 0.0040554604 1.4181159e-38 287 237
-0.043258239 0.77100003 0.0040554604 1.5648705e-38 288 237
-0.041797712 0.76899999 0.0040449398 1.5372118e-38 289 237
-0.040344197 0.76700002 0.00403442 1.564689e-38 290 237
-0.038948543 0.76599997 0.0040291594 1.564689e-38 291 237
-0.037605491 0.76599997 0.0040291594 1.582984e-38 292 237
-0.036262438 0.76599997 0.0040291594 1.6013871e-38 293 237
-0.034828212 0.764 0.0040186401 1.5922758e-38 294 237
-0.033488665 0.764 0.0040186401 1.5738007e-38 295 237
-0.032149121 0.764 0.0040186401 1.5186285e-38 296 237
-0.030809574 0.764 0.0040186401 1.5370316e-38 297 237
-0.029354304 0.76099998 0.0040028598 1.5096623e-38 298 237
-0.028020019 0.76099998 0.0040028598 1.4820395e-38 299 237
-0.026685731 0.76099998 0.0040028598 1.5002635e-38 300 237
-0.025284819 0.759 0.0039923396 1.4818244e-38 301 237
-0.023954039 0.759 0.0039923396 1.5003354e-38 302 237
-0.02262326 0.759 0.0039923396 1.5187746e-38 303 237
-0.02129248 0.759 0.0039923396 1.5463247e-38 304 237
-0.019909101 0.75700003 0.0039818203 1.5370693e-38 305 237
-0.018581826 0.75700003 0.0039818203 1.5095904e-38 306 237
-0.017254554 0.75700003 0.0039818203 1.4819316e-38 307 237
-0.015927281 0.75700003 0.0039818203 1.4082476e-38 308 237
-0.014600007 0.75700003 0.0039818203 1.3805531e-38 309 237
-0.013272733 0.75700003 0.0039818203 1.3714064e-38 310 237
-0.01194546 0.75700003 0.0039818203 1.3990291e-38 311 237
-0.010618187 0.75700003 0.0039818203 1.426831e-38 312 237
-0.0092909131 0.75700003 0.0039818203 1.426831e-38 313 237
-0.0079636406 0.75700003 0.0039818203 1.44509e-38 314 237
-0.0066363667 0.75700003 0.0039818203 1.3990281e-38 315 237
-0.0052950666 0.755 0.0039712996 1.4080328e-38 316 237
-0.0039712996 0.755 0.0039712996 1.3987774e-38 317 237
-0.00266156 0.759 0.0039923396 1.3804462e-38 318 237
-0.0013272733 0.75700003 0.0039818203 1.3251288e-38 319 237
0 0.755 0.0039712996 1.3620772e-38 320 237
0.0013237667 0.755 0.0039712996 1.3620772e-38 321 237
0.0026545466 0.75700003 0.0039818203 1.4078858e-38 322 237
0.0039818203 0.75700003 0.0039818203 1.4078858e-38 323 237
0.0053231199 0.759 0.0039923396 1.3987013e-38 324 237
0.0066538998 0.759 0.0039923396 1.4079209e-38 325 237
0.0079636406 0.75700003 0.0039818203 1.3987013e-38 326 237
0.0092909131 0.75700003 0.0039818203 1.3894817e-38 327 237
0.01064624 0.759 0.0039923396 1.3709353e-38 328 237
0.01202436 0.76200002 0.0040081199 1.3433126e-38 329 237
0.013395466 0.764 0.0040186401 1.2973237e-38 330 237
0.014773586 0.76599997 0.0040291594 1.288104e-38 331 237
0.016116638 0.76599997 0.0040291594 1.2605179e-38 332 237
0.017459691 0.76599997 0.0040291594 1.2789571e-38 333 237
0.018827293 0.76700002 0.00403442 1.2331127e-38 334 237
0.0202247 0.76899999 0.0040449398 1.2699908e-38 335 237
0.021573013 0.76899999 0.0040449398 1.2059252e-38 336 237
0.022921326 0.76899999 0.0040449398 1.4179752e-38 337 237
-0.04885488 0.77399999 0.0027141599 1.686963e-38 284 238
-0.047497798 0.77399999 0.0027141599 1.3458391e-38 285 238
-0.046081103 0.773 0.0027106532 1.5104907e-38 286 238
-0.044610061 0.77100003 0.0027036399 1.3814168e-38 287 238
-0.043146025 0.76899999 0.0026966266 1.5372115e-38 288 238
-0.041689005 0.76700002 0.0026896133 1.5095887e-38 289 238
-0.040344197 0.76700002 0.0026896133 1.5370666e-38 290 238
-0.038948543 0.76599997 0.0026861064 1.5370666e-38 291 238
-0.037605491 0.76599997 0.0026861064 1.5462499e-38 292 238
-0.036167759 0.764 0.0026790933 1.5554695e-38 293 238
-0.034828212 0.764 0.0026790933 1.5554697e-38 294 238
-0.033488665 0.764 0.0026790933 1.5277752e-38 295 238
-0.032064959 0.76200002 0.00267208 1.3990263e-38 296 238
-0.030688593 0.76099998 0.0026685731 1.4266489e-38 297 238
-0.029354304 0.76099998 0.0026685731 1.4636363e-38 298 238
-0.028020019 0.76099998 0.0026685731 1.4636363e-38 299 238
-0.026685731 0.76099998 0.0026685731 1.4819316e-38 300 238
-0.025284819 0.759 0.00266156 1.4819316e-38 301 238
-0.02389092 0.75700003 0.0026545466 1.4820039e-38 302 238
-0.022563647 0.75700003 0.0026545466 1.4820039e-38 303 238
-0.02129248 0.759 0.00266156 1.4820044e-38 304 238
-0.019909101 0.75700003 0.0026545466 1.4820044e-38 305 238
-0.018581826 0.75700003 0.0026545466 1.4730361e-38 306 238
-0.017254554 0.75700003 0.0026545466 1.454597e-38 307 238
-0.015927281 0.75700003 0.0026545466 1.4174669e-38 308 238
-0.014600007 0.75700003 0.0026545466 1.3805887e-38 309 238
-0.013272733 0.75700003 0.0026545466 1.352967e-38 310 238
-0.01194546 0.75700003 0.0026545466 1.3714061e-38 311 238
-0.010618187 0.75700003 0.0026545466 1.380805e-38 312 238
-0.0092909131 0.75700003 0.0026545466 1.3900247e-38 313 238
-0.0079636406 0.75700003 0.0026545466 1.4357621e-38 314 238
-0.0066188332 0.755 0.0026475333 1.4080676e-38 315 238
-0.0052950666 0.755 0.0026475333 1.3619703e-38 316 238
-0.0039712996 0.755 0.0026475333 1.3527149e-38 317 238
-0.00266156 0.759 0.00266156 1.2974328e-38 318 238
-0.0013272733 0.75700003 0.0026545466 1.2144568e-38 319 238
0 0.755 0.0026475333 1.2422935e-38 320 238
0.0013237667 0.755 0.0026475333 1.2883555e-38 321 238
0.0026545466 0.75700003 0.0026545466 1.3435287e-38 322 238
0.0039818203 0.75700003 0.0026545466 1.3711874e-38 323 238
0.0053231199 0.759 0.00266156 1.3527487e-38 324 238
0.0066538998 0.759 0.00266156 1.3527487e-38 325 238
0.0079846792 0.759 0.00266156 1.3710079e-38 326 238
0.00931546 0.759 0.00266156 1.3617883e-38 327 238
0.01064624 0.759 0.00266156 1.3433492e-38 328 238
0.01202436 0.76200002 0.00267208 1.32491e-38 329 238
0.0133604 0.76200002 0.00267208 1.288104e-38 330 238
0.014735013 0.764 0.0026790933 1.288104e-38 331 238
0.016074561 0.764 0.0026790933 1.2421508e-38 332 238
0.017459691 0.76599997 0.0026861064 1.2421508e-38 333 238
0.018827293 0.76700002 0.0026896133 1.2331483e-38 334 238
0.020172099 0.76700002 0.0026896133 1.2515874e-38 335 238
0.021573013 0.76899999 0.0026966266 1.1781937e-38 336 238
0.022921326 0.76899999 0.0026966266 1.3257427e-38 337 238
0.02442744 0.77399999 0.0027141599 1.3457685e-38 338 238
-0.04885488 0.77399999 0.0013570799 1.5761121e-38 284 239
-0.047497798 0.77399999 0.0013570799 1.345587e-38 285 239
-0.046081103 0.773 0.0013553266 1.5012346e-38 286 239
-0.044725779 0.773 0.0013553266 1.3168433e-38 287 239
-0.043146025 0.76899999 0.0013483133 1.5186635e-38 288 239
-0.041689005 0.76700002 0.0013448066 1.509444e-38 289 239
-0.040291596 0.76599997 0.0013430532 1.5278105e-38 290 239
-0.038948543 0.76599997 0.0013430532 1.5278105e-38 291 239
-0.037507307 0.764 0.0013395466 1.5278102e-38 292 239
-0.036167759 0.764 0.0013395466 1.5278102e-38 293 239
-0.034828212 0.764 0.0013395466 1.5369234e-38 294 239
-0.033401001 0.76200002 0.00133604 1.4631669e-38 295 239
-0.032022879 0.76099998 0.0013342865 1.2056688e-38 296 239
-0.030688593 0.76099998 0.0013342865 1.2609862e-38 297 239
-0.029354304 0.76099998 0.0013342865 1.3623663e-38 298 239
-0.028020019 0.76099998 0.0013342865 1.4084641e-38 299 239
-0.026685731 0.76099998 0.0013342865 1.4638516e-38 300 239
-0.025284819 0.759 0.00133078 1.4362288e-38 301 239
-0.02389092 0.75700003 0.0013272733 1.4635629e-38 302 239
-0.022563647 0.75700003 0.0013272733 1.4543434e-38 303 239
-0.02129248 0.759 0.00133078 1.4816439e-38 304 239
-0.019909101 0.75700003 0.0013272733 1.4816439e-38 305 239
-0.018581826 0.75700003 0.0013272733 1.4725329e-38 306 239
-0.017300138 0.759 0.00133078 1.4725329e-38 307 239
-0.015927281 0.75700003 0.0013272733 1.4172155e-38 308 239
-0.014600007 0.75700003 0.0013272733 1.3895208e-38 309 239
-0.013272733 0.75700003 0.0013272733 1.3712252e-38 310 239
-0.01194546 0.75700003 0.0013272733 1.3896283e-38 311 239
-0.010618187 0.75700003 0.0013272733 1.3712971e-38 312 239
-0.0092909131 0.75700003 0.0013272733 1.334419e-38 313 239
-0.0079636406 0.75700003 0.0013272733 1.343459e-38 314 239
-0.0066188332 0.755 0.0013237667 1.3249839e-38 315 239
-0.0052950666 0.755 0.0013237667 1.343351e-38 316 239
-0.0039712996 0.755 0.0013237667 1.3156924e-38 317 239
-0.0026475333 0.755 0.0013237667 1.2053454e-38 318 239
-0.0013237667 0.755 0.0013237667 1.1684311e-38 319 239
0 0.755 0.0013237667 1.1225488e-38 320 239
0.0013237667 0.755 0.0013237667 1.1778662e-38 321 239
0.0026545466 0.75700003 0.0013272733 1.2422226e-38 322 239
0.0039818203 0.75700003 0.0013272733 1.2606978e-38 323 239
0.0053231199 0.759 0.00133078 1.3616451e-38 324 239
0.0066538998 0.759 0.00133078 1.3616451e-38 325 239
0.0079846792 0.759 0.00133078 1.3525687e-38 326 239
0.0093400059 0.76099998 0.0013342865 1.3433492e-38 327 239
0.010674292 0.76099998 0.0013342865 1.32491e-38 328 239
0.01202436 0.76200002 0.00133604 1.3064711e-38 329 239
0.0133604 0.76200002 0.00133604 1.2788488e-38 330 239
0.01469644 0.76200002 0.00133604 1.2788488e-38 331 239
0.016074561 0.764 0.0013395466 1.2512627e-38 332 239
0.017414106 0.764 0.0013395466 1.2604823e-38 333 239
0.018802745 0.76599997 0.0013430532 1.2238564e-38 334 239
0.020172099 0.76700002 0.0013448066 1.2606988e-38 335 239
0.021573013 0.76899999 0.0013483133 1.1689375e-38 336 239
0.022921326 0.76899999 0.0013483133 1.2795364e-38 337 239
0.024269639 0.76899999 0.0013483133 1.2719034e-38 338 239
-0.048981119 0.77600002 -0 1.5299414e-38 284 240
-0.047497798 0.77399999 -0 1.3178914e-38 285 240
-0.046081103 0.773 -0 1.4642837e-38 286 240
-0.044725779 0.773 -0 1.3075152e-38 287 240
-0.043146025 0.76899999 -0 1.4727452e-38 288 240
-0.041689005 0.76700002 -0 1.4727452e-38 289 240
-0.040291596 0.76599997 -0 1.4727452e-38 290 240
-0.038948543 0.76599997 -0 1.4727452e-38 291 240
-0.037507307 0.764 -0 1.4910047e-38 292 240
-0.036167759 0.764 -0 1.4910047e-38 293 240
-0.034828212 0.764 -0 1.4357972e-38 294 240
-0.033401001 0.76200002 -0 1.3712602e-38 295 240
-0.032022879 0.76099998 -0 1.1686126e-38 296 240
-0.030688593 0.76099998 -0 1.2055268e-38 297 240
-0.029354304 0.76099998 -0 1.2425861e-38 298 240
-0.028020019 0.76099998 -0 1.3532569e-38 299 240
-0.026685731 0.76099998 -0 1.5003001e-38 300 240
-0.025284819 0.759 -0 1.4450187e-38 301 240
-0.023954039 0.759 -0 1.4174297e-38 302 240
-0.02262326 0.759 -0 1.3805514e-38 303 240
-0.02129248 0.759 -0 1.4078879e-38 304 240
-0.0199617 0.759 -0 1.4263272e-38 305 240
-0.01863092 0.759 -0 1.361901e-38 306 240
-0.017300138 0.759 -0 1.3526814e-38 307 240
-0.015927281 0.75700003 -0 1.3343136e-38 308 240
-0.014600007 0.75700003 -0 1.325094e-38 309 240
-0.013272733 0.75700003 -0 1.3251291e-38 310 240
-0.01194546 0.75700003 -0 1.3066898e-38 311 240
-0.010618187 0.75700003 -0 1.3066546e-38 312 240
-0.0092909131 0.75700003 -0 1.2974349e-38 313 240
-0.0079425992 0.755 -0 1.3156943e-38 314 240
-0.0066188332 0.755 -0 1.3064747e-38 315 240
-0.0052950666 0.755 -0 1.2881063e-38 316 240
-0.0039712996 0.755 -0 1.2604475e-38 317 240
-0.0026475333 0.755 -0 1.1960902e-38 318 240
-0.0013237667 0.755 -0 1.1776509e-38 319 240
0 0.755 -0 1.1132239e-38 320 240
0.0013237667 0.755 -0 1.1408465e-38 321 240
0.0026545466 0.75700003 -0 1.1685057e-38 322 240
0.0039818203 0.75700003 -0 1.2053838e-38 323 240
0.0053231199 0.759 -0 1.2514079e-38 324 240
0.0066538998 0.759 -0 1.2882501e-38 325 240
0.0079846792 0.759 -0 1.2882486e-38 326 240
0.0093400059 0.76099998 -0 1.279029e-38 327 240
0.010674292 0.76099998 -0 1.2789568e-38 328 240
0.01202436 0.76200002 -0 1.2697371e-38 329 240
0.0133604 0.76200002 -0 1.260446e-38 330 240
0.01469644 0.76200002 -0 1.260446e-38 331 240
0.016074561 0.764 -0 1.2328959e-38 332 240
0.017414106 0.764 -0 1.2421513e-38 333 240
0.018802745 0.76599997 -0 1.2237859e-38 334 240
0.020172099 0.76700002 -0 1.260664e-38 335 240
0.021573013 0.76899999 -0 1.178194e-38 336 240
0.022921326 0.76899999 -0 1.2242559e-38 337 240
0.024269639 0.76899999 -0 1.2071864e-38 338 240
-0.04885488 0.77399999 -0.0013570799 1.5115375e-38 284 241
-0.047497798 0.77399999 -0.0013570799 1.2626094e-38 285 241
-0.046081103 0.773 -0.0013553266 1.4365172e-38 286 241
-0.044725779 0.773 -0.0013553266 1.270601e-38 287 241
-0.043146025 0.76899999 -0.0013483133 1.4541622e-38 288 241
-0.041689005 0.76700002 -0.0013448066 1.4725653e-38 289 241
-0.040291596 0.76599997 -0.0013430532 1.4634889e-38 290 241
-0.038948543 0.76599997 -0.0013430532 1.4634889e-38 291 241
-0.037507307 0.764 -0.0013395466 1.4909681e-38 292 241
-0.036167759 0.764 -0.0013395466 1.4724931e-38 293 241
-0.034828212 0.764 -0.0013395466 1.4263971e-38 294 241
-0.033357166 0.76099998 -0.0013342865 1.3157984e-38 295 241
-0.032022879 0.76099998 -0.0013342865 1.1501365e-38 296 241
-0.030688593 0.76099998 -0.0013342865 1.1685757e-38 297 241
-0.029354304 0.76099998 -0.0013342865 1.1688281e-38 298 241
-0.028020019 0.76099998 -0.0013342865 1.2610237e-38 299 241
-0.026685731 0.76099998 -0.0013342865 1.3620419e-38 300 241
-0.025284819 0.759 -0.00133078 1.3528224e-38 301 241
-0.023954039 0.759 -0.00133078 1.3710451e-38 302 241
-0.02262326 0.759 -0.00133078 1.3526059e-38 303 241
-0.02129248 0.759 -0.00133078 1.3708296e-38 304 241
-0.0199617 0.759 -0.00133078 1.380085e-38 305 241
-0.01863092 0.759 -0.00133078 1.3708302e-38 306 241
-0.017300138 0.759 -0.00133078 1.3708302e-38 307 241
-0.015927281 0.75700003 -0.0013272733 1.3524634e-38 308 241
-0.014600007 0.75700003 -0.0013272733 1.3432438e-38 309 241
-0.013272733 0.75700003 -0.0013272733 1.3247688e-38 310 241
-0.01194546 0.75700003 -0.0013272733 1.297146e-38 311 241
-0.010618187 0.75700003 -0.0013272733 1.2879983e-38 312 241
-0.0092909131 0.75700003 -0.0013272733 1.2879983e-38 313 241
-0.0079425992 0.755 -0.0013237667 1.2789221e-38 314 241
-0.0066188332 0.755 -0.0013237667 1.2604469e-38 315 241
-0.0052950666 0.755 -0.0013237667 1.2512624e-38 316 241
-0.0039712996 0.755 -0.0013237667 1.2236397e-38 317 241
-0.0026475333 0.755 -0.0013237667 1.1960175e-38 318 241
-0.0013272733 0.75700003 -0.0013272733 1.1499198e-38 319 241
0 0.75700003 -0.0013272733 1.1223703e-38 320 241
0.0013272733 0.75700003 -0.0013272733 1.0947476e-38 321 241
0.00266156 0.759 -0.00133078 1.1866907e-38 322 241
0.0039923396 0.759 -0.00133078 1.2051299e-38 323 241
0.0053231199 0.759 -0.00133078 1.2420431e-38 324 241
0.0066538998 0.759 -0.00133078 1.2512627e-38 325 241
0.0079846792 0.759 -0.00133078 1.2605179e-38 326 241
0.0093400059 0.76099998 -0.0013342865 1.2605179e-38 327 241
0.010674292 0.76099998 -0.0013342865 1.2695571e-38 328 241
0.01202436 0.76200002 -0.00133604 1.2695571e-38 329 241
0.0133604 0.76200002 -0.00133604 1.2512258e-38 330 241
0.01469644 0.76200002 -0.00133604 1.2420063e-38 331 241
0.016074561 0.764 -0.0013395466 1.2327517e-38 332 241
0.017414106 0.764 -0.0013395466 1.2419712e-38 333 241
0.018802745 0.76599997 -0.0013430532 1.2236779e-38 334 241
0.020172099 0.76700002 -0.0013448066 1.2513726e-38 335 241
0.021573013 0.76899999 -0.0013483133 1.2057449e-38 336 241
0.022921326 0.76899999 -0.0013483133 1.242659e-38 337 241
0.024269639 0.76899999 -0.0013483133 1.1516898e-38 338 241
-0.04885488 0.77399999 -0.0027141599 1.5481994e-38 284 242
-0.047497798 0.77399999 -0.0027141599 1.2531375e-38 285 242
-0.046081103 0.773 -0.0027106532 1.3719452e-38 286 242
-0.044725779 0.773 -0.0027106532 1.3258475e-38 287 242
-0.043258239 0.77100003 -0.0027036399 1.3990981e-38 288 242
-0.041689005 0.76700002 -0.0026896133 1.3990981e-38 289 242
-0.040291596 0.76599997 -0.0026861064 1.426683e-38 290 242
-0.038948543 0.76599997 -0.0026861064 1.4359025e-38 291 242
-0.037507307 0.764 -0.0026790933 1.4449423e-38 292 242
-0.036167759 0.764 -0.0026790933 1.4265031e-38 293 242
-0.034737039 0.76200002 -0.00267208 1.3987019e-38 294 242
-0.033357166 0.76099998 -0.0026685731 1.3341649e-38 295 242
-0.032022879 0.76099998 -0.0026685731 1.2053451e-38 296 242
-0.030688593 0.76099998 -0.0026685731 1.2237482e-38 297 242
-0.029354304 0.76099998 -0.0026685731 1.1686476e-38 298 242
-0.028020019 0.76099998 -0.0026685731 1.2331845e-38 299 242
-0.026685731 0.76099998 -0.0026685731 1.3066527e-38 300 242
-0.025284819 0.759 -0.00266156 1.3066527e-38 301 242
-0.023954039 0.759 -0.00266156 1.3157646e-38 302 242
-0.02262326 0.759 -0.00266156 1.306545e-38 303 242
-0.02129248 0.759 -0.00266156 1.3156571e-38 304 242
-0.0199617 0.759 -0.00266156 1.3156571e-38 305 242
-0.01863092 0.759 -0.00266156 1.2789587e-38 306 242
-0.017300138 0.759 -0.00266156 1.2881782e-38 307 242
-0.015927281 0.75700003 -0.0026545466 1.2881419e-38 308 242
-0.014600007 0.75700003 -0.0026545466 1.2788865e-38 309 242
-0.013272733 0.75700003 -0.0026545466 1.2604472e-38 310 242
-0.01194546 0.75700003 -0.0026545466 1.2512277e-38 311 242
-0.010618187 0.75700003 -0.0026545466 1.232968e-38 312 242
-0.0092909131 0.75700003 -0.0026545466 1.2237485e-38 313 242
-0.0079636406 0.75700003 -0.0026545466 1.2054173e-38 314 242
-0.0066188332 0.755 -0.0026475333 1.1961977e-38 315 242
-0.0052950666 0.755 -0.0026475333 1.2144568e-38 316 242
-0.0039712996 0.755 -0.0026475333 1.1960175e-38 317 242
-0.0026475333 0.755 -0.0026475333 1.1591397e-38 318 242
-0.0013272733 0.75700003 -0.0026545466 1.1407005e-38 319 242
0 0.759 -0.00266156 1.0855999e-38 320 242
0.00133078 0.759 -0.00266156 1.0948195e-38 321 242
0.00266156 0.759 -0.00266156 1.1132586e-38 322 242
0.0039923396 0.759 -0.00266156 1.1224782e-38 323 242
0.0053231199 0.759 -0.00266156 1.1591765e-38 324 242
0.0066538998 0.759 -0.00266156 1.1776158e-38 325 242
0.0079846792 0.759 -0.00266156 1.1776874e-38 326 242
0.0093400059 0.76099998 -0.0026685731 1.1776874e-38 327 242
0.010674292 0.76099998 -0.0026685731 1.2052369e-38 328 242
0.01202436 0.76200002 -0.00267208 1.2052369e-38 329 242
0.0133604 0.76200002 -0.00267208 1.2144918e-38 330 242
0.01469644 0.76200002 -0.00267208 1.1960525e-38 331 242
0.016074561 0.764 -0.0026790933 1.2051652e-38 332 242
0.017414106 0.764 -0.0026790933 1.2143849e-38 333 242
0.018802745 0.76599997 -0.0026861064 1.1961273e-38 334 242
0.020172099 0.76700002 -0.0026896133 1.2237862e-38 335 242
0.021573013 0.76899999 -0.0026966266 1.1782304e-38 336 242
0.022921326 0.76899999 -0.0026966266 1.1874858e-38 337 242
0.024269639 0.76899999 -0.0026966266 1.132963e-38 338 242
-0.04885488 0.77399999 -0.0040712398 1.5849702e-38 284 243
-0.047497798 0.77399999 -0.0040712398 1.2254071e-38 285 243
-0.046081103 0.773 -0.0040659797 1.3349593e-38 286 243
-0.044725779 0.773 -0.0040659797 1.3349593e-38 287 243
-0.043258239 0.77100003 -0.0040554604 1.3806234e-38 288 243
-0.041689005 0.76700002 -0.00403442 1.3806234e-38 289 243
-0.040291596 0.76599997 -0.0040291594 1.398953e-38 290 243
-0.038948543 0.76599997 -0.0040291594 1.398953e-38 291 243
-0.037507307 0.764 -0.0040186401 1.3989164e-38 292 243
-0.036073081 0.76200002 -0.0040081199 1.3896968e-38 293 243
-0.034737039 0.76200002 -0.0040081199 1.3894817e-38 294 243
-0.033357166 0.76099998 -0.0040028598 1.3341644e-38 295 243
-0.032022879 0.76099998 -0.0040028598 1.2880321e-38 296 243
-0.030688593 0.76099998 -0.0040028598 1.2880321e-38 297 243
-0.029354304 0.76099998 -0.0040028598 1.2238561e-38 298 243
-0.028020019 0.76099998 -0.0040028598 1.2515148e-38 299 243
-0.026615599 0.759 -0.0039923396 1.2515145e-38 300 243
-0.025284819 0.759 -0.0039923396 1.2422949e-38 301 243
-0.023954039 0.759 -0.0039923396 1.2789571e-38 302 243
-0.02262326 0.759 -0.0039923396 1.2697374e-38 303 243
-0.02129248 0.759 -0.0039923396 1.2880689e-38 304 243
-0.0199617 0.759 -0.0039923396 1.2972886e-38 305 243
-0.01863092 0.759 -0.0039923396 1.2605897e-38 306 243
-0.017300138 0.759 -0.0039923396 1.2605897e-38 307 243
-0.015969358 0.759 -0.0039923396 1.2329312e-38 308 243
-0.014600007 0.75700003 -0.0039818203 1.2329312e-38 309 243
-0.013272733 0.75700003 -0.0039818203 1.2236397e-38 310 243
-0.01194546 0.75700003 -0.0039818203 1.2236397e-38 311 243
-0.010618187 0.75700003 -0.0039818203 1.1961252e-38 312 243
-0.0092909131 0.75700003 -0.0039818203 1.1869057e-38 313 243
-0.0079636406 0.75700003 -0.0039818203 1.1868704e-38 314 243
-0.0066188332 0.755 -0.0039712996 1.1868704e-38 315 243
-0.0052950666 0.755 -0.0039712996 1.1776509e-38 316 243
-0.0039712996 0.755 -0.0039712996 1.1407728e-38 317 243
-0.0026475333 0.755 -0.0039712996 1.1315536e-38 318 243
-0.00133078 0.759 -0.0039923396 1.1130786e-38 319 243
0 0.759 -0.0039923396 1.0947828e-38 320 243
0.00133078 0.759 -0.0039923396 1.113186e-38 321 243
0.00266156 0.759 -0.0039923396 1.1315889e-38 322 243
0.0039923396 0.759 -0.0039923396 1.1223334e-38 323 243
0.0053231199 0.759 -0.0039923396 1.1313733e-38 324 243
0.0066538998 0.759 -0.0039923396 1.1405929e-38 325 243
0.0079846792 0.759 -0.0039923396 1.1223703e-38 326 243
0.0093400059 0.76099998 -0.0040028598 1.1315898e-38 327 243
0.010674292 0.76099998 -0.0040028598 1.1500999e-38 328 243
0.012008579 0.76099998 -0.0040028598 1.1593194e-38 329 243
0.0133604 0.76200002 -0.0040081199 1.1776857e-38 330 243
0.01469644 0.76200002 -0.0040081199 1.1684661e-38 331 243
0.01603248 0.76200002 -0.0040081199 1.1684664e-38 332 243
0.017414106 0.764 -0.0040186401 1.1684664e-38 333 243
0.018753653 0.764 -0.0040186401 1.168576e-38 334 243
0.020172099 0.76700002 -0.00403442 1.2146737e-38 335 243
0.021516906 0.76700002 -0.00403442 1.1506429e-38 336 243
0.022921326 0.76899999 -0.0040449398 1.1598624e-38 337 243
0.024269639 0.76899999 -0.0040449398 1.0869005e-38 338 243
-0.04885488 0.77399999 -0.0054283198 1.5850423e-38 284 244
-0.047497798 0.77399999 -0.0054283198 1.1793816e-38 285 244
-0.046081103 0.773 -0.0054213065 1.3071213e-38 286 244
-0.044725779 0.773 -0.0054213065 1.3439994e-38 287 244
-0.043258239 0.77100003 -0.0054072798 1.3529653e-38 288 244
-0.041689005 0.76700002 -0.0053792265 1.3437457e-38 289 244
-0.040291596 0.76599997 -0.0053722127 1.3620754e-38 290 244
-0.038948543 0.76599997 -0.0053722127 1.3620754e-38 291 244
-0.037507307 0.764 -0.0053581866 1.3804057e-38 292 244
-0.036073081 0.76200002 -0.0053441599 1.3896252e-38 293 244
-0.034691449 0.76099998 -0.0053371461 1.3894817e-38 294 244
-0.033357166 0.76099998 -0.0053371461 1.3526394e-38 295 244
-0.032022879 0.76099998 -0.0053371461 1.3157981e-38 296 244
-0.030688593 0.76099998 -0.0053371461 1.3157981e-38 297 244
-0.029277159 0.759 -0.0053231199 1.2332183e-38 298 244
-0.027946379 0.759 -0.0053231199 1.2332183e-38 299 244
-0.026615599 0.759 -0.0053231199 1.2421863e-38 300 244
-0.025284819 0.759 -0.0053231199 1.2421863e-38 301 244
-0.023954039 0.759 -0.0053231199 1.2605176e-38 302 244
-0.02262326 0.759 -0.0053231199 1.2605176e-38 303 244
-0.02129248 0.759 -0.0053231199 1.2605176e-38 304 244
-0.0199617 0.759 -0.0053231199 1.251298e-38 305 244
-0.01863092 0.759 -0.0053231199 1.2329312e-38 306 244
-0.017300138 0.759 -0.0053231199 1.2144921e-38 307 244
-0.015969358 0.759 -0.0053231199 1.2144205e-38 308 244
-0.014600007 0.75700003 -0.0053090933 1.2051649e-38 309 244
-0.013272733 0.75700003 -0.0053090933 1.1959453e-38 310 244
-0.01194546 0.75700003 -0.0053090933 1.1959453e-38 311 244
-0.010618187 0.75700003 -0.0053090933 1.1684308e-38 312 244
-0.0092909131 0.75700003 -0.0053090933 1.1684308e-38 313 244
-0.0079636406 0.75700003 -0.0053090933 1.1591759e-38 314 244
-0.0066188332 0.755 -0.0052950666 1.1591759e-38 315 244
-0.0052950666 0.755 -0.0052950666 1.1316254e-38 316 244
-0.0039712996 0.755 -0.0052950666 1.1131504e-38 317 244
-0.0026475333 0.755 -0.0052950666 1.1038591e-38 318 244
-0.0013342865 0.76099998 -0.0053371461 1.1038591e-38 319 244
0 0.759 -0.0053231199 1.0947476e-38 320 244
0.00133078 0.759 -0.0053231199 1.1131507e-38 321 244
0.00266156 0.759 -0.0053231199 1.1315533e-38 322 244
0.0039923396 0.759 -0.0053231199 1.113114e-38 323 244
0.0053371461 0.76099998 -0.0053371461 1.1129342e-38 324 244
0.0066714329 0.76099998 -0.0053371461 1.1129342e-38 325 244
0.0080057196 0.76099998 -0.0053371461 1.0580122e-38 326 244
0.0093400059 0.76099998 -0.0053371461 1.0764153e-38 327 244
0.010674292 0.76099998 -0.0053371461 1.1132211e-38 328 244
0.012008579 0.76099998 -0.0053371461 1.1224406e-38 329 244
0.0133604 0.76200002 -0.0053441599 1.1407e-38 330 244
0.01469644 0.76200002 -0.0053441599 1.1499554e-38 331 244
0.01603248 0.76200002 -0.0053441599 1.1315886e-38 332 244
0.017414106 0.764 -0.0053581866 1.1408082e-38 333 244
0.018753653 0.764 -0.0053581866 1.1317701e-38 334 244
0.020145798 0.76599997 -0.0053722127 1.1778677e-38 335 244
0.021516906 0.76700002 -0.0053792265 1.1322038e-38 336 244
0.022861714 0.76700002 -0.0053792265 1.1782657e-38 337 244
0.024206521 0.76700002 -0.0053792265 1.0869005e-38 338 244
-0.047497798 0.77399999 -0.0067853997 1.1242086e-38 285 245
-0.046081103 0.773 -0.0067766332 1.2609158e-38 286 245
-0.044725779 0.773 -0.0067766332 1.3162331e-38 287 245
-0.043258239 0.77100003 -0.0067590997 1.325236e-38 288 245
-0.041797712 0.76899999 -0.0067415666 1.2976133e-38 289 245
-0.040344197 0.76700002 -0.006724033 1.3159796e-38 290 245
-0.038948543 0.76599997 -0.0067152665 1.3159796e-38 291 245
-0.037507307 0.764 -0.006697733 1.352784e-38 292 245
-0.036073081 0.76200002 -0.0066801999 1.352784e-38 293 245
-0.034691449 0.76099998 -0.0066714329 1.3619308e-38 294 245
-0.033357166 0.76099998 -0.0066714329 1.3527112e-38 295 245
-0.032022879 0.76099998 -0.0066714329 1.3434558e-38 296 245
-0.030688593 0.76099998 -0.0066714329 1.3250527e-38 297 245
-0.029277159 0.759 -0.0066538998 1.2790643e-38 298 245
-0.027946379 0.759 -0.0066538998 1.2329665e-38 299 245
-0.026615599 0.759 -0.0066538998 1.2053098e-38 300 245
-0.025284819 0.759 -0.0066538998 1.1960902e-38 301 245
-0.023954039 0.759 -0.0066538998 1.1779378e-38 302 245
-0.02262326 0.759 -0.0066538998 1.1963769e-38 303 245
-0.02129248 0.759 -0.0066538998 1.2237832e-38 304 245
-0.0199617 0.759 -0.0066538998 1.2053801e-38 305 245
-0.01863092 0.759 -0.0066538998 1.2144205e-38 306 245
-0.017300138 0.759 -0.0066538998 1.2051649e-38 307 245
-0.015969358 0.759 -0.0066538998 1.186726e-38 308 245
-0.014600007 0.75700003 -0.0066363667 1.186726e-38 309 245
-0.013272733 0.75700003 -0.0066363667 1.1683589e-38 310 245
-0.01194546 0.75700003 -0.0066363667 1.1591394e-38 311 245
-0.010618187 0.75700003 -0.0066363667 1.1591397e-38 312 245
-0.0092909131 0.75700003 -0.0066363667 1.1591397e-38 313 245
-0.0079636406 0.75700003 -0.0066363667 1.1316252e-38 314 245
-0.0066363667 0.75700003 -0.0066363667 1.1224056e-38 315 245
-0.0052950666 0.755 -0.0066188332 1.0947473e-38 316 245
-0.0039712996 0.755 -0.0066188332 1.0855276e-38 317 245
-0.00266156 0.759 -0.0066538998 1.0579412e-38 318 245
-0.00133078 0.759 -0.0066538998 1.0763802e-38 319 245
0 0.759 -0.0066538998 1.0580134e-38 320 245
0.00133078 0.759 -0.0066538998 1.0672331e-38 321 245
0.00266156 0.759 -0.0066538998 1.0580134e-38 322 245
0.0039923396 0.759 -0.0066538998 1.0395743e-38 323 245
0.0053371461 0.76099998 -0.0066714329 1.0119513e-38 324 245
0.0066714329 0.76099998 -0.0066714329 1.0119513e-38 325 245
0.0080057196 0.76099998 -0.0066714329 9.8443655e-39 326 245
0.0093400059 0.76099998 -0.0066714329 9.7521699e-39 327 245
0.010674292 0.76099998 -0.0066714329 9.9365668e-39 328 245
0.012008579 0.76099998 -0.0066714329 9.9365668e-39 329 245
0.0133604 0.76200002 -0.0066801999 1.0487938e-38 330 245
0.01469644 0.76200002 -0.0066801999 1.0672331e-38 331 245
0.016074561 0.764 -0.006697733 1.0672331e-38 332 245
0.017414106 0.764 -0.006697733 1.0764527e-38 333 245
0.018753653 0.764 -0.006697733 1.0399355e-38 334 245
0.020145798 0.76599997 -0.0067152665 1.0860334e-38 335 245
0.021488851 0.76599997 -0.0067152665 1.122877e-38 336 245
0.022861714 0.76700002 -0.006724033 1.1874139e-38 337 245
0.024206521 0.76700002 -0.006724033 1.1053752e-38 338 245
