# .PCD v.7 - Point Cloud Data file format
FIELDS x y z rgb imX imY
SIZE 4 4 4 4 4 4
TYPE F F F F F F
COUNT 1 1 1 1 1 1
WIDTH 827
HEIGHT 1
VIEWPOINT 0 0 0 1 0 0 0
POINTS 827
DATA ascii
0.0012062934 0.68800002 -0.047045439 1.3068694e-38 321 279
0.0024125867 0.68800002 -0.047045439 1.3526799e-38 322 279
0.0036188802 0.68800002 -0.047045439 1.3526799e-38 323 279
0.0048181596 0.68699998 -0.046977058 1.3527149e-38 324 279
0.0060226996 0.68699998 -0.046977058 1.3527149e-38 325 279
0.0072167199 0.68599999 -0.046908677 1.3527858e-38 326 279
0.0084195063 0.68599999 -0.046908677 1.3712249e-38 327 279
0.0095942402 0.68400002 -0.046771921 1.3989556e-38 328 279
0.01079352 0.68400002 -0.046771921 1.4450534e-38 329 279
0.0119928 0.68400002 -0.046771921 1.4817872e-38 330 279
0.01319208 0.68400002 -0.046771921 1.5002262e-38 331 279
0.01439136 0.68400002 -0.046771921 1.5095156e-38 332 279
0.015636226 0.68599999 -0.046908677 1.4818929e-38 333 279
0.016839013 0.68599999 -0.046908677 1.5000076e-38 334 279
0.018068098 0.68699998 -0.046977058 1.4815685e-38 335 279
0.019272638 0.68699998 -0.046977058 1.472206e-38 336 279
0.020477179 0.68699998 -0.046977058 1.4629864e-38 337 279
0.021681719 0.68699998 -0.046977058 1.4629867e-38 338 279
0.022886258 0.68699998 -0.046977058 1.4537671e-38 339 279
0.024090799 0.68699998 -0.046977058 1.417176e-38 340 279
0.025295338 0.68699998 -0.046977058 1.4263956e-38 341 279
0.026538454 0.68800002 -0.047045439 1.4172482e-38 342 279
0.027744746 0.68800002 -0.047045439 1.4356874e-38 343 279
0.029035198 0.69 -0.047182199 1.435724e-38 344 279
0.030288832 0.69099998 -0.047250576 1.4541631e-38 345 279
0.031591557 0.69300002 -0.047387339 1.4358319e-38 346 279
0.032853961 0.69400001 -0.047455717 1.4634905e-38 347 279
0.034168959 0.69599998 -0.047592476 1.4176448e-38 348 279
0.035490975 0.69800001 -0.047729239 1.4176448e-38 349 279
0.0367148 0.69800001 -0.047729239 1.408318e-38 350 279
0.038047329 0.69999999 -0.047865998 1.3990984e-38 351 279
0.039274666 0.69999999 -0.047865998 1.3898433e-38 352 279
0.040502001 0.69999999 -0.047865998 1.4082824e-38 353 279
0.041729331 0.69999999 -0.047865998 1.3994963e-38 354 279
0.043018032 0.70099998 -0.047934376 1.427191e-38 355 279
0.044247117 0.70099998 -0.047934376 1.5571691e-38 356 279
-0.028389972 0.704 -0.049373865 1.2354214e-38 297 280
-0.027155625 0.704 -0.049373865 1.2889341e-38 298 280
-0.025884461 0.70300001 -0.049303733 1.3165928e-38 299 280
-0.024651866 0.70300001 -0.049303733 1.4634905e-38 300 280
-0.023352645 0.70099998 -0.049163464 1.4450515e-38 301 280
-0.02202888 0.69800001 -0.048953064 1.4083543e-38 302 280
-0.020805053 0.69800001 -0.048953064 1.4175738e-38 303 280
-0.019553173 0.69700003 -0.048882935 1.4084626e-38 304 280
-0.018304799 0.69599998 -0.048812799 1.4084626e-38 305 280
-0.017084479 0.69599998 -0.048812799 1.4267219e-38 306 280
-0.015864158 0.69599998 -0.048812799 1.4267219e-38 307 280
-0.01460176 0.69400001 -0.048672531 1.4357984e-38 308 280
-0.013384946 0.69400001 -0.048672531 1.4173593e-38 309 280
-0.012168133 0.69400001 -0.048672531 1.3896657e-38 310 280
-0.010935539 0.69300002 -0.048602402 1.3527873e-38 311 280
-0.0097204801 0.69300002 -0.048602402 1.325201e-38 312 280
-0.0085054198 0.69300002 -0.048602402 1.3344205e-38 313 280
-0.0072693196 0.69099998 -0.04846213 1.3252007e-38 314 280
-0.0060489997 0.69 -0.048391998 1.3436757e-38 315 280
-0.0048251734 0.68800002 -0.048251733 1.3253805e-38 316 280
-0.0036188802 0.68800002 -0.048251733 1.3438556e-38 317 280
-0.0024125867 0.68800002 -0.048251733 1.3071213e-38 318 280
-0.0012062934 0.68800002 -0.048251733 1.288682e-38 319 280
0 0.68800002 -0.048251733 1.3159458e-38 320 280
0.0012062934 0.68800002 -0.048251733 1.3159458e-38 321 280
0.0024090798 0.68699998 -0.048181597 1.2883234e-38 322 280
0.0036136196 0.68699998 -0.048181597 1.297543e-38 323 280
0.0048111463 0.68599999 -0.048111461 1.3160164e-38 324 280
0.0060139326 0.68599999 -0.048111461 1.325236e-38 325 280
0.0071956799 0.68400002 -0.0479712 1.3344906e-38 326 280
0.0083949603 0.68400002 -0.0479712 1.325271e-38 327 280
0.0095942402 0.68400002 -0.0479712 1.3620407e-38 328 280
0.01077774 0.68300003 -0.047901068 1.398883e-38 329 280
0.011975267 0.68300003 -0.047901068 1.4266477e-38 330 280
0.013172794 0.68300003 -0.047901068 1.4358672e-38 331 280
0.01439136 0.68400002 -0.0479712 1.4449436e-38 332 280
0.01559064 0.68400002 -0.0479712 1.4173209e-38 333 280
0.016789921 0.68400002 -0.0479712 1.4263255e-38 334 280
0.018068098 0.68699998 -0.048181597 1.4078864e-38 335 280
0.019272638 0.68699998 -0.048181597 1.3895546e-38 336 280
0.020477179 0.68699998 -0.048181597 1.3895546e-38 337 280
0.021681719 0.68699998 -0.048181597 1.3895546e-38 338 280
0.022886258 0.68699998 -0.048181597 1.3895546e-38 339 280
0.024090799 0.68699998 -0.048181597 1.3804069e-38 340 280
0.025295338 0.68699998 -0.048181597 1.3804069e-38 341 280
0.026499879 0.68699998 -0.048181597 1.3895915e-38 342 280
0.027704418 0.68699998 -0.048181597 1.4080307e-38 343 280
0.028951041 0.68800002 -0.048251733 1.3897364e-38 344 280
0.030288832 0.69099998 -0.04846213 1.3989559e-38 345 280
0.031500384 0.69099998 -0.04846213 1.399135e-38 346 280
0.032853961 0.69400001 -0.048672531 1.4083546e-38 347 280
0.034168959 0.69599998 -0.048812799 1.3900584e-38 348 280
0.035440128 0.69700003 -0.048882935 1.3900584e-38 349 280
0.0367148 0.69800001 -0.048953064 1.408318e-38 350 280
0.037938625 0.69800001 -0.048953064 1.389843e-38 351 280
0.039274666 0.69999999 -0.049093332 1.3715136e-38 352 280
0.040502001 0.69999999 -0.049093332 1.3899527e-38 353 280
0.041729331 0.69999999 -0.049093332 1.3716953e-38 354 280
0.043018032 0.70099998 -0.049163464 1.4085736e-38 355 280
0.04437336 0.70300001 -0.049303733 1.5293302e-38 356 280
-0.028389972 0.704 -0.050608214 1.1800672e-38 297 281
-0.027155625 0.704 -0.050608214 1.3807697e-38 298 281
-0.025884461 0.70300001 -0.050536323 1.4084644e-38 299 281
-0.024581732 0.70099998 -0.050392549 1.4450518e-38 300 281
-0.023319334 0.69999999 -0.050320663 1.4266126e-38 301 281
-0.02199732 0.69700003 -0.050105009 1.3898067e-38 302 281
-0.020775247 0.69700003 -0.050105009 1.3713674e-38 303 281
-0.019553173 0.69700003 -0.050105009 1.3254508e-38 304 281
-0.018304799 0.69599998 -0.050033119 1.3347064e-38 305 281
-0.017084479 0.69599998 -0.050033119 1.4263269e-38 306 281
-0.015818574 0.69400001 -0.049889345 1.4263269e-38 307 281
-0.01460176 0.69400001 -0.049889345 1.398776e-38 308 281
-0.013384946 0.69400001 -0.049889345 1.3803369e-38 309 281
-0.012150601 0.69300002 -0.049817458 1.3710817e-38 310 281
-0.010935539 0.69300002 -0.049817458 1.343459e-38 311 281
-0.0096924258 0.69099998 -0.049673684 1.3066529e-38 312 281
-0.0084686 0.69 -0.049601797 1.3250561e-38 313 281
-0.0072587994 0.69 -0.049601797 1.3160167e-38 314 281
-0.0060314666 0.68800002 -0.049458027 1.3160167e-38 315 281
-0.0048251734 0.68800002 -0.049458027 1.316089e-38 316 281
-0.0036188802 0.68800002 -0.049458027 1.3344921e-38 317 281
-0.0024125867 0.68800002 -0.049458027 1.3161609e-38 318 281
-0.0012062934 0.68800002 -0.049458027 1.2977218e-38 319 281
0 0.68800002 -0.049458027 1.2976499e-38 320 281
0.0012062934 0.68800002 -0.049458027 1.2792106e-38 321 281
0.0024090798 0.68699998 -0.049386136 1.2883583e-38 322 281
0.0036136196 0.68699998 -0.049386136 1.2791387e-38 323 281
0.0048111463 0.68599999 -0.049314249 1.3067246e-38 324 281
0.0059964 0.68400002 -0.049170479 1.3251997e-38 325 281
0.0071956799 0.68400002 -0.049170479 1.362077e-38 326 281
0.0083826864 0.68300003 -0.049098592 1.3067596e-38 327 281
0.0095802136 0.68300003 -0.049098592 1.3248391e-38 328 281
0.01077774 0.68300003 -0.049098592 1.306436e-38 329 281
0.011975267 0.68300003 -0.049098592 1.3069398e-38 330 281
0.013172794 0.68300003 -0.049098592 1.3438179e-38 331 281
0.014370319 0.68300003 -0.049098592 1.4263252e-38 332 281
0.01559064 0.68400002 -0.049170479 1.3986665e-38 333 281
0.016789921 0.68400002 -0.049170479 1.4169965e-38 334 281
0.018068098 0.68699998 -0.049386136 1.4077409e-38 335 281
0.019272638 0.68699998 -0.049386136 1.4077765e-38 336 281
0.020477179 0.68699998 -0.049386136 1.4169962e-38 337 281
0.021681719 0.68699998 -0.049386136 1.3711502e-38 338 281
0.022886258 0.68699998 -0.049386136 1.3711502e-38 339 281
0.024090799 0.68699998 -0.049386136 1.3527837e-38 340 281
0.025295338 0.68699998 -0.049386136 1.3527837e-38 341 281
0.026499879 0.68699998 -0.049386136 1.3711155e-38 342 281
0.027704418 0.68699998 -0.049386136 1.3895546e-38 343 281
0.028951041 0.68800002 -0.049458027 1.3803716e-38 344 281
0.030244999 0.69 -0.049601797 1.3988107e-38 345 281
0.031500384 0.69099998 -0.049673684 1.4081026e-38 346 281
0.03280662 0.69300002 -0.049817458 1.4357972e-38 347 281
0.034168959 0.69599998 -0.050033119 1.39917e-38 348 281
0.035389278 0.69599998 -0.050033119 1.39917e-38 349 281
0.0367148 0.69800001 -0.050176892 1.3807313e-38 350 281
0.037938625 0.69800001 -0.050176892 1.3715118e-38 351 281
0.039162453 0.69800001 -0.050176892 1.3714765e-38 352 281
0.040502001 0.69999999 -0.050320663 1.3807319e-38 353 281
0.041729331 0.69999999 -0.050320663 1.390168e-38 354 281
0.043018032 0.70099998 -0.050392549 1.390168e-38 355 281
0.04437336 0.70300001 -0.050536323 1.4741556e-38 356 281
0.04560595 0.70300001 -0.050536323 1.7784011e-38 357 281
-0.029624319 0.704 -0.051842559 1.4841679e-38 296 282
-0.028389972 0.704 -0.051842559 1.1246049e-38 297 282
-0.027155625 0.704 -0.051842559 1.3807331e-38 298 282
-0.025884461 0.70300001 -0.051768921 1.4084279e-38 299 282
-0.024581732 0.70099998 -0.051621638 1.4357972e-38 300 282
-0.023319334 0.69999999 -0.051547997 1.4081026e-38 301 282
-0.02199732 0.69700003 -0.051327083 1.389628e-38 302 282
-0.020775247 0.69700003 -0.051327083 1.3620054e-38 303 282
-0.019525118 0.69599998 -0.051253434 1.3252007e-38 304 282
-0.018304799 0.69599998 -0.051253434 1.3344202e-38 305 282
-0.017035386 0.69400001 -0.051106159 1.3343486e-38 306 282
-0.015818574 0.69400001 -0.051106159 1.3343486e-38 307 282
-0.01460176 0.69400001 -0.051106159 1.3252007e-38 308 282
-0.013384946 0.69400001 -0.051106159 1.297578e-38 309 282
-0.012150601 0.69300002 -0.051032521 1.2791387e-38 310 282
-0.010935539 0.69300002 -0.051032521 1.2791387e-38 311 282
-0.0096924258 0.69099998 -0.050885238 1.2698833e-38 312 282
-0.0084686 0.69 -0.050811596 1.2698833e-38 313 282
-0.0072377604 0.68800002 -0.050664321 1.2516242e-38 314 282
-0.0060314666 0.68800002 -0.050664321 1.2700635e-38 315 282
-0.0048251734 0.68800002 -0.050664321 1.242549e-38 316 282
-0.0036188802 0.68800002 -0.050664321 1.261024e-38 317 282
-0.0024125867 0.68800002 -0.050664321 1.2426209e-38 318 282
-0.0012062934 0.68800002 -0.050664321 1.2334013e-38 319 282
0 0.68800002 -0.050664321 1.279175e-38 320 282
0.0012045399 0.68699998 -0.050590675 1.2515523e-38 321 282
0.0024090798 0.68699998 -0.050590675 1.2606643e-38 322 282
0.0036136196 0.68699998 -0.050590675 1.2514089e-38 323 282
0.0047971201 0.68400002 -0.050369758 1.2330776e-38 324 282
0.0059964 0.68400002 -0.050369758 1.2699557e-38 325 282
0.0071851597 0.68300003 -0.05029612 1.3526436e-38 326 282
0.0083826864 0.68300003 -0.05029612 1.2881066e-38 327 282
0.0095802136 0.68300003 -0.05029612 1.2971108e-38 328 282
0.01077774 0.68300003 -0.05029612 1.2878911e-38 329 282
0.011975267 0.68300003 -0.05029612 1.3064744e-38 330 282
0.013172794 0.68300003 -0.05029612 1.3249135e-38 331 282
0.014370319 0.68300003 -0.05029612 1.3524984e-38 332 282
0.01559064 0.68400002 -0.050369758 1.3709377e-38 333 282
0.016789921 0.68400002 -0.050369758 1.3709355e-38 334 282
0.018041799 0.68599999 -0.050517038 1.3801551e-38 335 282
0.019244585 0.68599999 -0.050517038 1.3801901e-38 336 282
0.020447372 0.68599999 -0.050517038 1.3894097e-38 337 282
0.021650158 0.68599999 -0.050517038 1.352819e-38 338 282
0.022886258 0.68699998 -0.050590675 1.352819e-38 339 282
0.024090799 0.68699998 -0.050590675 1.3436716e-38 340 282
0.025295338 0.68699998 -0.050590675 1.3436716e-38 341 282
0.026499879 0.68699998 -0.050590675 1.352784e-38 342 282
0.027704418 0.68699998 -0.050590675 1.352784e-38 343 282
0.028951041 0.68800002 -0.050664321 1.3344543e-38 344 282
0.030244999 0.69 -0.050811596 1.362077e-38 345 282
0.031500384 0.69099998 -0.050885238 1.3712971e-38 346 282
0.03280662 0.69300002 -0.051032521 1.3989559e-38 347 282
0.034070771 0.69400001 -0.051106159 1.3714765e-38 348 282
0.035287585 0.69400001 -0.051106159 1.3807319e-38 349 282
0.036609598 0.69599998 -0.051253434 1.371512e-38 350 282
0.037884273 0.69700003 -0.051327083 1.371512e-38 351 282
0.039106347 0.69700003 -0.051327083 1.3623288e-38 352 282
0.040386278 0.69800001 -0.051400717 1.3715483e-38 353 282
0.041729331 0.69999999 -0.051547997 1.3534339e-38 354 282
0.042956665 0.69999999 -0.051547997 1.3626535e-38 355 282
0.044247117 0.70099998 -0.051621638 1.4649359e-38 356 282
0.045476202 0.70099998 -0.051621638 1.7507424e-38 357 282
-0.029624319 0.704 -0.053076904 1.3548419e-38 296 283
-0.028389972 0.704 -0.053076904 1.078255e-38 297 283
-0.027117053 0.70300001 -0.053001512 1.3715136e-38 298 283
-0.025884461 0.70300001 -0.053001512 1.3807331e-38 299 283
-0.024581732 0.70099998 -0.052850723 1.3897364e-38 300 283
-0.023319334 0.69999999 -0.052775331 1.3805168e-38 301 283
-0.02202888 0.69800001 -0.052624546 1.3620416e-38 302 283
-0.020805053 0.69800001 -0.052624546 1.3528221e-38 303 283
-0.019525118 0.69599998 -0.052473757 1.3251641e-38 304 283
-0.018304799 0.69599998 -0.052473757 1.3251641e-38 305 283
-0.017035386 0.69400001 -0.052322973 1.3159445e-38 306 283
-0.015818574 0.69400001 -0.052322973 1.3159445e-38 307 283
-0.014580719 0.69300002 -0.05224758 1.288393e-38 308 283
-0.01336566 0.69300002 -0.05224758 1.2699539e-38 309 283
-0.012150601 0.69300002 -0.05224758 1.2606988e-38 310 283
-0.01090398 0.69099998 -0.052096792 1.2514792e-38 311 283
-0.0096783992 0.69 -0.052021399 1.2515148e-38 312 283
-0.0084440531 0.68800002 -0.051870614 1.2607344e-38 313 283
-0.0072377604 0.68800002 -0.051870614 1.2148889e-38 314 283
-0.0060314666 0.68800002 -0.051870614 1.2148889e-38 315 283
-0.0048251734 0.68800002 -0.051870614 1.2148902e-38 316 283
-0.0036188802 0.68800002 -0.051870614 1.2241097e-38 317 283
-0.0024125867 0.68800002 -0.051870614 1.2241097e-38 318 283
-0.0012045399 0.68699998 -0.051795214 1.2148902e-38 319 283
0 0.68699998 -0.051795214 1.2422972e-38 320 283
0.0012045399 0.68699998 -0.051795214 1.2238581e-38 321 283
0.0024055731 0.68599999 -0.051719822 1.2328977e-38 322 283
0.00359784 0.68400002 -0.051569041 1.2236781e-38 323 283
0.0047971201 0.68400002 -0.051569041 1.2053113e-38 324 283
0.0059964 0.68400002 -0.051569041 1.1960918e-38 325 283
0.0071851597 0.68300003 -0.051493648 1.232898e-38 326 283
0.0083826864 0.68300003 -0.051493648 1.2052394e-38 327 283
0.0095802136 0.68300003 -0.051493648 1.2235341e-38 328 283
0.01077774 0.68300003 -0.051493648 1.2511926e-38 329 283
0.011975267 0.68300003 -0.051493648 1.2787431e-38 330 283
0.013172794 0.68300003 -0.051493648 1.2972183e-38 331 283
0.014370319 0.68300003 -0.051493648 1.3247322e-38 332 283
0.01559064 0.68400002 -0.051569041 1.3616103e-38 333 283
0.016789921 0.68400002 -0.051569041 1.3800829e-38 334 283
0.0179892 0.68400002 -0.051569041 1.3800829e-38 335 283
0.01918848 0.68400002 -0.051569041 1.3802255e-38 336 283
0.020447372 0.68599999 -0.051719822 1.3802255e-38 337 283
0.021650158 0.68599999 -0.051719822 1.3527112e-38 338 283
0.022886258 0.68699998 -0.051795214 1.3619308e-38 339 283
0.024090799 0.68699998 -0.051795214 1.3435996e-38 340 283
0.025295338 0.68699998 -0.051795214 1.3435996e-38 341 283
0.026499879 0.68699998 -0.051795214 1.3435996e-38 342 283
0.027744746 0.68800002 -0.051870614 1.3435996e-38 343 283
0.028951041 0.68800002 -0.051870614 1.343601e-38 344 283
0.030244999 0.69 -0.052021399 1.3528205e-38 345 283
0.031454802 0.69 -0.052021399 1.3528577e-38 346 283
0.03280662 0.69300002 -0.05224758 1.3805165e-38 347 283
0.034070771 0.69400001 -0.052322973 1.3622569e-38 348 283
0.035287585 0.69400001 -0.052322973 1.3622569e-38 349 283
0.036609598 0.69599998 -0.052473757 1.3622925e-38 350 283
0.037829921 0.69599998 -0.052473757 1.3622925e-38 351 283
0.039050236 0.69599998 -0.052473757 1.3623641e-38 352 283
0.040386278 0.69800001 -0.052624546 1.3715837e-38 353 283
0.041729331 0.69999999 -0.052775331 1.3534692e-38 354 283
0.042956665 0.69999999 -0.052775331 1.3534692e-38 355 283
0.044183996 0.69999999 -0.052775331 1.4464246e-38 356 283
0.045476202 0.70099998 -0.052850723 1.7414505e-38 357 283
-0.029582238 0.70300001 -0.054234106 1.2347715e-38 296 284
-0.028349647 0.70300001 -0.054234106 1.0411607e-38 297 284
-0.027117053 0.70300001 -0.054234106 1.2701707e-38 298 284
-0.025884461 0.70300001 -0.054234106 1.2978294e-38 299 284
-0.024581732 0.70099998 -0.054079808 1.3528221e-38 300 284
-0.023319334 0.69999999 -0.054002665 1.334419e-38 301 284
-0.02199732 0.69700003 -0.053771228 1.3344187e-38 302 284
-0.020775247 0.69700003 -0.053771228 1.3251991e-38 303 284
-0.019525118 0.69599998 -0.053694077 1.297613e-38 304 284
-0.018304799 0.69599998 -0.053694077 1.2883933e-38 305 284
-0.017035386 0.69400001 -0.053539783 1.2791384e-38 306 284
-0.015795778 0.69300002 -0.053462639 1.2791384e-38 307 284
-0.014580719 0.69300002 -0.053462639 1.2515871e-38 308 284
-0.01336566 0.69300002 -0.053462639 1.233148e-38 309 284
-0.012150601 0.69300002 -0.053462639 1.2239284e-38 310 284
-0.01090398 0.69099998 -0.053308345 1.2147087e-38 311 284
-0.0096783992 0.69 -0.053231198 1.2056691e-38 312 284
-0.0084440531 0.68800002 -0.053076908 1.2056691e-38 313 284
-0.0072377604 0.68800002 -0.053076908 1.1781549e-38 314 284
-0.0060314666 0.68800002 -0.053076908 1.1781549e-38 315 284
-0.0048251734 0.68800002 -0.053076908 1.1597527e-38 316 284
-0.0036188802 0.68800002 -0.053076908 1.1597527e-38 317 284
-0.0024125867 0.68800002 -0.053076908 1.1872319e-38 318 284
-0.0012045399 0.68699998 -0.052999757 1.1687928e-38 319 284
0 0.68699998 -0.052999757 1.1870157e-38 320 284
0.0012027866 0.68599999 -0.05292261 1.1870157e-38 321 284
0.0024055731 0.68599999 -0.05292261 1.1868719e-38 322 284
0.00359784 0.68400002 -0.05276832 1.1868719e-38 323 284
0.0047901068 0.68300003 -0.052691177 1.1593214e-38 324 284
0.0059876335 0.68300003 -0.052691177 1.1593214e-38 325 284
0.0071851597 0.68300003 -0.052691177 1.1775807e-38 326 284
0.0083826864 0.68300003 -0.052691177 1.1775807e-38 327 284
0.0095802136 0.68300003 -0.052691177 1.1776161e-38 328 284
0.01077774 0.68300003 -0.052691177 1.1868356e-38 329 284
0.011975267 0.68300003 -0.052691177 1.2236416e-38 330 284
0.013172794 0.68300003 -0.052691177 1.2328611e-38 331 284
0.014370319 0.68300003 -0.052691177 1.287997e-38 332 284
0.015567848 0.68300003 -0.052691177 1.3248394e-38 333 284
0.016789921 0.68400002 -0.05276832 1.3433123e-38 334 284
0.0179892 0.68400002 -0.05276832 1.3617154e-38 335 284
0.01918848 0.68400002 -0.05276832 1.3617507e-38 336 284
0.020447372 0.68599999 -0.05292261 1.3617507e-38 337 284
0.021650158 0.68599999 -0.05292261 1.325053e-38 338 284
0.022886258 0.68699998 -0.052999757 1.325053e-38 339 284
0.024090799 0.68699998 -0.052999757 1.3250177e-38 340 284
0.025295338 0.68699998 -0.052999757 1.3434208e-38 341 284
0.026499879 0.68699998 -0.052999757 1.3251251e-38 342 284
0.027704418 0.68699998 -0.052999757 1.3343447e-38 343 284
0.028908957 0.68699998 -0.052999757 1.3251261e-38 344 284
0.030157333 0.68800002 -0.053076908 1.3343458e-38 345 284
0.031363625 0.68800002 -0.053076908 1.3251991e-38 346 284
0.03280662 0.69300002 -0.053462639 1.3528577e-38 347 284
0.034070771 0.69400001 -0.053539783 1.3161594e-38 348 284
0.035287585 0.69400001 -0.053539783 1.3345625e-38 349 284
0.036609598 0.69599998 -0.053694077 1.3437457e-38 350 284
0.037829921 0.69599998 -0.053694077 1.3529653e-38 351 284
0.039050236 0.69599998 -0.053694077 1.3622922e-38 352 284
0.040328421 0.69700003 -0.053771228 1.3715118e-38 353 284
0.041610107 0.69800001 -0.053848371 1.3350299e-38 354 284
0.042833932 0.69800001 -0.053848371 1.3350299e-38 355 284
0.044183996 0.69999999 -0.054002665 1.4004343e-38 356 284
0.04541133 0.69999999 -0.054002665 1.723119e-38 357 284
0.046638668 0.69999999 -0.054002665 1.8437331e-38 358 284
-0.029582238 0.70300001 -0.0554667 1.1698746e-38 296 285
-0.028349647 0.70300001 -0.0554667 1.0592398e-38 297 285
-0.027117053 0.70300001 -0.0554667 1.1872319e-38 298 285
-0.025810819 0.70099998 -0.055308893 1.2148905e-38 299 285
-0.024581732 0.70099998 -0.055308893 1.2608442e-38 300 285
-0.023319334 0.69999999 -0.055229999 1.2515886e-38 301 285
-0.02199732 0.69700003 -0.054993302 1.288358e-38 302 285
-0.020775247 0.69700003 -0.054993302 1.288358e-38 303 285
-0.019525118 0.69599998 -0.054914396 1.2792106e-38 304 285
-0.0182522 0.69400001 -0.054756597 1.2699552e-38 305 285
-0.017035386 0.69400001 -0.054756597 1.2516595e-38 306 285
-0.015795778 0.69300002 -0.054677699 1.24244e-38 307 285
-0.014580719 0.69300002 -0.054677699 1.2424031e-38 308 285
-0.01336566 0.69300002 -0.054677699 1.2331836e-38 309 285
-0.012115533 0.69099998 -0.054519895 1.2239284e-38 310 285
-0.01090398 0.69099998 -0.054519895 1.2239284e-38 311 285
-0.0096783992 0.69 -0.054440998 1.1964495e-38 312 285
-0.0084440531 0.68800002 -0.054283202 1.2148886e-38 313 285
-0.0072377604 0.68800002 -0.054283202 1.2056691e-38 314 285
-0.0060314666 0.68800002 -0.054283202 1.2056691e-38 315 285
-0.0048251734 0.68800002 -0.054283202 1.1689e-38 316 285
-0.0036188802 0.68800002 -0.054283202 1.1504969e-38 317 285
-0.0024090798 0.68699998 -0.054204296 1.1504616e-38 318 285
-0.0012045399 0.68699998 -0.054204296 1.1319864e-38 319 285
0 0.68599999 -0.054125395 1.1685407e-38 320 285
0.0012027866 0.68599999 -0.054125395 1.1685407e-38 321 285
0.0023985601 0.68400002 -0.053967599 1.1868353e-38 322 285
0.0035925799 0.68300003 -0.053888701 1.1868353e-38 323 285
0.0047901068 0.68300003 -0.053888701 1.1775805e-38 324 285
0.0059876335 0.68300003 -0.053888701 1.1591412e-38 325 285
0.0071851597 0.68300003 -0.053888701 1.1132239e-38 326 285
0.0083826864 0.68300003 -0.053888701 1.1132239e-38 327 285
0.0095802136 0.68300003 -0.053888701 1.0949287e-38 328 285
0.01077774 0.68300003 -0.053888701 1.1041841e-38 329 285
0.011975267 0.68300003 -0.053888701 1.1592495e-38 330 285
0.013172794 0.68300003 -0.053888701 1.1776526e-38 331 285
0.014370319 0.68300003 -0.053888701 1.2053101e-38 332 285
0.015567848 0.68300003 -0.053888701 1.2514079e-38 333 285
0.016789921 0.68400002 -0.053967599 1.288212e-38 334 285
0.0179892 0.68400002 -0.053967599 1.3066151e-38 335 285
0.01918848 0.68400002 -0.053967599 1.3249095e-38 336 285
0.020387759 0.68400002 -0.053967599 1.3249095e-38 337 285
0.021650158 0.68599999 -0.054125395 1.3064711e-38 338 285
0.022886258 0.68699998 -0.054204296 1.3064711e-38 339 285
0.024090799 0.68699998 -0.054204296 1.3066151e-38 340 285
0.025295338 0.68699998 -0.054204296 1.3066151e-38 341 285
0.026499879 0.68699998 -0.054204296 1.3158703e-38 342 285
0.027704418 0.68699998 -0.054204296 1.3250898e-38 343 285
0.028908957 0.68699998 -0.054204296 1.2975753e-38 344 285
0.030157333 0.68800002 -0.054283202 1.2975753e-38 345 285
0.031363625 0.68800002 -0.054283202 1.288393e-38 346 285
0.03280662 0.69300002 -0.054677699 1.2976486e-38 347 285
0.034070771 0.69400001 -0.054756597 1.2976496e-38 348 285
0.035287585 0.69400001 -0.054756597 1.2976496e-38 349 285
0.036504399 0.69400001 -0.054756597 1.3252713e-38 350 285
0.037829921 0.69599998 -0.054914396 1.3344909e-38 351 285
0.039050236 0.69599998 -0.054914396 1.3254864e-38 352 285
0.040270556 0.69599998 -0.054914396 1.3439257e-38 353 285
0.041610107 0.69800001 -0.0550722 1.3257745e-38 354 285
0.042833932 0.69800001 -0.0550722 1.3257745e-38 355 285
0.044183996 0.69999999 -0.055229999 1.4095094e-38 356 285
0.04541133 0.69999999 -0.055229999 1.7690363e-38 357 285
0.046638668 0.69999999 -0.055229999 1.862064e-38 358 285
-0.029582238 0.70300001 -0.056699295 1.1145572e-38 296 286
-0.028349647 0.70300001 -0.056699295 1.0500203e-38 297 286
-0.027117053 0.70300001 -0.056699295 1.1962717e-38 298 286
-0.025810819 0.70099998 -0.056537982 1.1962717e-38 299 286
-0.024581732 0.70099998 -0.056537982 1.1963073e-38 300 286
-0.023252707 0.69800001 -0.056296028 1.2055268e-38 301 286
-0.02199732 0.69700003 -0.056215372 1.2514079e-38 302 286
-0.020775247 0.69700003 -0.056215372 1.269847e-38 303 286
-0.019525118 0.69599998 -0.056134716 1.2607344e-38 304 286
-0.0182522 0.69400001 -0.055973411 1.2607344e-38 305 286
-0.017035386 0.69400001 -0.055973411 1.2332555e-38 306 286
-0.015795778 0.69300002 -0.055892758 1.2332555e-38 307 286
-0.014580719 0.69300002 -0.055892758 1.2424031e-38 308 286
-0.013327086 0.69099998 -0.055731449 1.2424031e-38 309 286
-0.012115533 0.69099998 -0.055731449 1.2331836e-38 310 286
-0.010888199 0.69 -0.055650797 1.2331836e-38 311 286
-0.0096783992 0.69 -0.055650797 1.1965574e-38 312 286
-0.0084440531 0.68800002 -0.055489492 1.2149605e-38 313 286
-0.0072377604 0.68800002 -0.055489492 1.1782625e-38 314 286
-0.0060314666 0.68800002 -0.055489492 1.1690429e-38 315 286
-0.0048251734 0.68800002 -0.055489492 1.1414565e-38 316 286
-0.0036136196 0.68699998 -0.055408835 1.1137977e-38 317 286
-0.0024090798 0.68699998 -0.055408835 1.1137258e-38 318 286
-0.0012045399 0.68699998 -0.055408835 1.0860313e-38 319 286
0 0.68599999 -0.055328183 1.1501365e-38 320 286
0.0012027866 0.68599999 -0.055328183 1.1501365e-38 321 286
0.0023985601 0.68400002 -0.055166878 1.2052022e-38 322 286
0.0035925799 0.68300003 -0.055086225 1.1959825e-38 323 286
0.0047901068 0.68300003 -0.055086225 1.1591765e-38 324 286
0.0059876335 0.68300003 -0.055086225 1.1407734e-38 325 286
0.0071851597 0.68300003 -0.055086225 1.0948558e-38 326 286
0.0083826864 0.68300003 -0.055086225 1.0948558e-38 327 286
0.0095802136 0.68300003 -0.055086225 1.0765246e-38 328 286
0.01077774 0.68300003 -0.055086225 1.0765246e-38 329 286
0.011975267 0.68300003 -0.055086225 1.1406299e-38 330 286
0.013172794 0.68300003 -0.055086225 1.159069e-38 331 286
0.014370319 0.68300003 -0.055086225 1.2234967e-38 332 286
0.015567848 0.68300003 -0.055086225 1.2511555e-38 333 286
0.016765373 0.68300003 -0.055086225 1.3062911e-38 334 286
0.0179892 0.68400002 -0.055166878 1.3062911e-38 335 286
0.01918848 0.68400002 -0.055166878 1.3246226e-38 336 286
0.020387759 0.68400002 -0.055166878 1.3338422e-38 337 286
0.021650158 0.68599999 -0.055328183 1.3063633e-38 338 286
0.022886258 0.68699998 -0.055408835 1.3155829e-38 339 286
0.024090799 0.68699998 -0.055408835 1.3065783e-38 340 286
0.025295338 0.68699998 -0.055408835 1.3065783e-38 341 286
0.026499879 0.68699998 -0.055408835 1.3066501e-38 342 286
0.027704418 0.68699998 -0.055408835 1.3158697e-38 343 286
0.028908957 0.68699998 -0.055408835 1.2975032e-38 344 286
0.030157333 0.68800002 -0.055489492 1.2975032e-38 345 286
0.031454802 0.69 -0.055650797 1.2975037e-38 346 286
0.032711938 0.69099998 -0.055731449 1.3067233e-38 347 286
0.034021679 0.69300002 -0.055892758 1.2975403e-38 348 286
0.035236739 0.69300002 -0.055892758 1.3159796e-38 349 286
0.036504399 0.69400001 -0.055973411 1.3160868e-38 350 286
0.037721213 0.69400001 -0.055973411 1.3253063e-38 351 286
0.039050236 0.69599998 -0.056134716 1.3255211e-38 352 286
0.040270556 0.69599998 -0.056134716 1.3347407e-38 353 286
0.041490879 0.69599998 -0.056134716 1.335065e-38 354 286
0.042833932 0.69800001 -0.056296028 1.3258454e-38 355 286
0.04405776 0.69800001 -0.056296028 1.4647549e-38 356 286
0.04541133 0.69999999 -0.056457333 1.7874396e-38 357 286
0.046638668 0.69999999 -0.056457333 1.871212e-38 358 286
-0.029582238 0.70300001 -0.057931885 1.1144123e-38 296 287
-0.028349647 0.70300001 -0.057931885 1.0775701e-38 297 287
-0.027117053 0.70300001 -0.057931885 1.2516961e-38 298 287
-0.025810819 0.70099998 -0.057767071 1.1963789e-38 299 287
-0.024546666 0.69999999 -0.05768466 1.1412419e-38 300 287
-0.023252707 0.69800001 -0.057519849 1.1319864e-38 301 287
-0.02199732 0.69700003 -0.05743745 1.1503535e-38 302 287
-0.020775247 0.69700003 -0.05743745 1.1687928e-38 303 287
-0.019525118 0.69599998 -0.057355035 1.2055619e-38 304 287
-0.0182522 0.69400001 -0.057190225 1.2147814e-38 305 287
-0.017035386 0.69400001 -0.057190225 1.2148167e-38 306 287
-0.015795778 0.69300002 -0.057107817 1.2332199e-38 307 287
-0.014580719 0.69300002 -0.057107817 1.2332552e-38 308 287
-0.013327086 0.69099998 -0.056942999 1.2332552e-38 309 287
-0.012115533 0.69099998 -0.056942999 1.2148165e-38 310 287
-0.010888199 0.69 -0.0568606 1.2148165e-38 311 287
-0.0096503468 0.68800002 -0.056695789 1.2147814e-38 312 287
-0.0084440531 0.68800002 -0.056695789 1.2147814e-38 313 287
-0.0072377604 0.68800002 -0.056695789 1.1872669e-38 314 287
-0.0060314666 0.68800002 -0.056695789 1.1872669e-38 315 287
-0.0048181596 0.68699998 -0.056613375 1.1505682e-38 316 287
-0.0036136196 0.68699998 -0.056613375 1.1321289e-38 317 287
-0.0024090798 0.68699998 -0.056613375 1.0952511e-38 318 287
-0.0012027866 0.68599999 -0.056530971 1.076812e-38 319 287
0 0.68599999 -0.056530971 1.1042188e-38 320 287
0.0012027866 0.68599999 -0.056530971 1.1042188e-38 321 287
0.0023985601 0.68400002 -0.056366164 1.1683605e-38 322 287
0.0035925799 0.68300003 -0.056283753 1.1683605e-38 323 287
0.0047901068 0.68300003 -0.056283753 1.1407734e-38 324 287
0.0059876335 0.68300003 -0.056283753 1.131518e-38 325 287
0.0071851597 0.68300003 -0.056283753 1.0674482e-38 326 287
0.0083826864 0.68300003 -0.056283753 1.0674482e-38 327 287
0.0095802136 0.68300003 -0.056283753 1.0948914e-38 328 287
0.01077774 0.68300003 -0.056283753 1.0948914e-38 329 287
0.011975267 0.68300003 -0.056283753 1.0672697e-38 330 287
0.013172794 0.68300003 -0.056283753 1.0764893e-38 331 287
0.014370319 0.68300003 -0.056283753 1.1040406e-38 332 287
0.015567848 0.68300003 -0.056283753 1.1224797e-38 333 287
0.016765373 0.68300003 -0.056283753 1.1959117e-38 334 287
0.0179892 0.68400002 -0.056366164 1.2143867e-38 335 287
0.01918848 0.68400002 -0.056366164 1.2511558e-38 336 287
0.020387759 0.68400002 -0.056366164 1.2603753e-38 337 287
0.02158704 0.68400002 -0.056366164 1.2605179e-38 338 287
0.022852944 0.68599999 -0.056530971 1.2789571e-38 339 287
0.024055731 0.68599999 -0.056530971 1.2698089e-38 340 287
0.025295338 0.68699998 -0.056613375 1.2790643e-38 341 287
0.026499879 0.68699998 -0.056613375 1.2606975e-38 342 287
0.027704418 0.68699998 -0.056613375 1.2699171e-38 343 287
0.028908957 0.68699998 -0.056613375 1.2606622e-38 344 287
0.030157333 0.68800002 -0.056695789 1.2698818e-38 345 287
0.031363625 0.68800002 -0.056695789 1.2607344e-38 346 287
0.032711938 0.69099998 -0.056942999 1.2699539e-38 347 287
0.034021679 0.69300002 -0.057107817 1.2700258e-38 348 287
0.035236739 0.69300002 -0.057107817 1.2792454e-38 349 287
0.036504399 0.69400001 -0.057190225 1.2794243e-38 350 287
0.037721213 0.69400001 -0.057190225 1.307047e-38 351 287
0.038938027 0.69400001 -0.057190225 1.2980072e-38 352 287
0.040154841 0.69400001 -0.057190225 1.325666e-38 353 287
0.041371655 0.69400001 -0.057190225 1.2707821e-38 354 287
0.042772565 0.69700003 -0.05743745 1.2800018e-38 355 287
0.04405776 0.69800001 -0.057519849 1.4371697e-38 356 287
0.045281585 0.69800001 -0.057519849 1.7506347e-38 357 287
0.046505414 0.69800001 -0.057519849 1.8436256e-38 358 287
-0.029582238 0.70300001 -0.059164476 1.0867896e-38 296 288
-0.028349647 0.70300001 -0.059164476 1.0775701e-38 297 288
-0.027117053 0.70300001 -0.059164476 1.2149978e-38 298 288
-0.025810819 0.70099998 -0.058996156 1.1781195e-38 299 288
-0.024546666 0.69999999 -0.058911994 1.1686479e-38 300 288
-0.023252707 0.69800001 -0.058743682 1.1502448e-38 301 288
-0.02199732 0.69700003 -0.05865952 1.1410252e-38 302 288
-0.020775247 0.69700003 -0.05865952 1.1686479e-38 303 288
-0.019525118 0.69599998 -0.058575355 1.2054173e-38 304 288
-0.0182522 0.69400001 -0.058407038 1.2238564e-38 305 288
-0.017035386 0.69400001 -0.058407038 1.2239637e-38 306 288
-0.015795778 0.69300002 -0.058322877 1.2331833e-38 307 288
-0.014580719 0.69300002 -0.058322877 1.2148874e-38 308 288
-0.013327086 0.69099998 -0.058154557 1.2148874e-38 309 288
-0.012115533 0.69099998 -0.058154557 1.2056325e-38 310 288
-0.010888199 0.69 -0.058070395 1.1963769e-38 311 288
-0.0096503468 0.68800002 -0.057902083 1.2146015e-38 312 288
-0.0084440531 0.68800002 -0.057902083 1.2146015e-38 313 288
-0.0072377604 0.68800002 -0.057902083 1.1687558e-38 314 288
-0.0060226996 0.68699998 -0.057817914 1.1687558e-38 315 288
-0.0048181596 0.68699998 -0.057817914 1.1503885e-38 316 288
-0.0036136196 0.68699998 -0.057817914 1.12273e-38 317 288
-0.0024090798 0.68699998 -0.057817914 1.0859948e-38 318 288
-0.0012027866 0.68599999 -0.057733759 1.0675198e-38 319 288
0 0.68599999 -0.057733759 1.1132939e-38 320 288
0.0012027866 0.68599999 -0.057733759 1.1132939e-38 321 288
0.0023985601 0.68400002 -0.057565439 1.1591046e-38 322 288
0.0035925799 0.68300003 -0.057481278 1.1498851e-38 323 288
0.0047901068 0.68300003 -0.057481278 1.1223703e-38 324 288
0.0059876335 0.68300003 -0.057481278 1.1223703e-38 325 288
0.0071851597 0.68300003 -0.057481278 1.0674479e-38 326 288
0.0083826864 0.68300003 -0.057481278 1.0674479e-38 327 288
0.0095802136 0.68300003 -0.057481278 1.1041107e-38 328 288
0.01077774 0.68300003 -0.057481278 1.1041107e-38 329 288
0.011975267 0.68300003 -0.057481278 1.067305e-38 330 288
0.013172794 0.68300003 -0.057481278 1.0580854e-38 331 288
0.014370319 0.68300003 -0.057481278 1.1130791e-38 332 288
0.015567848 0.68300003 -0.057481278 1.1222987e-38 333 288
0.016765373 0.68300003 -0.057481278 1.1865832e-38 334 288
0.0179892 0.68400002 -0.057565439 1.2234614e-38 335 288
0.019160427 0.68300003 -0.057481278 1.2144205e-38 336 288
0.020357953 0.68300003 -0.057481278 1.2420431e-38 337 288
0.02158704 0.68400002 -0.057565439 1.251298e-38 338 288
0.022786319 0.68400002 -0.057565439 1.2605176e-38 339 288
0.024055731 0.68599999 -0.057733759 1.2605892e-38 340 288
0.025295338 0.68699998 -0.057817914 1.2421861e-38 341 288
0.026499879 0.68699998 -0.057817914 1.2605895e-38 342 288
0.027704418 0.68699998 -0.057817914 1.2605895e-38 343 288
0.028908957 0.68699998 -0.057817914 1.2697018e-38 344 288
0.030157333 0.68800002 -0.057902083 1.2789574e-38 345 288
0.031363625 0.68800002 -0.057902083 1.2697739e-38 346 288
0.032711938 0.69099998 -0.058154557 1.2789934e-38 347 288
0.033923492 0.69099998 -0.058154557 1.269989e-38 348 288
0.035236739 0.69300002 -0.058322877 1.288464e-38 349 288
0.036451802 0.69300002 -0.058322877 1.2702045e-38 350 288
0.037721213 0.69400001 -0.058407038 1.2978271e-38 351 288
0.038938027 0.69400001 -0.058407038 1.2980072e-38 352 288
0.040154841 0.69400001 -0.058407038 1.3164465e-38 353 288
0.041371655 0.69400001 -0.058407038 1.2891486e-38 354 288
0.042772565 0.69700003 -0.05865952 1.2799291e-38 355 288
0.043994639 0.69700003 -0.05865952 1.4279858e-38 356 288
0.045281585 0.69800001 -0.058743682 1.7506703e-38 357 288
-0.029582238 0.70300001 -0.06039707 1.0683149e-38 296 289
-0.028349647 0.70300001 -0.06039707 1.0590954e-38 297 289
-0.027117053 0.70300001 -0.06039707 1.2057785e-38 298 289
-0.025810819 0.70099998 -0.060225245 1.1688644e-38 299 289
-0.024546666 0.69999999 -0.060139328 1.1502816e-38 300 289
-0.023252707 0.69800001 -0.059967503 1.1225871e-38 301 289
-0.02202888 0.69800001 -0.059967503 1.1042561e-38 302 289
-0.020775247 0.69700003 -0.05988159 1.1042561e-38 303 289
-0.019525118 0.69599998 -0.059795678 1.1502092e-38 304 289
-0.0182522 0.69400001 -0.059623852 1.1870873e-38 305 289
-0.01701084 0.69300002 -0.05953794 1.2239281e-38 306 289
-0.015795778 0.69300002 -0.05953794 1.2239281e-38 307 289
-0.014538639 0.69099998 -0.059366114 1.1963769e-38 308 289
-0.013327086 0.69099998 -0.059366114 1.1963769e-38 309 289
-0.012097999 0.69 -0.059280202 1.187122e-38 310 289
-0.010888199 0.69 -0.059280202 1.1779025e-38 311 289
-0.0096503468 0.68800002 -0.059108373 1.168576e-38 312 289
-0.0084440531 0.68800002 -0.059108373 1.1593564e-38 313 289
-0.0072377604 0.68800002 -0.059108373 1.1502092e-38 314 289
-0.0060226996 0.68699998 -0.059022456 1.1409896e-38 315 289
-0.0048181596 0.68699998 -0.059022456 1.1410252e-38 316 289
-0.0036136196 0.68699998 -0.059022456 1.1317698e-38 317 289
-0.0024090798 0.68699998 -0.059022456 1.1042542e-38 318 289
-0.0012027866 0.68599999 -0.058936544 1.0950346e-38 319 289
0 0.68599999 -0.058936544 1.0948911e-38 320 289
0.00119928 0.68400002 -0.058764715 1.076488e-38 321 289
0.0023985601 0.68400002 -0.058764715 1.113151e-38 322 289
0.00359784 0.68400002 -0.058764715 1.113151e-38 323 289
0.0047971201 0.68400002 -0.058764715 1.0948911e-38 324 289
0.0059876335 0.68300003 -0.05867881 1.1041107e-38 325 289
0.0071851597 0.68300003 -0.05867881 1.085815e-38 326 289
0.0083826864 0.68300003 -0.05867881 1.085815e-38 327 289
0.0095802136 0.68300003 -0.05867881 1.0948911e-38 328 289
0.01077774 0.68300003 -0.05867881 1.0948911e-38 329 289
0.011975267 0.68300003 -0.05867881 1.0948195e-38 330 289
0.013172794 0.68300003 -0.05867881 1.0948195e-38 331 289
0.014370319 0.68300003 -0.05867881 1.113151e-38 332 289
0.015567848 0.68300003 -0.05867881 1.1223706e-38 333 289
0.016765373 0.68300003 -0.05867881 1.1225138e-38 334 289
0.017962901 0.68300003 -0.05867881 1.1409169e-38 335 289
0.019160427 0.68300003 -0.05867881 1.1500996e-38 336 289
0.020357953 0.68300003 -0.05867881 1.1593192e-38 337 289
0.02158704 0.68400002 -0.058764715 1.1961252e-38 338 289
0.022786319 0.68400002 -0.058764715 1.2053448e-38 339 289
0.024055731 0.68599999 -0.058936544 1.2421508e-38 340 289
0.025295338 0.68699998 -0.059022456 1.2421508e-38 341 289
0.026499879 0.68699998 -0.059022456 1.242151e-38 342 289
0.027744746 0.68800002 -0.059108373 1.242151e-38 343 289
0.028951041 0.68800002 -0.059108373 1.2421513e-38 344 289
0.030157333 0.68800002 -0.059108373 1.2605544e-38 345 289
0.031454802 0.69 -0.059280202 1.2422949e-38 346 289
0.032664597 0.69 -0.059280202 1.2515145e-38 347 289
0.033923492 0.69099998 -0.059366114 1.2699892e-38 348 289
0.035236739 0.69300002 -0.05953794 1.2792088e-38 349 289
0.036451802 0.69300002 -0.05953794 1.2701692e-38 350 289
0.037721213 0.69400001 -0.059623852 1.2977918e-38 351 289
0.038938027 0.69400001 -0.059623852 1.2703855e-38 352 289
0.040154841 0.69400001 -0.059623852 1.3164833e-38 353 289
0.041371655 0.69400001 -0.059623852 1.2800021e-38 354 289
0.042772565 0.69700003 -0.05988159 1.2707824e-38 355 289
0.043994639 0.69700003 -0.05988159 1.4462814e-38 356 289
0.045216713 0.69700003 -0.05988159 1.7874411e-38 357 289
-0.029624319 0.704 -0.061717331 1.0866464e-38 296 290
-0.028349647 0.70300001 -0.061629668 1.031329e-38 297 290
-0.027117053 0.70300001 -0.061629668 1.1965234e-38 298 290
-0.025884461 0.70300001 -0.061629668 1.1688647e-38 299 290
-0.024581732 0.70099998 -0.06145433 1.1319145e-38 300 290
-0.023252707 0.69800001 -0.061191335 1.1042558e-38 301 290
-0.02199732 0.69700003 -0.061103668 1.0950005e-38 302 290
-0.020775247 0.69700003 -0.061103668 1.0950005e-38 303 290
-0.019525118 0.69599998 -0.061015997 1.1318422e-38 304 290
-0.0182522 0.69400001 -0.060840666 1.1502813e-38 305 290
-0.01701084 0.69300002 -0.060752999 1.1871226e-38 306 290
-0.015795778 0.69300002 -0.060752999 1.1871226e-38 307 290
-0.014538639 0.69099998 -0.060577665 1.1686832e-38 308 290
-0.013327086 0.69099998 -0.060577665 1.1686832e-38 309 290
-0.012097999 0.69 -0.060489997 1.1502448e-38 310 290
-0.010888199 0.69 -0.060489997 1.1410252e-38 311 290
-0.0096503468 0.68800002 -0.060314666 1.1501369e-38 312 290
-0.0084440531 0.68800002 -0.060314666 1.1224782e-38 313 290
-0.0072272392 0.68699998 -0.060226995 1.1133308e-38 314 290
-0.0060226996 0.68699998 -0.060226995 1.1133308e-38 315 290
-0.0048181596 0.68699998 -0.060226995 1.1225504e-38 316 290
-0.0036136196 0.68699998 -0.060226995 1.1225504e-38 317 290
-0.0024090798 0.68699998 -0.060226995 1.094999e-38 318 290
-0.0012027866 0.68599999 -0.060139328 1.0765599e-38 319 290
0 0.68400002 -0.059964001 1.0948192e-38 320 290
0.00119928 0.68400002 -0.059964001 1.0763799e-38 321 290
0.0023985601 0.68400002 -0.059964001 1.0763802e-38 322 290
0.0035925799 0.68300003 -0.059876334 1.0855999e-38 323 290
0.0047901068 0.68300003 -0.059876334 1.0397895e-38 324 290
0.0059876335 0.68300003 -0.059876334 1.0490091e-38 325 290
0.0071851597 0.68300003 -0.059876334 1.0490091e-38 326 290
0.0083826864 0.68300003 -0.059876334 1.0490091e-38 327 290
0.0095802136 0.68300003 -0.059876334 1.0397186e-38 328 290
0.01077774 0.68300003 -0.059876334 1.0397186e-38 329 290
0.011975267 0.68300003 -0.059876334 1.0489385e-38 330 290
0.013172794 0.68300003 -0.059876334 1.0489385e-38 331 290
0.014370319 0.68300003 -0.059876334 1.0765602e-38 332 290
0.015567848 0.68300003 -0.059876334 1.0857797e-38 333 290
0.016765373 0.68300003 -0.059876334 1.1225491e-38 334 290
0.017962901 0.68300003 -0.059876334 1.1132937e-38 335 290
0.019160427 0.68300003 -0.059876334 1.1224053e-38 336 290
0.020357953 0.68300003 -0.059876334 1.1316608e-38 337 290
0.02158704 0.68400002 -0.059964001 1.1776509e-38 338 290
0.022786319 0.68400002 -0.059964001 1.1868707e-38 339 290
0.024055731 0.68599999 -0.060139328 1.1961977e-38 340 290
0.025295338 0.68699998 -0.060226995 1.1961977e-38 341 290
0.026499879 0.68699998 -0.060226995 1.2236766e-38 342 290
0.027744746 0.68800002 -0.060314666 1.2421157e-38 343 290
0.028951041 0.68800002 -0.060314666 1.2329678e-38 344 290
0.030157333 0.68800002 -0.060314666 1.2422232e-38 345 290
0.031454802 0.69 -0.060489997 1.2422226e-38 346 290
0.032664597 0.69 -0.060489997 1.2514782e-38 347 290
0.033923492 0.69099998 -0.060577665 1.2607694e-38 348 290
0.035236739 0.69300002 -0.060752999 1.2792085e-38 349 290
0.036451802 0.69300002 -0.060752999 1.2518018e-38 350 290
0.037721213 0.69400001 -0.060840666 1.2794606e-38 351 290
0.038938027 0.69400001 -0.060840666 1.2429432e-38 352 290
0.040270556 0.69599998 -0.061015997 1.2798575e-38 353 290
0.041490879 0.69599998 -0.061015997 1.2800742e-38 354 290
0.042772565 0.69700003 -0.061103668 1.2708188e-38 355 290
0.043994639 0.69700003 -0.061103668 1.4739757e-38 356 290
0.045216713 0.69700003 -0.061103668 1.8519778e-38 357 290
-0.029624319 0.704 -0.062951677 1.1418918e-38 296 291
-0.028349647 0.70300001 -0.062862262 1.0496963e-38 297 291
-0.027117053 0.70300001 -0.062862262 1.1965958e-38 298 291
-0.025884461 0.70300001 -0.062862262 1.1689373e-38 299 291
-0.024581732 0.70099998 -0.062683418 1.1320589e-38 300 291
-0.023252707 0.69800001 -0.062415157 1.0951808e-38 301 291
-0.02199732 0.69700003 -0.062325738 1.0857813e-38 302 291
-0.020775247 0.69700003 -0.062325738 1.0857813e-38 303 291
-0.019525118 0.69599998 -0.062236317 1.1226227e-38 304 291
-0.0182522 0.69400001 -0.06205748 1.1318422e-38 305 291
-0.017035386 0.69400001 -0.06205748 1.168576e-38 306 291
-0.015795778 0.69300002 -0.061968062 1.1593564e-38 307 291
-0.014538639 0.69099998 -0.061789215 1.1501013e-38 308 291
-0.013327086 0.69099998 -0.061789215 1.1408816e-38 309 291
-0.012097999 0.69 -0.061699796 1.1225506e-38 310 291
-0.010888199 0.69 -0.061699796 1.1132952e-38 311 291
-0.0096503468 0.68800002 -0.06152096 1.0948914e-38 312 291
-0.0084440531 0.68800002 -0.06152096 1.0948914e-38 313 291
-0.0072272392 0.68699998 -0.061431535 1.0948192e-38 314 291
-0.0060226996 0.68699998 -0.061431535 1.0948192e-38 315 291
-0.0048181596 0.68699998 -0.061431535 1.0948914e-38 316 291
-0.0036136196 0.68699998 -0.061431535 1.1041109e-38 317 291
-0.0024055731 0.68599999 -0.061342116 1.1041107e-38 318 291
-0.0012027866 0.68599999 -0.061342116 1.076488e-38 319 291
0 0.68400002 -0.061163284 1.0855273e-38 320 291
0.00119928 0.68400002 -0.061163284 1.0763078e-38 321 291
0.0023985601 0.68400002 -0.061163284 1.0212791e-38 322 291
0.0035925799 0.68300003 -0.061073858 1.0212791e-38 323 291
0.0047901068 0.68300003 -0.061073858 1.0304989e-38 324 291
0.0059876335 0.68300003 -0.061073858 1.0304989e-38 325 291
0.0071851597 0.68300003 -0.061073858 1.0396469e-38 326 291
0.0083826864 0.68300003 -0.061073858 1.0304273e-38 327 291
0.0095802136 0.68300003 -0.061073858 9.9369325e-39 328 291
0.01077774 0.68300003 -0.061073858 1.0029128e-38 329 291
0.011975267 0.68300003 -0.061073858 1.0396472e-38 330 291
0.01319208 0.68400002 -0.061163284 1.06727e-38 331 291
0.014370319 0.68300003 -0.061073858 1.1040391e-38 332 291
0.015567848 0.68300003 -0.061073858 1.1132586e-38 333 291
0.016765373 0.68300003 -0.061073858 1.1132937e-38 334 291
0.0179892 0.68400002 -0.061163284 1.0856348e-38 335 291
0.01918848 0.68400002 -0.061163284 1.0763083e-38 336 291
0.020387759 0.68400002 -0.061163284 1.0670529e-38 337 291
0.02158704 0.68400002 -0.061163284 1.076453e-38 338 291
0.022786319 0.68400002 -0.061163284 1.1132952e-38 339 291
0.024055731 0.68599999 -0.061342116 1.1776874e-38 340 291
0.025295338 0.68699998 -0.061431535 1.1776874e-38 341 291
0.026499879 0.68699998 -0.061431535 1.2236047e-38 342 291
0.027704418 0.68699998 -0.061431535 1.2420078e-38 343 291
0.028951041 0.68800002 -0.06152096 1.2237838e-38 344 291
0.030157333 0.68800002 -0.06152096 1.2330034e-38 345 291
0.031454802 0.69 -0.061699796 1.2421863e-38 346 291
0.032664597 0.69 -0.061699796 1.2698092e-38 347 291
0.033923492 0.69099998 -0.061789215 1.2515498e-38 348 291
0.035236739 0.69300002 -0.061968062 1.2607694e-38 349 291
0.036504399 0.69400001 -0.06205748 1.2333634e-38 350 291
0.037829921 0.69599998 -0.062236317 1.2702057e-38 351 291
0.039050236 0.69599998 -0.062236317 1.2520911e-38 352 291
0.040328421 0.69700003 -0.062325738 1.298189e-38 353 291
0.041550495 0.69700003 -0.062325738 1.2800742e-38 354 291
0.042772565 0.69700003 -0.062325738 1.2985134e-38 355 291
0.043994639 0.69700003 -0.062325738 1.5477325e-38 356 291
0.045281585 0.69800001 -0.062415157 1.916515e-38 357 291
-0.029624319 0.704 -0.064186029 1.225048e-38 296 292
-0.028389972 0.704 -0.064186029 1.0498403e-38 297 292
-0.027117053 0.70300001 -0.064094849 1.1967036e-38 298 292
-0.025884461 0.70300001 -0.064094849 1.1782643e-38 299 292
-0.024581732 0.70099998 -0.063912503 1.1963792e-38 300 292
-0.023252707 0.69800001 -0.063638985 1.1502813e-38 301 292
-0.02199732 0.69700003 -0.06354782 1.1042558e-38 302 292
-0.020775247 0.69700003 -0.06354782 1.0858166e-38 303 292
-0.019525118 0.69599998 -0.063456632 1.0767049e-38 304 292
-0.0182522 0.69400001 -0.063274294 1.0859246e-38 305 292
-0.017035386 0.69400001 -0.063274294 1.0950361e-38 306 292
-0.015795778 0.69300002 -0.063183114 1.0950361e-38 307 292
-0.014580719 0.69300002 -0.063183114 1.0673779e-38 308 292
-0.013327086 0.69099998 -0.063000768 1.0673779e-38 309 292
-0.012097999 0.69 -0.062909603 1.0673779e-38 310 292
-0.010856641 0.68800002 -0.06272725 1.0489387e-38 311 292
-0.0096503468 0.68800002 -0.06272725 1.0304989e-38 312 292
-0.0084440531 0.68800002 -0.06272725 1.0212794e-38 313 292
-0.0072272392 0.68699998 -0.062636077 9.84546e-39 314 292
-0.0060226996 0.68699998 -0.062636077 9.84546e-39 315 292
-0.0048181596 0.68699998 -0.062636077 1.0304639e-38 316 292
-0.0036136196 0.68699998 -0.062636077 1.0489031e-38 317 292
-0.0024055731 0.68599999 -0.062544905 1.0673053e-38 318 292
-0.00119928 0.68400002 -0.062362559 1.0396466e-38 319 292
0 0.68400002 -0.062362559 1.0579412e-38 320 292
0.0011975267 0.68300003 -0.06227139 1.0579412e-38 321 292
0.0023950534 0.68300003 -0.06227139 1.0487938e-38 322 292
0.0035925799 0.68300003 -0.06227139 1.0487938e-38 323 292
0.0047901068 0.68300003 -0.06227139 1.0028412e-38 324 292
0.0059876335 0.68300003 -0.06227139 9.9362164e-39 325 292
0.0071851597 0.68300003 -0.06227139 9.3855734e-39 326 292
0.0083826864 0.68300003 -0.06227139 9.2011822e-39 327 292
0.0095802136 0.68300003 -0.06227139 9.200829e-39 328 292
0.01077774 0.68300003 -0.06227139 9.200829e-39 329 292
0.011975267 0.68300003 -0.06227139 9.3852203e-39 330 292
0.013172794 0.68300003 -0.06227139 9.4777746e-39 331 292
0.014370319 0.68300003 -0.06227139 1.0029497e-38 332 292
0.015567848 0.68300003 -0.06227139 1.0121694e-38 333 292
0.016789921 0.68400002 -0.062362559 1.0489738e-38 334 292
0.0179892 0.68400002 -0.062362559 1.0212791e-38 335 292
0.01918848 0.68400002 -0.062362559 1.0119879e-38 336 292
0.020387759 0.68400002 -0.062362559 1.0119879e-38 337 292
0.02158704 0.68400002 -0.062362559 9.84546e-39 338 292
0.022786319 0.68400002 -0.062362559 1.0306438e-38 339 292
0.0239856 0.68400002 -0.062362559 1.1133308e-38 340 292
0.025258519 0.68599999 -0.062544905 1.1317701e-38 341 292
