# .PCD v.7 - Point Cloud Data file format
FIELDS x y z rgb imX imY
SIZE 4 4 4 4 4 4
TYPE F F F F F F
COUNT 1 1 1 1 1 1
WIDTH 835
HEIGHT 1
VIEWPOINT 0 0 0 1 0 0 0
POINTS 835
DATA ascii
-0.01336566 0.69300002 -0.060752999 1.0949267e-38 309 290
-0.012150601 0.69300002 -0.060752999 1.1131507e-38 310 290
-0.010935539 0.69300002 -0.060752999 1.0947476e-38 311 290
-0.0096924258 0.69099998 -0.060577665 1.0580857e-38 312 290
-0.008480873 0.69099998 -0.060577665 1.0857444e-38 313 290
-0.0072693196 0.69099998 -0.060577665 1.1318417e-38 314 290
-0.0060489997 0.69 -0.060489997 1.1503167e-38 315 290
-0.0048391996 0.69 -0.060489997 1.1963419e-38 316 290
-0.0036293997 0.69 -0.060489997 1.2055616e-38 317 290
-0.0024195998 0.69 -0.060489997 1.2238561e-38 318 290
-0.0012097999 0.69 -0.060489997 1.2238561e-38 319 290
0 0.69 -0.060489997 1.2238914e-38 320 290
0.0012097999 0.69 -0.060489997 1.2238914e-38 321 290
0.0024195998 0.69 -0.060489997 1.2146719e-38 322 290
0.0036293997 0.69 -0.060489997 1.2146719e-38 323 290
0.0048391996 0.69 -0.060489997 1.2054889e-38 324 290
0.0060489997 0.69 -0.060489997 1.2054889e-38 325 290
0.0072587994 0.69 -0.060489997 1.2329678e-38 326 290
0.0084440531 0.68800002 -0.060314666 1.2237482e-38 327 290
0.0096503468 0.68800002 -0.060314666 1.2054167e-38 328 290
0.010888199 0.69 -0.060489997 1.2054167e-38 329 290
0.012097999 0.69 -0.060489997 1.2329668e-38 330 290
0.0133078 0.69 -0.060489997 1.2329668e-38 331 290
0.014517599 0.69 -0.060489997 1.2329665e-38 332 290
0.015727401 0.69 -0.060489997 1.2329665e-38 333 290
0.0169372 0.69 -0.060489997 1.2238185e-38 334 290
0.0181733 0.69099998 -0.060577665 1.2330381e-38 335 290
0.019384852 0.69099998 -0.060577665 1.2055226e-38 336 290
0.020596405 0.69099998 -0.060577665 1.2055226e-38 337 290
0.021871079 0.69300002 -0.060752999 1.1872627e-38 338 290
0.02308614 0.69300002 -0.060752999 1.2057377e-38 339 290
0.024336265 0.69400001 -0.060840666 1.2058098e-38 340 290
0.025553079 0.69400001 -0.060840666 1.2242489e-38 341 290
0.026847038 0.69599998 -0.061015997 1.2519072e-38 342 290
0.028148014 0.69800001 -0.061191335 1.2611267e-38 343 290
0.029455997 0.69999999 -0.061366666 1.2519796e-38 344 290
0.030683333 0.69999999 -0.061366666 1.2888577e-38 345 290
0.031910665 0.69999999 -0.061366666 1.2796757e-38 346 290
0.03318534 0.70099998 -0.06145433 1.3072985e-38 347 290
0.034414422 0.70099998 -0.06145433 1.3257748e-38 348 290
0.035745207 0.70300001 -0.061629668 1.3534695e-38 349 290
0.037135597 0.70599997 -0.061892662 1.3351395e-38 350 290
0.038373452 0.70599997 -0.061892662 1.5102753e-38 351 290
0.039667413 0.70700002 -0.061980337 1.5754991e-38 352 290
0.040907022 0.70700002 -0.061980337 1.9074033e-38 353 290
-0.030946331 0.70599997 -0.063130513 1.2808336e-38 295 291
-0.029708479 0.70599997 -0.063130513 1.1601496e-38 296 291
-0.028389972 0.704 -0.062951677 1.15093e-38 297 291
-0.027155625 0.704 -0.062951677 1.1874837e-38 298 291
-0.025884461 0.70300001 -0.062862262 1.1598249e-38 299 291
-0.024651866 0.70300001 -0.062862262 1.1503532e-38 300 291
-0.023352645 0.70099998 -0.062683418 1.1042556e-38 301 291
-0.02202888 0.69800001 -0.062415157 1.0947842e-38 302 291
-0.020805053 0.69800001 -0.062415157 1.0947842e-38 303 291
-0.019581227 0.69800001 -0.062415157 1.00302e-38 304 291
-0.018331099 0.69700003 -0.062325738 9.846169e-39 305 291
-0.017084479 0.69599998 -0.062236317 1.0305342e-38 306 291
-0.015818574 0.69400001 -0.06205748 1.0581931e-38 307 291
-0.01460176 0.69400001 -0.06205748 1.0858148e-38 308 291
-0.01336566 0.69300002 -0.061968062 1.0858148e-38 309 291
-0.012150601 0.69300002 -0.061968062 1.0855997e-38 310 291
-0.010935539 0.69300002 -0.061968062 1.0855997e-38 311 291
-0.0097204801 0.69300002 -0.061968062 1.0582287e-38 312 291
-0.008480873 0.69099998 -0.061789215 1.0858513e-38 313 291
-0.0072693196 0.69099998 -0.061789215 1.1411321e-38 314 291
-0.0060489997 0.69 -0.061699796 1.1503517e-38 315 291
-0.0048391996 0.69 -0.061699796 1.1871942e-38 316 291
-0.0036293997 0.69 -0.061699796 1.1964139e-38 317 291
-0.0024195998 0.69 -0.061699796 1.2055616e-38 318 291
-0.0012097999 0.69 -0.061699796 1.1963419e-38 319 291
0 0.69 -0.061699796 1.2147084e-38 320 291
0.0012097999 0.69 -0.061699796 1.2054889e-38 321 291
0.0024195998 0.69 -0.061699796 1.2054167e-38 322 291
0.0036293997 0.69 -0.061699796 1.2054167e-38 323 291
0.0048391996 0.69 -0.061699796 1.2054167e-38 324 291
0.0060489997 0.69 -0.061699796 1.2054167e-38 325 291
0.0072587994 0.69 -0.061699796 1.2054523e-38 326 291
0.0084440531 0.68800002 -0.06152096 1.2054523e-38 327 291
0.0096503468 0.68800002 -0.06152096 1.205452e-38 328 291
0.010888199 0.69 -0.061699796 1.205452e-38 329 291
0.012097999 0.69 -0.061699796 1.2054157e-38 330 291
0.013327086 0.69099998 -0.061789215 1.2054157e-38 331 291
0.014538639 0.69099998 -0.061789215 1.2237467e-38 332 291
0.015750192 0.69099998 -0.061789215 1.2329662e-38 333 291
0.016961746 0.69099998 -0.061789215 1.2330018e-38 334 291
0.0181733 0.69099998 -0.061789215 1.2330018e-38 335 291
0.01944096 0.69300002 -0.061968062 1.1871558e-38 336 291
0.020656019 0.69300002 -0.061968062 1.1871558e-38 337 291
0.021871079 0.69300002 -0.061968062 1.1872277e-38 338 291
0.02308614 0.69300002 -0.061968062 1.1964473e-38 339 291
0.024336265 0.69400001 -0.06205748 1.2057744e-38 340 291
0.025553079 0.69400001 -0.06205748 1.2242136e-38 341 291
0.026847038 0.69599998 -0.062236317 1.2518718e-38 342 291
0.028148014 0.69800001 -0.062415157 1.2610914e-38 343 291
0.029455997 0.69999999 -0.062593997 1.279531e-38 344 291
0.030683333 0.69999999 -0.062593997 1.3164091e-38 345 291
0.031910665 0.69999999 -0.062593997 1.2888953e-38 346 291
0.03318534 0.70099998 -0.062683418 1.3165181e-38 347 291
0.034414422 0.70099998 -0.062683418 1.3257748e-38 348 291
0.035897743 0.70599997 -0.063130513 1.344214e-38 349 291
0.037188202 0.70700002 -0.063219935 1.3534357e-38 350 291
0.038427804 0.70700002 -0.063219935 1.6300226e-38 351 291
0.039723519 0.708 -0.063309364 1.6309619e-38 352 291
-0.029708479 0.70599997 -0.064368367 1.2246509e-38 296 292
-0.028389972 0.704 -0.064186029 1.1877725e-38 297 292
-0.027155625 0.704 -0.064186029 1.2518758e-38 298 292
-0.025884461 0.70300001 -0.064094849 1.2058138e-38 299 292
-0.024651866 0.70300001 -0.064094849 1.1963419e-38 300 292
-0.023352645 0.70099998 -0.063912503 1.1502801e-38 301 292
-0.02202888 0.69800001 -0.063638985 1.1409166e-38 302 292
-0.020805053 0.69800001 -0.063638985 1.1132939e-38 303 292
-0.019581227 0.69800001 -0.063638985 1.0672328e-38 304 292
-0.018331099 0.69700003 -0.06354782 1.0580131e-38 305 292
-0.017084479 0.69599998 -0.063456632 1.0398258e-38 306 292
-0.015864158 0.69599998 -0.063456632 1.0490454e-38 307 292
-0.01460176 0.69400001 -0.063274294 1.1225488e-38 308 292
-0.013384946 0.69400001 -0.063274294 1.1041097e-38 309 292
-0.012150601 0.69300002 -0.063183114 1.0948898e-38 310 292
-0.010935539 0.69300002 -0.063183114 1.1041094e-38 311 292
-0.0097204801 0.69300002 -0.063183114 1.1134009e-38 312 292
-0.008480873 0.69099998 -0.063000768 1.1410956e-38 313 292
-0.0072693196 0.69099998 -0.063000768 1.1410602e-38 314 292
-0.0060577663 0.69099998 -0.063000768 1.1779025e-38 315 292
-0.0048391996 0.69 -0.062909603 1.1688281e-38 316 292
-0.0036293997 0.69 -0.062909603 1.1688281e-38 317 292
-0.0024195998 0.69 -0.062909603 1.1871593e-38 318 292
-0.0012097999 0.69 -0.062909603 1.1687561e-38 319 292
0 0.69 -0.062909603 1.2054538e-38 320 292
0.0012097999 0.69 -0.062909603 1.1870507e-38 321 292
0.0024195998 0.69 -0.062909603 1.205417e-38 322 292
0.0036293997 0.69 -0.062909603 1.205417e-38 323 292
0.0048391996 0.69 -0.062909603 1.1870855e-38 324 292
0.0060489997 0.69 -0.062909603 1.1870855e-38 325 292
0.0072587994 0.69 -0.062909603 1.1871211e-38 326 292
0.0084440531 0.68800002 -0.06272725 1.1871211e-38 327 292
0.0096503468 0.68800002 -0.06272725 1.1871208e-38 328 292
0.010888199 0.69 -0.062909603 1.1779012e-38 329 292
0.012115533 0.69099998 -0.063000768 1.2054873e-38 330 292
0.013327086 0.69099998 -0.063000768 1.2054873e-38 331 292
0.014538639 0.69099998 -0.063000768 1.205487e-38 332 292
0.015750192 0.69099998 -0.063000768 1.205487e-38 333 292
0.016961746 0.69099998 -0.063000768 1.205487e-38 334 292
0.0181733 0.69099998 -0.063000768 1.205487e-38 335 292
0.01944096 0.69300002 -0.063183114 1.1780084e-38 336 292
0.020656019 0.69300002 -0.063183114 1.1780084e-38 337 292
0.021871079 0.69300002 -0.063183114 1.1689331e-38 338 292
0.023119451 0.69400001 -0.063274294 1.1874082e-38 339 292
0.024336265 0.69400001 -0.063274294 1.1874079e-38 340 292
0.025553079 0.69400001 -0.063274294 1.2150306e-38 341 292
0.026847038 0.69599998 -0.063456632 1.2335056e-38 342 292
0.028148014 0.69800001 -0.063638985 1.2519449e-38 343 292
0.029455997 0.69999999 -0.063821331 1.261236e-38 344 292
0.030683333 0.69999999 -0.063821331 1.279711e-38 345 292
0.031956252 0.70099998 -0.063912503 1.3072985e-38 346 292
0.03318534 0.70099998 -0.063912503 1.3257735e-38 347 292
0.034512613 0.70300001 -0.064094849 1.3259184e-38 348 292
0.035948593 0.70700002 -0.064459547 1.3627607e-38 349 292
0.037188202 0.70700002 -0.064459547 1.3720195e-38 350 292
0.038482159 0.708 -0.06455072 1.6947042e-38 351 292
0.039723519 0.708 -0.06455072 1.7049355e-38 352 292
-0.028470624 0.70599997 -0.065606222 1.2246865e-38 297 293
-0.027155625 0.704 -0.065420374 1.2611322e-38 298 293
-0.025884461 0.70300001 -0.065327443 1.2427291e-38 299 293
-0.024651866 0.70300001 -0.065327443 1.1781921e-38 300 293
-0.023352645 0.70099998 -0.065141588 1.1505334e-38 301 293
-0.022091998 0.69999999 -0.065048665 1.1136905e-38 302 293
-0.020864666 0.69999999 -0.065048665 1.0859959e-38 303 293
-0.019581227 0.69800001 -0.06486281 1.0582299e-38 304 293
-0.018331099 0.69700003 -0.064769886 1.0213877e-38 305 293
-0.017109027 0.69700003 -0.064769886 1.0489382e-38 306 293
-0.015864158 0.69599998 -0.064676955 1.0950359e-38 307 293
-0.01460176 0.69400001 -0.064491108 1.1225851e-38 308 293
-0.013384946 0.69400001 -0.064491108 1.1225851e-38 309 293
-0.012150601 0.69300002 -0.064398177 1.0950696e-38 310 293
-0.010935539 0.69300002 -0.064398177 1.1042892e-38 311 293
-0.0097204801 0.69300002 -0.064398177 1.1319476e-38 312 293
-0.0085054198 0.69300002 -0.064398177 1.1319476e-38 313 293
-0.0072693196 0.69099998 -0.06421233 1.168611e-38 314 293
-0.0060577663 0.69099998 -0.06421233 1.1870502e-38 315 293
-0.0048391996 0.69 -0.064119399 1.1687205e-38 316 293
-0.0036293997 0.69 -0.064119399 1.1871237e-38 317 293
-0.0024195998 0.69 -0.064119399 1.1963073e-38 318 293
-0.0012097999 0.69 -0.064119399 1.1963073e-38 319 293
0 0.69 -0.064119399 1.1871226e-38 320 293
0.0012097999 0.69 -0.064119399 1.177903e-38 321 293
0.0024195998 0.69 -0.064119399 1.2054173e-38 322 293
0.0036293997 0.69 -0.064119399 1.1961977e-38 323 293
0.0048391996 0.69 -0.064119399 1.1961971e-38 324 293
0.0060489997 0.69 -0.064119399 1.1961971e-38 325 293
0.0072587994 0.69 -0.064119399 1.168718e-38 326 293
0.0084686 0.69 -0.064119399 1.168718e-38 327 293
0.0096783992 0.69 -0.064119399 1.1779012e-38 328 293
0.01090398 0.69099998 -0.06421233 1.1779012e-38 329 293
0.012115533 0.69099998 -0.06421233 1.1962322e-38 330 293
0.013327086 0.69099998 -0.06421233 1.1962322e-38 331 293
0.014580719 0.69300002 -0.064398177 1.2054873e-38 332 293
0.015795778 0.69300002 -0.064398177 1.2054873e-38 333 293
0.01701084 0.69300002 -0.064398177 1.1871205e-38 334 293
0.018225901 0.69300002 -0.064398177 1.1779009e-38 335 293
0.01944096 0.69300002 -0.064398177 1.1687533e-38 336 293
0.020656019 0.69300002 -0.064398177 1.1871924e-38 337 293
0.021871079 0.69300002 -0.064398177 1.1689686e-38 338 293
0.023119451 0.69400001 -0.064491108 1.1781883e-38 339 293
0.024336265 0.69400001 -0.064491108 1.1966272e-38 340 293
0.025626717 0.69599998 -0.064676955 1.2150662e-38 341 293
0.026885614 0.69700003 -0.064769886 1.2518365e-38 342 293
0.028148014 0.69800001 -0.06486281 1.2702758e-38 343 293
0.029455997 0.69999999 -0.065048665 1.2795675e-38 344 293
0.030683333 0.69999999 -0.065048665 1.3072621e-38 345 293
0.031956252 0.70099998 -0.065141588 1.2981871e-38 346 293
0.03318534 0.70099998 -0.065141588 1.3258098e-38 347 293
0.034561705 0.704 -0.065420374 1.3350297e-38 348 293
0.035948593 0.70700002 -0.065699153 1.3995666e-38 349 293
0.037188202 0.70700002 -0.065699153 1.400038e-38 350 293
0.038482159 0.708 -0.065792084 1.7227227e-38 351 293
-0.028389972 0.704 -0.066654719 1.2710004e-38 297 294
-0.027155625 0.704 -0.066654719 1.2521276e-38 298 294
-0.025884461 0.70300001 -0.066560037 1.2245048e-38 299 294
-0.024651866 0.70300001 -0.066560037 1.2518745e-38 300 294
-0.023352645 0.70099998 -0.066370681 1.2149602e-38 301 294
-0.022091998 0.69999999 -0.066275999 1.1964125e-38 302 294
-0.020864666 0.69999999 -0.066275999 1.1503148e-38 303 294
-0.019581227 0.69800001 -0.066086642 1.0857794e-38 304 294
-0.018331099 0.69700003 -0.06599196 1.0581208e-38 305 294
-0.017109027 0.69700003 -0.06599196 1.0214593e-38 306 294
-0.015864158 0.69599998 -0.065897278 1.0398984e-38 307 294
-0.014643839 0.69599998 -0.065897278 1.1226573e-38 308 294
-0.013384946 0.69400001 -0.065707922 1.1226573e-38 309 294
-0.012168133 0.69400001 -0.065707922 1.1318756e-38 310 294
-0.010935539 0.69300002 -0.06561324 1.1410953e-38 311 294
-0.0097204801 0.69300002 -0.06561324 1.14106e-38 312 294
-0.0085054198 0.69300002 -0.06561324 1.14106e-38 313 294
-0.0072693196 0.69099998 -0.065423876 1.1503167e-38 314 294
-0.0060489997 0.69 -0.065329194 1.1595362e-38 315 294
-0.0048391996 0.69 -0.065329194 1.1412416e-38 316 294
-0.0036293997 0.69 -0.065329194 1.1504613e-38 317 294
-0.0024195998 0.69 -0.065329194 1.1595728e-38 318 294
-0.0012097999 0.69 -0.065329194 1.1595728e-38 319 294
0 0.69 -0.065329194 1.1871226e-38 320 294
0.0012097999 0.69 -0.065329194 1.1871226e-38 321 294
0.0024195998 0.69 -0.065329194 1.1870858e-38 322 294
0.0036293997 0.69 -0.065329194 1.1778662e-38 323 294
0.0048391996 0.69 -0.065329194 1.168718e-38 324 294
0.0060577663 0.69099998 -0.065423876 1.168718e-38 325 294
0.0072693196 0.69099998 -0.065423876 1.168718e-38 326 294
0.008480873 0.69099998 -0.065423876 1.168718e-38 327 294
0.0096924258 0.69099998 -0.065423876 1.168718e-38 328 294
0.01090398 0.69099998 -0.065423876 1.168718e-38 329 294
0.012150601 0.69300002 -0.06561324 1.1779012e-38 330 294
0.01336566 0.69300002 -0.06561324 1.1779012e-38 331 294
0.014580719 0.69300002 -0.06561324 1.1687535e-38 332 294
0.015795778 0.69300002 -0.06561324 1.1687535e-38 333 294
0.01701084 0.69300002 -0.06561324 1.168718e-38 334 294
0.018225901 0.69300002 -0.06561324 1.168718e-38 335 294
0.019469013 0.69400001 -0.065707922 1.1596419e-38 336 294
0.020685827 0.69400001 -0.065707922 1.1688614e-38 337 294
0.021902639 0.69400001 -0.065707922 1.1781528e-38 338 294
0.023119451 0.69400001 -0.065707922 1.1874082e-38 339 294
0.024336265 0.69400001 -0.065707922 1.1966991e-38 340 294
0.025626717 0.69599998 -0.065897278 1.2059545e-38 341 294
0.026885614 0.69700003 -0.06599196 1.2427249e-38 342 294
0.028148014 0.69800001 -0.066086642 1.2611641e-38 343 294
0.029455997 0.69999999 -0.066275999 1.270528e-38 344 294
0.030683333 0.69999999 -0.066275999 1.2889673e-38 345 294
0.031956252 0.70099998 -0.066370681 1.2982237e-38 346 294
0.033280019 0.70300001 -0.066560037 1.3166628e-38 347 294
0.034561705 0.704 -0.066654719 1.3351027e-38 348 294
0.035948593 0.70700002 -0.066938758 1.4272623e-38 349 294
0.0372408 0.708 -0.067033432 1.4647196e-38 350 294
0.038482159 0.708 -0.067033432 1.7412704e-38 351 294
-0.028349647 0.70300001 -0.067792632 1.3358626e-38 297 295
-0.027117053 0.70300001 -0.067792632 1.2798943e-38 298 295
-0.025884461 0.70300001 -0.067792632 1.2430162e-38 299 295
-0.024651866 0.70300001 -0.067792632 1.2612381e-38 300 295
-0.023352645 0.70099998 -0.067599766 1.22436e-38 301 295
-0.022123558 0.70099998 -0.067599766 1.2056335e-38 302 295
-0.020894472 0.70099998 -0.067599766 1.1595715e-38 303 295
-0.019637333 0.69999999 -0.067503333 1.0767399e-38 304 295
-0.0183574 0.69800001 -0.06731046 1.0398258e-38 305 295
-0.017109027 0.69700003 -0.067214034 1.049081e-38 306 295
-0.015864158 0.69599998 -0.067117594 1.0767397e-38 307 295
-0.014643839 0.69599998 -0.067117594 1.1318403e-38 308 295
-0.013384946 0.69400001 -0.066924736 1.14106e-38 309 295
-0.012168133 0.69400001 -0.066924736 1.1411674e-38 310 295
-0.010935539 0.69300002 -0.066828303 1.1411674e-38 311 295
-0.0097204801 0.69300002 -0.066828303 1.1410602e-38 312 295
-0.0085054198 0.69300002 -0.066828303 1.1410602e-38 313 295
-0.0072693196 0.69099998 -0.06663543 1.1410965e-38 314 295
-0.0060489997 0.69 -0.066538997 1.150352e-38 315 295
-0.0048391996 0.69 -0.066538997 1.1412769e-38 316 295
-0.0036293997 0.69 -0.066538997 1.1412769e-38 317 295
-0.0024195998 0.69 -0.066538997 1.1595362e-38 318 295
-0.0012097999 0.69 -0.066538997 1.1687558e-38 319 295
0 0.69099998 -0.06663543 1.1779028e-38 320 295
0.0012115532 0.69099998 -0.06663543 1.1779028e-38 321 295
0.0024231065 0.69099998 -0.06663543 1.1779375e-38 322 295
0.0036346598 0.69099998 -0.06663543 1.168718e-38 323 295
0.0048462129 0.69099998 -0.06663543 1.1687533e-38 324 295
0.0060577663 0.69099998 -0.06663543 1.1687533e-38 325 295
0.0072693196 0.69099998 -0.06663543 1.1778656e-38 326 295
0.008480873 0.69099998 -0.06663543 1.1686461e-38 327 295
0.0096924258 0.69099998 -0.06663543 1.1686463e-38 328 295
0.01090398 0.69099998 -0.06663543 1.1686463e-38 329 295
0.012150601 0.69300002 -0.066828303 1.1779012e-38 330 295
0.01336566 0.69300002 -0.066828303 1.1686817e-38 331 295
0.014580719 0.69300002 -0.066828303 1.1687533e-38 332 295
0.015795778 0.69300002 -0.066828303 1.1687533e-38 333 295
0.01701084 0.69300002 -0.066828303 1.1687535e-38 334 295
0.018225901 0.69300002 -0.066828303 1.1779731e-38 335 295
0.019469013 0.69400001 -0.066924736 1.1688259e-38 336 295
0.020685827 0.69400001 -0.066924736 1.1964845e-38 337 295
0.021902639 0.69400001 -0.066924736 1.1873729e-38 338 295
0.023119451 0.69400001 -0.066924736 1.1965924e-38 339 295
0.024336265 0.69400001 -0.066924736 1.2333981e-38 340 295
0.025626717 0.69599998 -0.067117594 1.2610568e-38 341 295
0.026885614 0.69700003 -0.067214034 1.2427972e-38 342 295
0.028148014 0.69800001 -0.06731046 1.2796754e-38 343 295
0.029455997 0.69999999 -0.067503333 1.2797124e-38 344 295
0.030683333 0.69999999 -0.067503333 1.2981874e-38 345 295
0.032047424 0.70300001 -0.067792632 1.3074082e-38 346 295
0.03332736 0.704 -0.067889065 1.3535061e-38 347 295
0.034561705 0.704 -0.067889065 1.3536152e-38 348 295
0.035897743 0.70599997 -0.06808193 1.4734695e-38 349 295
0.037135597 0.70599997 -0.06808193 1.5109987e-38 350 295
0.038590867 0.70999998 -0.068467662 1.7046095e-38 351 295
-0.028349647 0.70300001 -0.069025226 1.4005804e-38 297 296
-0.027117053 0.70300001 -0.069025226 1.3628352e-38 298 296
-0.025884461 0.70300001 -0.069025226 1.279859e-38 299 296
-0.024651866 0.70300001 -0.069025226 1.3072285e-38 300 296
-0.023352645 0.70099998 -0.068828844 1.2519111e-38 301 296
-0.022123558 0.70099998 -0.068828844 1.233328e-38 302 296
-0.020894472 0.70099998 -0.068828844 1.1964139e-38 303 296
-0.019637333 0.69999999 -0.068730667 1.1228725e-38 304 296
-0.0183574 0.69800001 -0.068534292 1.1044334e-38 305 296
-0.017133573 0.69800001 -0.068534292 1.0768822e-38 306 296
-0.015864158 0.69599998 -0.068337917 1.0861019e-38 307 296
-0.014643839 0.69599998 -0.068337917 1.1410953e-38 308 296
-0.013384946 0.69400001 -0.068141542 1.1410953e-38 309 296
-0.012168133 0.69400001 -0.068141542 1.1503151e-38 310 296
-0.010935539 0.69300002 -0.068043359 1.1410956e-38 311 296
-0.0097204801 0.69300002 -0.068043359 1.14106e-38 312 296
-0.0085054198 0.69300002 -0.068043359 1.14106e-38 313 296
-0.0072693196 0.69099998 -0.067846984 1.1319126e-38 314 296
-0.0060577663 0.69099998 -0.067846984 1.1503517e-38 315 296
-0.0048391996 0.69 -0.0677488 1.132057e-38 316 296
-0.0036293997 0.69 -0.0677488 1.1412766e-38 317 296
-0.0024195998 0.69 -0.0677488 1.1595359e-38 318 296
-0.0012115532 0.69099998 -0.067846984 1.1687555e-38 319 296
0 0.69099998 -0.067846984 1.1595713e-38 320 296
0.0012115532 0.69099998 -0.067846984 1.1595713e-38 321 296
0.0024231065 0.69099998 -0.067846984 1.168718e-38 322 296
0.0036346598 0.69099998 -0.067846984 1.168718e-38 323 296
0.0048462129 0.69099998 -0.067846984 1.1411669e-38 324 296
0.0060577663 0.69099998 -0.067846984 1.1411669e-38 325 296
0.0072693196 0.69099998 -0.067846984 1.1503151e-38 326 296
0.008480873 0.69099998 -0.067846984 1.1503151e-38 327 296
0.0096924258 0.69099998 -0.067846984 1.168718e-38 328 296
0.01090398 0.69099998 -0.067846984 1.1503148e-38 329 296
0.012150601 0.69300002 -0.068043359 1.1503504e-38 330 296
0.01336566 0.69300002 -0.068043359 1.1687535e-38 331 296
0.014580719 0.69300002 -0.068043359 1.150422e-38 332 296
0.015795778 0.69300002 -0.068043359 1.1596416e-38 333 296
0.017035386 0.69400001 -0.068141542 1.1596419e-38 334 296
0.0182522 0.69400001 -0.068141542 1.1596419e-38 335 296
0.019469013 0.69400001 -0.068141542 1.1688259e-38 336 296
0.020685827 0.69400001 -0.068141542 1.1964845e-38 337 296
0.021902639 0.69400001 -0.068141542 1.2149239e-38 338 296
0.023186078 0.69599998 -0.068337917 1.2241435e-38 339 296
0.0244064 0.69599998 -0.068337917 1.2518018e-38 340 296
0.025626717 0.69599998 -0.068337917 1.2794606e-38 341 296
0.026885614 0.69700003 -0.068436109 1.2795322e-38 342 296
0.028148014 0.69800001 -0.068534292 1.3072269e-38 343 296
0.029455997 0.69999999 -0.068730667 1.2981518e-38 344 296
0.030683333 0.69999999 -0.068730667 1.3257745e-38 345 296
0.032047424 0.70300001 -0.069025226 1.3258475e-38 346 296
0.03332736 0.704 -0.06912341 1.3719452e-38 347 296
0.034561705 0.704 -0.06912341 1.3720913e-38 348 296
0.035897743 0.70599997 -0.069319785 1.5104207e-38 349 296
0.037135597 0.70599997 -0.069319785 1.4928484e-38 350 296
-0.027117053 0.70300001 -0.070257813 1.4275888e-38 298 297
-0.025884461 0.70300001 -0.070257813 1.3077346e-38 299 297
-0.024651866 0.70300001 -0.070257813 1.3348874e-38 300 297
-0.023352645 0.70099998 -0.070057929 1.2887898e-38 301 297
-0.022123558 0.70099998 -0.070057929 1.2702057e-38 302 297
-0.020894472 0.70099998 -0.070057929 1.2333634e-38 303 297
-0.019637333 0.69999999 -0.069957994 1.1874082e-38 304 297
-0.0183574 0.69800001 -0.069758117 1.1597135e-38 305 297
-0.017133573 0.69800001 -0.069758117 1.1505287e-38 306 297
-0.015886955 0.69700003 -0.069658175 1.1321256e-38 307 297
-0.014643839 0.69599998 -0.069558233 1.177936e-38 308 297
-0.013384946 0.69400001 -0.069358356 1.177936e-38 309 297
-0.012168133 0.69400001 -0.069358356 1.1779012e-38 310 297
-0.01095132 0.69400001 -0.069358356 1.1686817e-38 311 297
-0.0097204801 0.69300002 -0.069258414 1.1593912e-38 312 297
-0.0085054198 0.69300002 -0.069258414 1.1686466e-38 313 297
-0.0072693196 0.69099998 -0.069058537 1.1411319e-38 314 297
-0.0060577663 0.69099998 -0.069058537 1.1503514e-38 315 297
-0.0048462129 0.69099998 -0.069058537 1.1320205e-38 316 297
-0.0036346598 0.69099998 -0.069058537 1.1504236e-38 317 297
-0.0024231065 0.69099998 -0.069058537 1.1504239e-38 318 297
-0.0012115532 0.69099998 -0.069058537 1.1319849e-38 319 297
0 0.69099998 -0.069058537 1.1778309e-38 320 297
0.0012115532 0.69099998 -0.069058537 1.1686113e-38 321 297
0.0024231065 0.69099998 -0.069058537 1.1503151e-38 322 297
0.0036346598 0.69099998 -0.069058537 1.1503151e-38 323 297
0.0048462129 0.69099998 -0.069058537 1.1319476e-38 324 297
0.0060577663 0.69099998 -0.069058537 1.1411672e-38 325 297
0.0072693196 0.69099998 -0.069058537 1.1411672e-38 326 297
0.008480873 0.69099998 -0.069058537 1.1503867e-38 327 297
0.0096924258 0.69099998 -0.069058537 1.1687535e-38 328 297
0.010935539 0.69300002 -0.069258414 1.1503504e-38 329 297
0.012150601 0.69300002 -0.069258414 1.150422e-38 330 297
0.01336566 0.69300002 -0.069258414 1.150422e-38 331 297
0.014580719 0.69300002 -0.069258414 1.1320905e-38 332 297
0.015795778 0.69300002 -0.069258414 1.1504936e-38 333 297
0.017035386 0.69400001 -0.069358356 1.1597138e-38 334 297
0.0182522 0.69400001 -0.069358356 1.1597138e-38 335 297
0.019469013 0.69400001 -0.069358356 1.1964125e-38 336 297
0.020745439 0.69599998 -0.069558233 1.2148518e-38 337 297
0.021965759 0.69599998 -0.069558233 1.2332549e-38 338 297
0.023186078 0.69599998 -0.069558233 1.2517299e-38 339 297
0.0244064 0.69599998 -0.069558233 1.2610215e-38 340 297
0.025663542 0.69700003 -0.069658175 1.2886802e-38 341 297
0.026924185 0.69800001 -0.069758117 1.2704927e-38 342 297
0.028228667 0.69999999 -0.069957994 1.288932e-38 343 297
0.029455997 0.69999999 -0.069957994 1.3074433e-38 344 297
0.030727165 0.70099998 -0.070057929 1.3259184e-38 345 297
0.032093015 0.704 -0.070357755 1.3534705e-38 346 297
0.03332736 0.704 -0.070357755 1.3903847e-38 347 297
0.034659892 0.70599997 -0.070557632 1.353905e-38 348 297
0.035948593 0.70700002 -0.070657574 1.501382e-38 349 297
0.037188202 0.70700002 -0.070657574 1.4470032e-38 350 297
-0.025884461 0.70300001 -0.071490414 1.3356457e-38 299 298
-0.024651866 0.70300001 -0.071490414 1.4085713e-38 300 298
-0.023419274 0.70300001 -0.071490414 1.3256313e-38 301 298
-0.02218668 0.70300001 -0.071490414 1.2887521e-38 302 298
-0.020894472 0.70099998 -0.071287021 1.2611294e-38 303 298
-0.019665385 0.70099998 -0.071287021 1.2335423e-38 304 298
-0.018409999 0.69999999 -0.071185328 1.196664e-38 305 298
-0.017133573 0.69800001 -0.07098195 1.1874076e-38 306 298
-0.015909746 0.69800001 -0.07098195 1.1781879e-38 307 298
-0.014643839 0.69599998 -0.070778556 1.1872277e-38 308 298
-0.013423519 0.69599998 -0.070778556 1.1780081e-38 309 298
-0.012168133 0.69400001 -0.07057517 1.1871208e-38 310 298
-0.01095132 0.69400001 -0.07057517 1.1779012e-38 311 298
-0.0097204801 0.69300002 -0.070473477 1.1778306e-38 312 298
-0.0085054198 0.69300002 -0.070473477 1.1778306e-38 313 298
-0.0072693196 0.69099998 -0.070270091 1.1504236e-38 314 298
-0.0060577663 0.69099998 -0.070270091 1.1504236e-38 315 298
-0.00486024 0.69300002 -0.070473477 1.1504233e-38 316 298
-0.0036346598 0.69099998 -0.070270091 1.1504233e-38 317 298
-0.0024231065 0.69099998 -0.070270091 1.1504236e-38 318 298
-0.0012115532 0.69099998 -0.070270091 1.1504236e-38 319 298
0 0.69300002 -0.070473477 1.1686829e-38 320 298
0.00121506 0.69300002 -0.070473477 1.1502798e-38 321 298
0.00243012 0.69300002 -0.070473477 1.1411319e-38 322 298
0.0036451798 0.69300002 -0.070473477 1.1319123e-38 323 298
0.00486024 0.69300002 -0.070473477 1.1410956e-38 324 298
0.0060753003 0.69300002 -0.070473477 1.1410956e-38 325 298
0.0072903596 0.69300002 -0.070473477 1.1320558e-38 326 298
0.0085054198 0.69300002 -0.070473477 1.1228003e-38 327 298
0.0097204801 0.69300002 -0.070473477 1.1687182e-38 328 298
0.010935539 0.69300002 -0.070473477 1.1687182e-38 329 298
0.012150601 0.69300002 -0.070473477 1.1504583e-38 330 298
0.01336566 0.69300002 -0.070473477 1.1504583e-38 331 298
0.014580719 0.69300002 -0.070473477 1.1596782e-38 332 298
0.015818574 0.69400001 -0.07057517 1.1596782e-38 333 298
0.017035386 0.69400001 -0.07057517 1.1688261e-38 334 298
0.0182522 0.69400001 -0.07057517 1.1872292e-38 335 298
0.019469013 0.69400001 -0.07057517 1.1964845e-38 336 298
0.020745439 0.69599998 -0.070778556 1.2149237e-38 337 298
0.021965759 0.69599998 -0.070778556 1.24251e-38 338 298
0.023219392 0.69700003 -0.070880257 1.2609492e-38 339 298
0.024441468 0.69700003 -0.070880257 1.270241e-38 340 298
0.025700359 0.69800001 -0.07098195 1.2886802e-38 341 298
0.027001332 0.69999999 -0.071185328 1.2888604e-38 342 298
0.028268991 0.70099998 -0.071287021 1.3164831e-38 343 298
0.029582238 0.70300001 -0.071490414 1.3257745e-38 344 298
0.030814834 0.70300001 -0.071490414 1.3442496e-38 345 298
0.032093015 0.704 -0.071592107 1.3443588e-38 346 298
0.033422034 0.70599997 -0.071795486 1.3996762e-38 347 298
0.034659892 0.70599997 -0.071795486 1.3263908e-38 348 298
0.035948593 0.70700002 -0.071897186 1.4554647e-38 349 298
0.037188202 0.70700002 -0.071897186 1.401014e-38 350 298
-0.02592128 0.704 -0.072826453 1.381888e-38 299 299
-0.024651866 0.70300001 -0.072723009 1.3996399e-38 300 299
-0.023419274 0.70300001 -0.072723009 1.3166278e-38 301 299
-0.02218668 0.70300001 -0.072723009 1.3163387e-38 302 299
-0.020954086 0.70300001 -0.072723009 1.2886802e-38 303 299
-0.019721493 0.70300001 -0.072723009 1.2519451e-38 304 299
-0.018436298 0.70099998 -0.072516106 1.23347e-38 305 299
-0.017182667 0.69999999 -0.072412662 1.2517997e-38 306 299
-0.015909746 0.69800001 -0.072205767 1.2333606e-38 307 299
-0.01466488 0.69700003 -0.072102323 1.2423999e-38 308 299
-0.013423519 0.69599998 -0.071998879 1.2423999e-38 309 299
-0.0122032 0.69599998 -0.071998879 1.2147069e-38 310 299
-0.01095132 0.69400001 -0.071791984 1.2147069e-38 311 299
-0.0097345067 0.69400001 -0.071791984 1.1871574e-38 312 299
-0.0085054198 0.69300002 -0.07168854 1.1871574e-38 313 299
-0.0072903596 0.69300002 -0.07168854 1.1688261e-38 314 299
-0.0060753003 0.69300002 -0.07168854 1.1872292e-38 315 299
-0.00486024 0.69300002 -0.07168854 1.187193e-38 316 299
-0.0036451798 0.69300002 -0.07168854 1.1779375e-38 317 299
-0.0024231065 0.69099998 -0.071481638 1.1779378e-38 318 299
-0.0012115532 0.69099998 -0.071481638 1.1779378e-38 319 299
0 0.69300002 -0.07168854 1.1687182e-38 320 299
0.00121506 0.69300002 -0.07168854 1.1687182e-38 321 299
0.00243012 0.69300002 -0.07168854 1.1411319e-38 322 299
0.0036451798 0.69300002 -0.07168854 1.1319123e-38 323 299
0.00486024 0.69300002 -0.07168854 1.0860666e-38 324 299
0.0060753003 0.69300002 -0.07168854 1.0952861e-38 325 299
0.0072903596 0.69300002 -0.07168854 1.0953217e-38 326 299
0.0085054198 0.69300002 -0.07168854 1.1045413e-38 327 299
0.0097204801 0.69300002 -0.07168854 1.1504586e-38 328 299
0.010935539 0.69300002 -0.07168854 1.1596782e-38 329 299
0.012150601 0.69300002 -0.07168854 1.1506015e-38 330 299
0.01336566 0.69300002 -0.07168854 1.1506015e-38 331 299
0.01460176 0.69400001 -0.071791984 1.1688612e-38 332 299
0.015818574 0.69400001 -0.071791984 1.1872643e-38 333 299
0.017035386 0.69400001 -0.071791984 1.1688977e-38 334 299
0.018304799 0.69599998 -0.071998879 1.1781533e-38 335 299
0.019525118 0.69599998 -0.071998879 1.1873729e-38 336 299
0.020775247 0.69700003 -0.072102323 1.2149956e-38 337 299
0.02199732 0.69700003 -0.072102323 1.2333631e-38 338 299
0.023252707 0.69800001 -0.072205767 1.2609859e-38 339 299
0.024476532 0.69800001 -0.072205767 1.2610943e-38 340 299
0.025773998 0.69999999 -0.072412662 1.2794975e-38 341 299
0.027039904 0.70099998 -0.072516106 1.2888253e-38 342 299
0.028268991 0.70099998 -0.072516106 1.3256676e-38 343 299
0.029624319 0.704 -0.072826453 1.3074804e-38 344 299
0.030858666 0.704 -0.072826453 1.3259197e-38 345 299
0.032184184 0.70599997 -0.07303334 1.3168817e-38 346 299
0.033422034 0.70599997 -0.07303334 1.3445406e-38 347 299
0.034659892 0.70599997 -0.07303334 1.262287e-38 348 299
0.035948593 0.70700002 -0.073136792 1.3360435e-38 349 299
-0.024686933 0.704 -0.07406079 1.4183324e-38 300 300
-0.023452586 0.704 -0.07406079 1.298478e-38 301 300
-0.022218239 0.704 -0.07406079 1.3166634e-38 302 300
-0.020983893 0.704 -0.07406079 1.2613462e-38 303 300
-0.019721493 0.70300001 -0.073955595 1.2610588e-38 304 300
-0.018436298 0.70099998 -0.073745191 1.2518392e-38 305 300
-0.017182667 0.69999999 -0.073639996 1.2702413e-38 306 300
-0.015955333 0.69999999 -0.073639996 1.2333631e-38 307 300
-0.01468592 0.69800001 -0.073429599 1.2241783e-38 308 300
-0.013442807 0.69700003 -0.073324397 1.2149587e-38 309 300
-0.012220734 0.69700003 -0.073324397 1.1965199e-38 310 300
-0.010982879 0.69599998 -0.073219195 1.1965199e-38 311 300
-0.0097625591 0.69599998 -0.073219195 1.1871574e-38 312 300
-0.0085176928 0.69400001 -0.073008798 1.1871574e-38 313 300
-0.0072903596 0.69300002 -0.072903603 1.1964495e-38 314 300
-0.0060753003 0.69300002 -0.072903603 1.1964495e-38 315 300
-0.0048672534 0.69400001 -0.073008798 1.178118e-38 316 300
-0.0036451798 0.69300002 -0.072903603 1.1688983e-38 317 300
-0.00243012 0.69300002 -0.072903603 1.168898e-38 318 300
-0.00121506 0.69300002 -0.072903603 1.1596785e-38 319 300
0 0.69300002 -0.072903603 1.1596785e-38 320 300
0.00121506 0.69300002 -0.072903603 1.1504589e-38 321 300
0.00243012 0.69300002 -0.072903603 1.1135457e-38 322 300
0.0036451798 0.69300002 -0.072903603 1.104326e-38 323 300
0.00486024 0.69300002 -0.072903603 1.0675923e-38 324 300
0.0060753003 0.69300002 -0.072903603 1.0675923e-38 325 300
0.0072903596 0.69300002 -0.072903603 1.1045063e-38 326 300
0.0085054198 0.69300002 -0.072903603 1.1137258e-38 327 300
0.0097204801 0.69300002 -0.072903603 1.1414191e-38 328 300
0.010935539 0.69300002 -0.072903603 1.1506388e-38 329 300
0.012150601 0.69300002 -0.072903603 1.1415622e-38 330 300
0.013384946 0.69400001 -0.073008798 1.1415622e-38 331 300
0.01460176 0.69400001 -0.073008798 1.1506741e-38 332 300
0.015864158 0.69599998 -0.073219195 1.1506741e-38 333 300
0.017084479 0.69599998 -0.073219195 1.1598584e-38 334 300
0.018304799 0.69599998 -0.073219195 1.1598584e-38 335 300
0.019553173 0.69700003 -0.073324397 1.1965924e-38 336 300
0.020775247 0.69700003 -0.073324397 1.2149956e-38 337 300
0.02202888 0.69800001 -0.073429599 1.2333628e-38 338 300
0.023252707 0.69800001 -0.073429599 1.2518018e-38 339 300
0.024476532 0.69800001 -0.073429599 1.2611297e-38 340 300
0.025773998 0.69999999 -0.073639996 1.2795328e-38 341 300
0.027039904 0.70099998 -0.073745191 1.2979722e-38 342 300
0.028349647 0.70300001 -0.073955595 1.325631e-38 343 300
0.029624319 0.704 -0.07406079 1.3074085e-38 344 300
0.030858666 0.704 -0.07406079 1.3258478e-38 345 300
0.032184184 0.70599997 -0.074271195 1.3074828e-38 346 300
0.033422034 0.70599997 -0.074271195 1.3351055e-38 347 300
0.034659892 0.70599997 -0.074271195 1.2067185e-38 348 300
-0.024686933 0.704 -0.075295143 1.4094741e-38 300 301
-0.023452586 0.704 -0.075295143 1.2711806e-38 301 301
-0.022218239 0.704 -0.075295143 1.3351746e-38 302 301
-0.020983893 0.704 -0.075295143 1.2706376e-38 303 301
-0.019749546 0.704 -0.075295143 1.2796051e-38 304 301
-0.018488899 0.70300001 -0.07518819 1.2519464e-38 305 301
-0.017207211 0.70099998 -0.074974284 1.2519814e-38 306 301
-0.015978126 0.70099998 -0.074974284 1.2427619e-38 307 301
-0.014727999 0.69999999 -0.07486733 1.2610195e-38 308 301
-0.013462093 0.69800001 -0.074653424 1.2518e-38 309 301
-0.012238266 0.69800001 -0.074653424 1.2333255e-38 310 301
-0.01099866 0.69700003 -0.074546471 1.2149224e-38 311 301
-0.0097765867 0.69700003 -0.074546471 1.1964122e-38 312 301
-0.0085176928 0.69400001 -0.074225612 1.2056319e-38 313 301
-0.0073008798 0.69400001 -0.074225612 1.2148518e-38 314 301
-0.0060840664 0.69400001 -0.074225612 1.2148518e-38 315 301
-0.0048672534 0.69400001 -0.074225612 1.2148874e-38 316 301
-0.0036451798 0.69300002 -0.074118659 1.2056319e-38 317 301
-0.00243012 0.69300002 -0.074118659 1.1965196e-38 318 301
-0.0012168133 0.69400001 -0.074225612 1.1872999e-38 319 301
0 0.69400001 -0.074225612 1.1689333e-38 320 301
0.0012168133 0.69400001 -0.074225612 1.1320552e-38 321 301
0.0024336267 0.69400001 -0.074225612 1.1043981e-38 322 301
0.0036504399 0.69400001 -0.074225612 1.0859948e-38 323 301
0.0048672534 0.69400001 -0.074225612 1.0399703e-38 324 301
0.0060840664 0.69400001 -0.074225612 1.0584454e-38 325 301
0.0073008798 0.69400001 -0.074225612 1.0677719e-38 326 301
0.0085054198 0.69300002 -0.074118659 1.0954665e-38 327 301
0.0097204801 0.69300002 -0.074118659 1.1323073e-38 328 301
0.01095132 0.69400001 -0.074225612 1.1415269e-38 329 301
0.0122032 0.69599998 -0.074439511 1.1874798e-38 330 301
0.013423519 0.69599998 -0.074439511 1.1782602e-38 331 301
0.014643839 0.69599998 -0.074439511 1.1966275e-38 332 301
0.015864158 0.69599998 -0.074439511 1.1966275e-38 333 301
0.017084479 0.69599998 -0.074439511 1.1966278e-38 334 301
0.018331099 0.69700003 -0.074546471 1.1966278e-38 335 301
0.019553173 0.69700003 -0.074546471 1.2241788e-38 336 301
0.020805053 0.69800001 -0.074653424 1.2333984e-38 337 301
0.02202888 0.69800001 -0.074653424 1.2334347e-38 338 301
0.023319334 0.69999999 -0.07486733 1.2519098e-38 339 301
0.024546666 0.69999999 -0.07486733 1.2519464e-38 340 301
0.025810819 0.70099998 -0.074974284 1.2703855e-38 341 301
0.027117053 0.70300001 -0.07518819 1.2796777e-38 342 301
0.028349647 0.70300001 -0.07518819 1.2981168e-38 343 301
0.029624319 0.704 -0.075295143 1.2615275e-38 344 301
0.030858666 0.704 -0.075295143 1.2615275e-38 345 301
0.032093015 0.704 -0.075295143 1.1880619e-38 346 301
0.03332736 0.704 -0.075295143 1.1972816e-38 347 301
-0.024686933 0.704 -0.076529488 1.3913609e-38 300 302
-0.023452586 0.704 -0.076529488 1.262287e-38 301 302
-0.022218239 0.704 -0.076529488 1.3078051e-38 302 302
-0.020983893 0.704 -0.076529488 1.2432682e-38 303 302
-0.019749546 0.704 -0.076529488 1.261418e-38 304 302
-0.018488899 0.70300001 -0.076420791 1.2429429e-38 305 302
-0.017256306 0.70300001 -0.076420791 1.270493e-38 306 302
-0.016023712 0.70300001 -0.076420791 1.2428344e-38 307 302
-0.014749039 0.70099998 -0.076203369 1.2702764e-38 308 302
-0.013500666 0.69999999 -0.076094657 1.2610568e-38 309 302
-0.012238266 0.69800001 -0.075877249 1.2333981e-38 310 302
-0.01101444 0.69800001 -0.075877249 1.2241785e-38 311 302
-0.0097765867 0.69700003 -0.075768545 1.2149587e-38 312 302
-0.0085422397 0.69599998 -0.075659841 1.2149587e-38 313 302
-0.0073008798 0.69400001 -0.075442426 1.2241785e-38 314 302
-0.0060840664 0.69400001 -0.075442426 1.2241785e-38 315 302
-0.0048812795 0.69599998 -0.075659841 1.2149234e-38 316 302
-0.0036504399 0.69400001 -0.075442426 1.2149234e-38 317 302
-0.0024336267 0.69400001 -0.075442426 1.2057038e-38 318 302
-0.0012168133 0.69400001 -0.075442426 1.1964843e-38 319 302
0 0.69400001 -0.075442426 1.178153e-38 320 302
0.0012168133 0.69400001 -0.075442426 1.1504583e-38 321 302
0.0024336267 0.69400001 -0.075442426 1.1136529e-38 322 302
0.0036504399 0.69400001 -0.075442426 1.1044334e-38 323 302
0.0048672534 0.69400001 -0.075442426 1.0675923e-38 324 302
0.0060840664 0.69400001 -0.075442426 1.076812e-38 325 302
0.0073008798 0.69400001 -0.075442426 1.086211e-38 326 302
0.0085176928 0.69400001 -0.075442426 1.1138696e-38 327 302
0.0097345067 0.69400001 -0.075442426 1.1415269e-38 328 302
0.010982879 0.69599998 -0.075659841 1.15993e-38 329 302
0.0122032 0.69599998 -0.075659841 1.1966996e-38 330 302
0.013423519 0.69599998 -0.075659841 1.1966996e-38 331 302
0.01466488 0.69700003 -0.075768545 1.1966996e-38 332 302
0.015886955 0.69700003 -0.075768545 1.2059192e-38 333 302
0.017109027 0.69700003 -0.075768545 1.2058836e-38 334 302
0.0183574 0.69800001 -0.075877249 1.2058836e-38 335 302
0.019581227 0.69800001 -0.075877249 1.2333984e-38 336 302
0.020864666 0.69999999 -0.076094657 1.2333984e-38 337 302
0.022091998 0.69999999 -0.076094657 1.215139e-38 338 302
0.023352645 0.70099998 -0.076203369 1.2427619e-38 339 302
0.024581732 0.70099998 -0.076203369 1.2611294e-38 340 302
0.025884461 0.70300001 -0.076420791 1.2795325e-38 341 302
0.027117053 0.70300001 -0.076420791 1.2521265e-38 342 302
0.028349647 0.70300001 -0.076420791 1.2613462e-38 343 302
0.029582238 0.70300001 -0.076420791 1.2154667e-38 344 302
0.030858666 0.704 -0.076529488 1.2062471e-38 345 302
0.032093015 0.704 -0.076529488 1.1603679e-38 346 302
-0.024686933 0.704 -0.077763841 1.345552e-38 300 303
-0.023452586 0.704 -0.077763841 1.2349174e-38 301 303
-0.022218239 0.704 -0.077763841 1.3355729e-38 302 303
-0.020983893 0.704 -0.077763841 1.271036e-38 303 303
-0.019749546 0.704 -0.077763841 1.2981884e-38 304 303
-0.018488899 0.70300001 -0.077653378 1.2889688e-38 305 303
-0.017207211 0.70099998 -0.077432454 1.270601e-38 306 303
-0.015978126 0.70099998 -0.077432454 1.2521259e-38 307 303
-0.014749039 0.70099998 -0.077432454 1.2887158e-38 308 303
-0.013500666 0.69999999 -0.077321991 1.2702408e-38 309 303
-0.012238266 0.69800001 -0.077101074 1.2610568e-38 310 303
-0.01101444 0.69800001 -0.077101074 1.2333981e-38 311 303
-0.0097906133 0.69800001 -0.077101074 1.2334334e-38 312 303
-0.0085667865 0.69800001 -0.077101074 1.2334334e-38 313 303
-0.00733244 0.69700003 -0.076990619 1.2425454e-38 314 303
-0.0061103669 0.69700003 -0.076990619 1.2425454e-38 315 303
-0.0048812795 0.69599998 -0.076880157 1.2241788e-38 316 303
-0.0036609597 0.69599998 -0.076880157 1.2149234e-38 317 303
-0.0024406398 0.69599998 -0.076880157 1.2332905e-38 318 303
-0.0012203199 0.69599998 -0.076880157 1.2148874e-38 319 303
0 0.69599998 -0.076880157 1.1965199e-38 320 303
0.0012203199 0.69599998 -0.076880157 1.1688612e-38 321 303
0.0024406398 0.69599998 -0.076880157 1.1321274e-38 322 303
0.0036609597 0.69599998 -0.076880157 1.1229078e-38 323 303
0.0048812795 0.69599998 -0.076880157 1.0860666e-38 324 303
0.0061103669 0.69700003 -0.076990619 1.0952861e-38 325 303
0.00733244 0.69700003 -0.076990619 1.0954659e-38 326 303
0.0085422397 0.69599998 -0.076880157 1.1231246e-38 327 303
0.0097625591 0.69599998 -0.076880157 1.1691135e-38 328 303
0.01099866 0.69700003 -0.076990619 1.1783331e-38 329 303
0.012220734 0.69700003 -0.076990619 1.2059192e-38 330 303
0.013462093 0.69800001 -0.077101074 1.2059192e-38 331 303
0.01466488 0.69700003 -0.076990619 1.2242501e-38 332 303
0.015886955 0.69700003 -0.076990619 1.2242501e-38 333 303
0.017133573 0.69800001 -0.077101074 1.2242504e-38 334 303
0.0183574 0.69800001 -0.077101074 1.2242504e-38 335 303
0.019637333 0.69999999 -0.077321991 1.2333628e-38 336 303
0.020864666 0.69999999 -0.077321991 1.2518018e-38 337 303
0.022091998 0.69999999 -0.077321991 1.2335067e-38 338 303
0.023352645 0.70099998 -0.077432454 1.2427621e-38 339 303
0.024581732 0.70099998 -0.077432454 1.2427621e-38 340 303
0.025884461 0.70300001 -0.077653378 1.2612013e-38 341 303
0.027039904 0.70099998 -0.077432454 1.2153571e-38 342 303
0.028268991 0.70099998 -0.077432454 1.2153571e-38 343 303
0.029582238 0.70300001 -0.077653378 1.1510395e-38 344 303
0.030858666 0.704 -0.077763841 1.1510395e-38 345 303
-0.023452586 0.704 -0.078998186 1.2626841e-38 301 304
-0.022218239 0.704 -0.078998186 1.3359343e-38 302 304
-0.020983893 0.704 -0.078998186 1.2529581e-38 303 304
-0.019749546 0.704 -0.078998186 1.2984408e-38 304 304
-0.018488899 0.70300001 -0.078885972 1.2707821e-38 305 304
-0.017207211 0.70099998 -0.078661539 1.3074789e-38 306 304
-0.015978126 0.70099998 -0.078661539 1.2706008e-38 307 304
-0.014727999 0.69999999 -0.078549333 1.3163387e-38 308 304
-0.013500666 0.69999999 -0.078549333 1.2886802e-38 309 304
-0.012238266 0.69800001 -0.078324907 1.2702764e-38 310 304
-0.01101444 0.69800001 -0.078324907 1.2610568e-38 311 304
-0.0097906133 0.69800001 -0.078324907 1.2609842e-38 312 304
-0.0085667865 0.69800001 -0.078324907 1.2609842e-38 313 304
-0.0073429602 0.69800001 -0.078324907 1.2609842e-38 314 304
-0.0061103669 0.69700003 -0.078212693 1.2609842e-38 315 304
-0.0048882933 0.69700003 -0.078212693 1.2517293e-38 316 304
-0.0036609597 0.69599998 -0.078100473 1.2517293e-38 317 304
-0.0024406398 0.69599998 -0.078100473 1.2241785e-38 318 304
-0.0012220733 0.69700003 -0.078212693 1.2241785e-38 319 304
0 0.69599998 -0.078100473 1.2149587e-38 320 304
0.0012203199 0.69599998 -0.078100473 1.1965196e-38 321 304
0.0024406398 0.69599998 -0.078100473 1.1597135e-38 322 304
0.0036609597 0.69599998 -0.078100473 1.1504939e-38 323 304
0.0048882933 0.69700003 -0.078212693 1.1321271e-38 324 304
0.0061103669 0.69700003 -0.078212693 1.1413467e-38 325 304
0.00733244 0.69700003 -0.078212693 1.1506385e-38 326 304
0.0085545136 0.69700003 -0.078212693 1.1598581e-38 327 304
0.0097765867 0.69700003 -0.078212693 1.1966643e-38 328 304
0.01101444 0.69800001 -0.078324907 1.2058839e-38 329 304
0.012238266 0.69800001 -0.078324907 1.2151388e-38 330 304
0.013462093 0.69800001 -0.078324907 1.2059192e-38 331 304
0.01468592 0.69800001 -0.078324907 1.2518365e-38 332 304
0.015909746 0.69800001 -0.078324907 1.2518365e-38 333 304
0.017182667 0.69999999 -0.078549333 1.2335056e-38 334 304
0.018409999 0.69999999 -0.078549333 1.2335056e-38 335 304
0.019637333 0.69999999 -0.078549333 1.2334347e-38 336 304
0.020894472 0.70099998 -0.078661539 1.2426903e-38 337 304
0.022123558 0.70099998 -0.078661539 1.2335073e-38 338 304
0.023352645 0.70099998 -0.078661539 1.2335073e-38 339 304
0.024581732 0.70099998 -0.078661539 1.1967736e-38 340 304
0.025810819 0.70099998 -0.078661539 1.2060291e-38 341 304
0.027001332 0.69999999 -0.078549333 1.1326704e-38 342 304
0.028228667 0.69999999 -0.078549333 1.1326704e-38 343 304
0.029582238 0.70300001 -0.078885972 1.0684597e-38 344 304
-0.022218239 0.704 -0.080232531 1.2900899e-38 302 305
-0.020983893 0.704 -0.080232531 1.2532475e-38 303 305
-0.019749546 0.704 -0.080232531 1.28962e-38 304 305
-0.018488899 0.70300001 -0.080118567 1.2434862e-38 305 305
-0.017207211 0.70099998 -0.079890631 1.2891139e-38 306 305
-0.015978126 0.70099998 -0.079890631 1.2706389e-38 307 305
-0.014727999 0.69999999 -0.079776667 1.3164117e-38 308 305
-0.013500666 0.69999999 -0.079776667 1.288717e-38 309 305
-0.012273333 0.69999999 -0.079776667 1.2887158e-38 310 305
-0.011045999 0.69999999 -0.079776667 1.2794603e-38 311 305
-0.0098186666 0.69999999 -0.079776667 1.2702764e-38 312 305
-0.0085913334 0.69999999 -0.079776667 1.2610568e-38 313 305
-0.0073429602 0.69800001 -0.079548739 1.2610564e-38 314 305
-0.006119133 0.69800001 -0.079548739 1.2610564e-38 315 305
-0.0048882933 0.69700003 -0.079434767 1.2609848e-38 316 305
-0.00366622 0.69700003 -0.079434767 1.2517293e-38 317 305
-0.0024441467 0.69700003 -0.079434767 1.2333984e-38 318 305
-0.0012220733 0.69700003 -0.079434767 1.2333984e-38 319 305
0 0.69700003 -0.079434767 1.2149956e-38 320 305
0.0012220733 0.69700003 -0.079434767 1.1873729e-38 321 305
0.0024441467 0.69700003 -0.079434767 1.1688983e-38 322 305
0.00366622 0.69700003 -0.079434767 1.1688983e-38 323 305
0.0048953067 0.69800001 -0.079548739 1.1414188e-38 324 305
0.006119133 0.69800001 -0.079548739 1.1506385e-38 325 305
0.0073429602 0.69800001 -0.079548739 1.1965922e-38 326 305
0.0085667865 0.69800001 -0.079548739 1.1965922e-38 327 305
0.0097906133 0.69800001 -0.079548739 1.2242507e-38 328 305
0.01101444 0.69800001 -0.079548739 1.2242507e-38 329 305
0.012238266 0.69800001 -0.079548739 1.23347e-38 330 305
0.013462093 0.69800001 -0.079548739 1.2242504e-38 331 305
0.01468592 0.69800001 -0.079548739 1.2518368e-38 332 305
0.015909746 0.69800001 -0.079548739 1.2518368e-38 333 305
0.017182667 0.69999999 -0.079776667 1.2333981e-38 334 305
0.018409999 0.69999999 -0.079776667 1.2333981e-38 335 305
0.019665385 0.70099998 -0.079890631 1.2424745e-38 336 305
0.020894472 0.70099998 -0.079890631 1.2517299e-38 337 305
0.022123558 0.70099998 -0.079890631 1.2241801e-38 338 305
0.023319334 0.69999999 -0.079776667 1.2241801e-38 339 305
0.024546666 0.69999999 -0.079776667 1.1599325e-38 340 305
0.025700359 0.69800001 -0.079548739 1.1783716e-38 341 305
0.026924185 0.69800001 -0.079548739 1.0682427e-38 342 305
0.028148014 0.69800001 -0.079548739 1.0866817e-38 343 305
-0.016023712 0.70300001 -0.081351154 1.2340853e-38 307 306
-0.014749039 0.70099998 -0.081119716 1.2614534e-38 308 306
-0.013500666 0.69999999 -0.081004001 1.2521979e-38 309 306
-0.012273333 0.69999999 -0.081004001 1.2704208e-38 310 306
-0.011045999 0.69999999 -0.081004001 1.2612013e-38 311 306
-0.0098186666 0.69999999 -0.081004001 1.2887158e-38 312 306
-0.0085913334 0.69999999 -0.081004001 1.2794603e-38 313 306
-0.0073639993 0.69999999 -0.081004001 1.2794238e-38 314 306
-0.006119133 0.69800001 -0.080772556 1.2794238e-38 315 306
-0.0048953067 0.69800001 -0.080772556 1.2702045e-38 316 306
-0.0036714801 0.69800001 -0.080772556 1.2517293e-38 317 306
-0.0024476533 0.69800001 -0.080772556 1.2517293e-38 318 306
-0.0012238267 0.69800001 -0.080772556 1.2517293e-38 319 306
0 0.69800001 -0.080772556 1.2149953e-38 320 306
0.0012238267 0.69800001 -0.080772556 1.1965922e-38 321 306
0.0024476533 0.69800001 -0.080772556 1.1873729e-38 322 306
0.0036819996 0.69999999 -0.081004001 1.1873729e-38 323 306
0.0049093333 0.69999999 -0.081004001 1.1966278e-38 324 306
0.0061366665 0.69999999 -0.081004001 1.1966278e-38 325 306
0.0073429602 0.69800001 -0.080772556 1.2241432e-38 326 306
0.0085667865 0.69800001 -0.080772556 1.2241432e-38 327 306
0.0097906133 0.69800001 -0.080772556 1.2241798e-38 328 306
0.01101444 0.69800001 -0.080772556 1.2241798e-38 329 306
0.012238266 0.69800001 -0.080772556 1.2242507e-38 330 306
