# .PCD v.7 - Point Cloud Data file format
FIELDS x y z rgb imX imY
SIZE 4 4 4 4 4 4
TYPE F F F F F F
COUNT 1 1 1 1 1 1
WIDTH 851
HEIGHT 1
VIEWPOINT 0 0 0 1 0 0 0
POINTS 851
DATA ascii
-0.020014299 0.76099998 0.0026685731 1.6753606e-38 305 238
-0.018680012 0.76099998 0.0026685731 1.6845805e-38 306 238
-0.017300138 0.759 0.00266156 1.6845805e-38 307 238
-0.015969358 0.759 0.00266156 1.6569941e-38 308 238
-0.014638579 0.759 0.00266156 1.6662137e-38 309 238
-0.013272733 0.75700003 0.0026545466 1.6296961e-38 310 238
-0.01194546 0.75700003 0.0026545466 1.6573907e-38 311 238
-0.010618187 0.75700003 0.0026545466 1.6666823e-38 312 238
-0.0092909131 0.75700003 0.0026545466 1.6666823e-38 313 238
-0.0079636406 0.75700003 0.0026545466 1.6756475e-38 314 238
-0.0066363667 0.75700003 0.0026545466 1.6388051e-38 315 238
-0.0053090933 0.75700003 0.0026545466 1.6478443e-38 316 238
-0.0039818203 0.75700003 0.0026545466 1.6570998e-38 317 238
-0.0026545466 0.75700003 0.0026545466 1.6571737e-38 318 238
-0.0013272733 0.75700003 0.0026545466 1.6848323e-38 319 238
0 0.755 0.0026475333 1.6110036e-38 320 238
0.0013237667 0.755 0.0026475333 1.5741254e-38 321 238
0.0026475333 0.755 0.0026475333 1.5648708e-38 322 238
0.0039712996 0.755 0.0026475333 1.5648708e-38 323 238
0.0053231199 0.759 0.00266156 1.5464314e-38 324 238
0.0066363667 0.75700003 0.0026545466 1.509589e-38 325 238
0.0079636406 0.75700003 0.0026545466 1.5186991e-38 326 238
0.0092909131 0.75700003 0.0026545466 1.5094437e-38 327 238
0.010618187 0.75700003 0.0026545466 1.4909328e-38 328 238
0.01197702 0.759 0.00266156 1.4632382e-38 329 238
0.0133078 0.759 0.00266156 1.4354722e-38 330 238
0.014638579 0.759 0.00266156 1.3893744e-38 331 238
0.016011439 0.76099998 0.0026685731 1.3434564e-38 332 238
0.017345725 0.76099998 0.0026685731 1.3250533e-38 333 238
0.018680012 0.76099998 0.0026685731 1.2976454e-38 334 238
0.020014299 0.76099998 0.0026685731 1.2976454e-38 335 238
0.021348584 0.76099998 0.0026685731 1.3066852e-38 336 238
0.02271268 0.76200002 0.00267208 1.2790624e-38 337 238
0.02404872 0.76200002 0.00267208 1.2605882e-38 338 238
0.025518013 0.76599997 0.0026861064 1.2421132e-38 339 238
0.026861066 0.76599997 0.0026861064 1.2236751e-38 340 238
0.02824094 0.76700002 0.0026896133 1.2052358e-38 341 238
0.02966289 0.76899999 0.0026966266 1.14088e-38 342 238
0.031091858 0.77100003 0.0027036399 1.1316605e-38 343 238
0.032569919 0.77399999 0.0027141599 1.0307154e-38 344 238
0.033927001 0.77399999 0.0027141599 1.0307154e-38 345 238
0.03528408 0.77399999 0.0027141599 7.2744724e-39 346 238
0.036641158 0.77399999 0.0027141599 1.1699504e-38 347 238
0.037998237 0.77399999 0.0027141599 1.6874362e-38 348 238
0.039355319 0.77399999 0.0027141599 1.7334981e-38 349 238
-0.040922798 0.778 0.0013640933 1.8254019e-38 290 239
-0.039457016 0.77600002 0.0013605866 1.7147311e-38 291 239
-0.037998237 0.77399999 0.0013570799 1.4466764e-38 292 239
-0.036641158 0.77399999 0.0013570799 1.3729198e-38 293 239
-0.035238493 0.773 0.0013553266 1.5559027e-38 294 239
-0.033883166 0.773 0.0013553266 1.546683e-38 295 239
-0.032443684 0.77100003 0.00135182 1.592526e-38 296 239
-0.031091858 0.77100003 0.00135182 1.574051e-38 297 239
-0.029585747 0.76700002 0.0013448066 1.6015655e-38 298 239
-0.02824094 0.76700002 0.0013448066 1.6015655e-38 299 239
-0.026861066 0.76599997 0.0013430532 1.6198972e-38 300 239
-0.025351444 0.76099998 0.0013342865 1.6198972e-38 301 239
-0.024017159 0.76099998 0.0013342865 1.6199335e-38 302 239
-0.022682872 0.76099998 0.0013342865 1.6384085e-38 303 239
-0.021348584 0.76099998 0.0013342865 1.6475559e-38 304 239
-0.020014299 0.76099998 0.0013342865 1.6751786e-38 305 239
-0.018680012 0.76099998 0.0013342865 1.6751423e-38 306 239
-0.017345725 0.76099998 0.0013342865 1.6843619e-38 307 239
-0.015969358 0.759 0.00133078 1.6476281e-38 308 239
-0.014638579 0.759 0.00133078 1.6660674e-38 309 239
-0.0133078 0.759 0.00133078 1.6294783e-38 310 239
-0.01194546 0.75700003 0.0013272733 1.6294783e-38 311 239
-0.010618187 0.75700003 0.0013272733 1.6570304e-38 312 239
-0.0092909131 0.75700003 0.0013272733 1.6386273e-38 313 239
-0.0079636406 0.75700003 0.0013272733 1.647774e-38 314 239
-0.0066363667 0.75700003 0.0013272733 1.6293348e-38 315 239
-0.0053090933 0.75700003 0.0013272733 1.6660323e-38 316 239
-0.0039818203 0.75700003 0.0013272733 1.693655e-38 317 239
-0.00266156 0.759 0.00133078 1.6663207e-38 318 239
-0.0013272733 0.75700003 0.0013272733 1.6386979e-38 319 239
0 0.755 0.0013237667 1.5648332e-38 320 239
0.0013237667 0.755 0.0013237667 1.5464301e-38 321 239
0.0026545466 0.75700003 0.0013272733 1.5555416e-38 322 239
0.0039818203 0.75700003 0.0013272733 1.5555416e-38 323 239
0.0053090933 0.75700003 0.0013272733 1.5186635e-38 324 239
0.0066363667 0.75700003 0.0013272733 1.4910047e-38 325 239
0.0079636406 0.75700003 0.0013272733 1.4909325e-38 326 239
0.0092909131 0.75700003 0.0013272733 1.481713e-38 327 239
0.010618187 0.75700003 0.0013272733 1.4722782e-38 328 239
0.01197702 0.759 0.00133078 1.4446555e-38 329 239
0.0133078 0.759 0.00133078 1.4078495e-38 330 239
0.014638579 0.759 0.00133078 1.39863e-38 331 239
0.016011439 0.76099998 0.0013342865 1.3344163e-38 332 239
0.017345725 0.76099998 0.0013342865 1.3251967e-38 333 239
0.018680012 0.76099998 0.0013342865 1.2977536e-38 334 239
0.020014299 0.76099998 0.0013342865 1.2793145e-38 335 239
0.021348584 0.76099998 0.0013342865 1.2883186e-38 336 239
0.02271268 0.76200002 0.00133604 1.2790991e-38 337 239
0.02404872 0.76200002 0.00133604 1.2606245e-38 338 239
0.025451386 0.764 0.0013395466 1.2330018e-38 339 239
0.026861066 0.76599997 0.0013430532 1.1961603e-38 340 239
0.02824094 0.76700002 0.0013448066 1.177721e-38 341 239
0.02966289 0.76899999 0.0013483133 1.1225485e-38 342 239
0.031091858 0.77100003 0.00135182 1.113329e-38 343 239
0.032569919 0.77399999 0.0013570799 1.0214959e-38 344 239
0.033927001 0.77399999 0.0013570799 1.0584101e-38 345 239
0.03528408 0.77399999 0.0013570799 8.5626875e-39 346 239
0.036641158 0.77399999 0.0013570799 9.8534263e-39 347 239
0.037998237 0.77399999 0.0013570799 7.8604142e-39 348 239
0.039355319 0.77399999 0.0013570799 1.1271652e-38 349 239
-0.040712398 0.77399999 -0 1.816147e-38 290 240
-0.039355319 0.77399999 -0 1.6778175e-38 291 240
-0.037949149 0.773 -0 1.4649359e-38 292 240
-0.036593821 0.773 -0 1.400399e-38 293 240
-0.035238493 0.773 -0 1.5283518e-38 294 240
-0.033795502 0.77100003 -0 1.5099127e-38 295 240
-0.032443684 0.77100003 -0 1.564868e-38 296 240
-0.031011207 0.76899999 -0 1.564868e-38 297 240
-0.029585747 0.76700002 -0 1.5831279e-38 298 240
-0.02824094 0.76700002 -0 1.5831279e-38 299 240
-0.026861066 0.76599997 -0 1.5740162e-38 300 240
-0.025351444 0.76099998 -0 1.5740162e-38 301 240
-0.024017159 0.76099998 -0 1.5740512e-38 302 240
-0.022682872 0.76099998 -0 1.5832708e-38 303 240
-0.021348584 0.76099998 -0 1.6016026e-38 304 240
-0.020014299 0.76099998 -0 1.6016026e-38 305 240
-0.018680012 0.76099998 -0 1.59242e-38 306 240
-0.017300138 0.759 -0 1.59242e-38 307 240
-0.015969358 0.759 -0 1.5924203e-38 308 240
-0.014638579 0.759 -0 1.6108234e-38 309 240
-0.013272733 0.75700003 -0 1.5924934e-38 310 240
-0.01194546 0.75700003 -0 1.5924934e-38 311 240
-0.010618187 0.75700003 -0 1.5742345e-38 312 240
-0.0092909131 0.75700003 -0 1.5558313e-38 313 240
-0.0079636406 0.75700003 -0 1.5558307e-38 314 240
-0.0066188332 0.755 -0 1.5466112e-38 315 240
-0.0052950666 0.755 -0 1.5648708e-38 316 240
-0.0039818203 0.75700003 -0 1.6109686e-38 317 240
-0.0026545466 0.75700003 -0 1.5926721e-38 318 240
-0.0013272733 0.75700003 -0 1.5557578e-38 319 240
0 0.755 -0 1.5373175e-38 320 240
0.0013237667 0.755 -0 1.5096588e-38 321 240
0.0026545466 0.75700003 -0 1.4911846e-38 322 240
0.0039818203 0.75700003 -0 1.4911846e-38 323 240
0.0053090933 0.75700003 -0 1.4635982e-38 324 240
0.0066363667 0.75700003 -0 1.445159e-38 325 240
0.0079636406 0.75700003 -0 1.4541269e-38 326 240
0.0092909131 0.75700003 -0 1.4264322e-38 327 240
0.010618187 0.75700003 -0 1.4172482e-38 328 240
0.01197702 0.759 -0 1.3895896e-38 329 240
0.0133078 0.759 -0 1.3711508e-38 330 240
0.014638579 0.759 -0 1.3711508e-38 331 240
0.015969358 0.759 -0 1.343564e-38 332 240
0.017300138 0.759 -0 1.343564e-38 333 240
0.018680012 0.76099998 -0 1.3252321e-38 334 240
0.020014299 0.76099998 -0 1.2975735e-38 335 240
0.021348584 0.76099998 -0 1.2883186e-38 336 240
0.02271268 0.76200002 -0 1.2606598e-38 337 240
0.02404872 0.76200002 -0 1.2422214e-38 338 240
0.025451386 0.764 -0 1.2330018e-38 339 240
0.026861066 0.76599997 -0 1.2145268e-38 340 240
0.02824094 0.76700002 -0 1.1960876e-38 341 240
0.02966289 0.76899999 -0 1.1225488e-38 342 240
0.031091858 0.77100003 -0 1.1041097e-38 343 240
0.032527838 0.773 -0 1.0123494e-38 344 240
0.033927001 0.77399999 -0 1.0307886e-38 345 240
0.03528408 0.77399999 -0 9.2091009e-39 346 240
0.036735836 0.77600002 -0 9.6697189e-39 347 240
0.037998237 0.77399999 -0 1.1440887e-38 348 240
0.039355319 0.77399999 -0 1.4114561e-38 349 240
-0.042069476 0.77399999 -0.0013570799 1.8071082e-38 289 241
-0.040712398 0.77399999 -0.0013570799 1.7701208e-38 290 241
-0.039304473 0.773 -0.0013553266 1.6318273e-38 291 241
-0.037949149 0.773 -0.0013553266 1.4648633e-38 292 241
-0.036593821 0.773 -0.0013553266 1.3727037e-38 293 241
-0.03514732 0.77100003 -0.00135182 1.5282439e-38 294 241
-0.033795502 0.77100003 -0.00135182 1.5006212e-38 295 241
-0.032359518 0.76899999 -0.0013483133 1.5647613e-38 296 241
-0.030930554 0.76700002 -0.0013448066 1.5555416e-38 297 241
-0.029547172 0.76599997 -0.0013430532 1.5555416e-38 298 241
-0.028204117 0.76599997 -0.0013430532 1.5555416e-38 299 241
-0.026790932 0.764 -0.0013395466 1.5647964e-38 300 241
-0.02538476 0.76200002 -0.00133604 1.5647964e-38 301 241
-0.024017159 0.76099998 -0.0013342865 1.5923455e-38 302 241
-0.022682872 0.76099998 -0.0013342865 1.5923455e-38 303 241
-0.021348584 0.76099998 -0.0013342865 1.6014574e-38 304 241
-0.020014299 0.76099998 -0.0013342865 1.5830543e-38 305 241
-0.01863092 0.759 -0.00133078 1.6014577e-38 306 241
-0.017300138 0.759 -0.00133078 1.6106773e-38 307 241
-0.015969358 0.759 -0.00133078 1.6106417e-38 308 241
-0.014638579 0.759 -0.00133078 1.6106417e-38 309 241
-0.013272733 0.75700003 -0.0013272733 1.5922753e-38 310 241
-0.01194546 0.75700003 -0.0013272733 1.5922753e-38 311 241
-0.010618187 0.75700003 -0.0013272733 1.5740159e-38 312 241
-0.0092909131 0.75700003 -0.0013272733 1.5647964e-38 313 241
-0.0079425992 0.755 -0.0013237667 1.5464298e-38 314 241
-0.0066188332 0.755 -0.0013237667 1.5464298e-38 315 241
-0.0052950666 0.755 -0.0013237667 1.5647613e-38 316 241
-0.0039818203 0.75700003 -0.0013272733 1.5739809e-38 317 241
-0.0026545466 0.75700003 -0.0013272733 1.5647611e-38 318 241
-0.0013272733 0.75700003 -0.0013272733 1.5463218e-38 319 241
0 0.755 -0.0013237667 1.5462852e-38 320 241
0.0013237667 0.755 -0.0013237667 1.5185906e-38 321 241
0.0026545466 0.75700003 -0.0013272733 1.4820001e-38 322 241
0.0039818203 0.75700003 -0.0013272733 1.4820001e-38 323 241
0.0053090933 0.75700003 -0.0013272733 1.4544137e-38 324 241
0.0066188332 0.755 -0.0013237667 1.445194e-38 325 241
0.0079425992 0.755 -0.0013237667 1.4449423e-38 326 241
0.0092663663 0.755 -0.0013237667 1.4265031e-38 327 241
0.010590133 0.755 -0.0013237667 1.4079918e-38 328 241
0.01194546 0.75700003 -0.0013272733 1.3987363e-38 329 241
0.013272733 0.75700003 -0.0013272733 1.3619661e-38 330 241
0.014638579 0.759 -0.00133078 1.3527107e-38 331 241
0.015969358 0.759 -0.00133078 1.3618233e-38 332 241
0.017300138 0.759 -0.00133078 1.3526038e-38 333 241
0.01863092 0.759 -0.00133078 1.3251251e-38 334 241
0.020014299 0.76099998 -0.0013342865 1.3158697e-38 335 241
0.021348584 0.76099998 -0.0013342865 1.279064e-38 336 241
0.02271268 0.76200002 -0.00133604 1.2422217e-38 337 241
0.02404872 0.76200002 -0.00133604 1.2329665e-38 338 241
0.025451386 0.764 -0.0013395466 1.2145274e-38 339 241
0.026861066 0.76599997 -0.0013430532 1.1777577e-38 340 241
0.02824094 0.76700002 -0.0013448066 1.1501349e-38 341 241
0.02966289 0.76899999 -0.0013483133 1.1133305e-38 342 241
0.031091858 0.77100003 -0.00135182 1.1041109e-38 343 241
0.032527838 0.773 -0.0013553266 9.8476278e-39 344 241
0.033927001 0.77399999 -0.0013570799 1.0400802e-38 345 241
0.03528408 0.77399999 -0.0013570799 9.2969903e-39 346 241
0.036735836 0.77600002 -0.0013605866 1.1510046e-38 347 241
0.037998237 0.77399999 -0.0013570799 1.5210481e-38 348 241
0.039355319 0.77399999 -0.0013570799 1.650122e-38 349 241
-0.042069476 0.77399999 -0.0027141599 1.8071082e-38 289 242
-0.040712398 0.77399999 -0.0027141599 1.7792324e-38 290 242
-0.039304473 0.773 -0.0027106532 1.6317554e-38 291 242
-0.037949149 0.773 -0.0027106532 1.4556072e-38 292 242
-0.036593821 0.773 -0.0027106532 1.3725951e-38 293 242
-0.03514732 0.77100003 -0.0027036399 1.5559381e-38 294 242
-0.033795502 0.77100003 -0.0027036399 1.5006207e-38 295 242
-0.032359518 0.76899999 -0.0026966266 1.5372098e-38 296 242
-0.030930554 0.76700002 -0.0026896133 1.5279903e-38 297 242
-0.029547172 0.76599997 -0.0026861064 1.5279906e-38 298 242
-0.028204117 0.76599997 -0.0026861064 1.518771e-38 299 242
-0.026790932 0.764 -0.0026790933 1.5463571e-38 300 242
-0.02538476 0.76200002 -0.00267208 1.5463571e-38 301 242
-0.024017159 0.76099998 -0.0026685731 1.5555401e-38 302 242
-0.022682872 0.76099998 -0.0026685731 1.5555401e-38 303 242
-0.021348584 0.76099998 -0.0026685731 1.5646517e-38 304 242
-0.020014299 0.76099998 -0.0026685731 1.5738713e-38 305 242
-0.01863092 0.759 -0.00266156 1.5646517e-38 306 242
-0.017300138 0.759 -0.00266156 1.5738713e-38 307 242
-0.015969358 0.759 -0.00266156 1.583019e-38 308 242
-0.014638579 0.759 -0.00266156 1.583019e-38 309 242
-0.013272733 0.75700003 -0.0026545466 1.5646517e-38 310 242
-0.01194546 0.75700003 -0.0026545466 1.5646517e-38 311 242
-0.010590133 0.755 -0.0026475333 1.5555764e-38 312 242
-0.0092663663 0.755 -0.0026475333 1.5371373e-38 313 242
-0.0079425992 0.755 -0.0026475333 1.5463215e-38 314 242
-0.0066188332 0.755 -0.0026475333 1.5463215e-38 315 242
-0.0052950666 0.755 -0.0026475333 1.5280271e-38 316 242
-0.0039712996 0.755 -0.0026475333 1.509624e-38 317 242
-0.0026545466 0.75700003 -0.0026545466 1.5003689e-38 318 242
-0.0013272733 0.75700003 -0.0026545466 1.4819297e-38 319 242
0 0.75700003 -0.0026545466 1.4727452e-38 320 242
0.0013272733 0.75700003 -0.0026545466 1.4727452e-38 321 242
0.0026545466 0.75700003 -0.0026545466 1.4544486e-38 322 242
0.0039818203 0.75700003 -0.0026545466 1.4636683e-38 323 242
0.0053090933 0.75700003 -0.0026545466 1.4453013e-38 324 242
0.0066188332 0.755 -0.0026475333 1.4084231e-38 325 242
0.0079425992 0.755 -0.0026475333 1.444942e-38 326 242
0.0092663663 0.755 -0.0026475333 1.4172832e-38 327 242
0.010590133 0.755 -0.0026475333 1.3712577e-38 328 242
0.01194546 0.75700003 -0.0026545466 1.343599e-38 329 242
0.013272733 0.75700003 -0.0026545466 1.3251246e-38 330 242
0.014638579 0.759 -0.00266156 1.3251246e-38 331 242
0.015969358 0.759 -0.00266156 1.3250533e-38 332 242
0.017300138 0.759 -0.00266156 1.3250533e-38 333 242
0.01863092 0.759 -0.00266156 1.31587e-38 334 242
0.020014299 0.76099998 -0.0026685731 1.3066504e-38 335 242
0.021348584 0.76099998 -0.0026685731 1.2698089e-38 336 242
0.02271268 0.76200002 -0.00267208 1.2329665e-38 337 242
0.02404872 0.76200002 -0.00267208 1.2237116e-38 338 242
0.025451386 0.764 -0.0026790933 1.2052725e-38 339 242
0.026861066 0.76599997 -0.0026861064 1.1776507e-38 340 242
0.02824094 0.76700002 -0.0026896133 1.1684311e-38 341 242
0.02966289 0.76899999 -0.0026966266 1.1041112e-38 342 242
0.031091858 0.77100003 -0.0027036399 1.0948558e-38 343 242
0.032569919 0.77399999 -0.0027141599 9.9405451e-39 344 242
0.033927001 0.77399999 -0.0027141599 1.0401523e-38 345 242
0.03528408 0.77399999 -0.0027141599 9.7579713e-39 346 242
0.036735836 0.77600002 -0.0027211732 1.2062862e-38 347 242
0.038096428 0.77600002 -0.0027211732 1.5946247e-38 348 242
0.039457016 0.77600002 -0.0027211732 1.6960759e-38 349 242
-0.042069476 0.77399999 -0.0040712398 1.8071438e-38 289 243
-0.040712398 0.77399999 -0.0040712398 1.7792324e-38 290 243
-0.039304473 0.773 -0.0040659797 1.6225359e-38 291 243
-0.037949149 0.773 -0.0040659797 1.4280927e-38 292 243
-0.036593821 0.773 -0.0040659797 1.3266775e-38 293 243
-0.03514732 0.77100003 -0.0040554604 1.5283868e-38 294 243
-0.033795502 0.77100003 -0.0040554604 1.4638499e-38 295 243
-0.032359518 0.76899999 -0.0040449398 1.5188057e-38 296 243
-0.030930554 0.76700002 -0.00403442 1.5095862e-38 297 243
-0.029547172 0.76599997 -0.0040291594 1.5095146e-38 298 243
-0.028204117 0.76599997 -0.0040291594 1.5095146e-38 299 243
-0.026790932 0.764 -0.0040186401 1.500331e-38 300 243
-0.02538476 0.76200002 -0.0040081199 1.500331e-38 301 243
-0.024017159 0.76099998 -0.0040028598 1.5187339e-38 302 243
-0.022682872 0.76099998 -0.0040028598 1.5187339e-38 303 243
-0.021348584 0.76099998 -0.0040028598 1.5369932e-38 304 243
-0.020014299 0.76099998 -0.0040028598 1.5554322e-38 305 243
-0.01863092 0.759 -0.0039923396 1.5369932e-38 306 243
-0.017300138 0.759 -0.0039923396 1.5369932e-38 307 243
-0.015969358 0.759 -0.0039923396 1.5553953e-38 308 243
-0.014638579 0.759 -0.0039923396 1.5553953e-38 309 243
-0.013272733 0.75700003 -0.0039818203 1.5370638e-38 310 243
-0.01194546 0.75700003 -0.0039818203 1.5370638e-38 311 243
-0.010590133 0.755 -0.0039712996 1.5278808e-38 312 243
-0.0092663663 0.755 -0.0039712996 1.5278808e-38 313 243
-0.0079425992 0.755 -0.0039712996 1.5095146e-38 314 243
-0.0066188332 0.755 -0.0039712996 1.5095146e-38 315 243
-0.0052950666 0.755 -0.0039712996 1.500296e-38 316 243
-0.0039712996 0.755 -0.0039712996 1.4818929e-38 317 243
-0.0026545466 0.75700003 -0.0039818203 1.4818929e-38 318 243
-0.0013272733 0.75700003 -0.0039818203 1.4726732e-38 319 243
0 0.75700003 -0.0039818203 1.4634887e-38 320 243
0.0013272733 0.75700003 -0.0039818203 1.4634887e-38 321 243
0.0026545466 0.75700003 -0.0039818203 1.445229e-38 322 243
0.0039818203 0.75700003 -0.0039818203 1.4544486e-38 323 243
0.0053090933 0.75700003 -0.0039818203 1.4452293e-38 324 243
0.0066363667 0.75700003 -0.0039818203 1.4267543e-38 325 243
0.0079636406 0.75700003 -0.0039818203 1.417391e-38 326 243
0.0092663663 0.755 -0.0039712996 1.3897321e-38 327 243
0.010590133 0.755 -0.0039712996 1.3528543e-38 328 243
0.01194546 0.75700003 -0.0039818203 1.334415e-38 329 243
0.013272733 0.75700003 -0.0039818203 1.3159406e-38 330 243
0.014638579 0.759 -0.0039923396 1.3159406e-38 331 243
0.015969358 0.759 -0.0039923396 1.3066501e-38 332 243
0.017300138 0.759 -0.0039923396 1.3158697e-38 333 243
0.018680012 0.76099998 -0.0040028598 1.2975388e-38 334 243
0.020014299 0.76099998 -0.0040028598 1.2883192e-38 335 243
0.021348584 0.76099998 -0.0040028598 1.2606248e-38 336 243
0.02271268 0.76200002 -0.0040081199 1.2329662e-38 337 243
0.02404872 0.76200002 -0.0040081199 1.1961606e-38 338 243
0.025451386 0.764 -0.0040186401 1.186941e-38 339 243
0.026861066 0.76599997 -0.0040291594 1.1593192e-38 340 243
0.02824094 0.76700002 -0.00403442 1.1500996e-38 341 243
0.02966289 0.76899999 -0.0040449398 1.0949993e-38 342 243
0.03117251 0.773 -0.0040659797 1.0949993e-38 343 243
0.032527838 0.773 -0.0040659797 1.0033094e-38 344 243
0.033927001 0.77399999 -0.0040712398 1.0494072e-38 345 243
0.03528408 0.77399999 -0.0040712398 1.0218224e-38 346 243
0.036735836 0.77600002 -0.0040817601 1.2523474e-38 347 243
0.038096428 0.77600002 -0.0040817601 1.6223188e-38 348 243
0.039457016 0.77600002 -0.0040817601 1.7237339e-38 349 243
-0.042069476 0.77399999 -0.0054283198 1.8163636e-38 289 244
-0.040712398 0.77399999 -0.0054283198 1.7609012e-38 290 244
-0.039304473 0.773 -0.0054213065 1.6133882e-38 291 244
-0.037949149 0.773 -0.0054213065 1.4005059e-38 292 244
-0.036499143 0.77100003 -0.0054072798 1.2899071e-38 293 244
-0.03514732 0.77100003 -0.0054072798 1.5097323e-38 294 244
-0.033707831 0.76899999 -0.0053932532 1.4821095e-38 295 244
-0.032359518 0.76899999 -0.0053932532 1.5095865e-38 296 244
-0.030930554 0.76700002 -0.0053792265 1.500331e-38 297 244
-0.029547172 0.76599997 -0.0053722127 1.5002946e-38 298 244
-0.028204117 0.76599997 -0.0053722127 1.5002946e-38 299 244
-0.026790932 0.764 -0.0053581866 1.4819634e-38 300 244
-0.02538476 0.76200002 -0.0053441599 1.4819634e-38 301 244
-0.024017159 0.76099998 -0.0053371461 1.5186258e-38 302 244
-0.022682872 0.76099998 -0.0053371461 1.5278455e-38 303 244
-0.021348584 0.76099998 -0.0053371461 1.5278091e-38 304 244
-0.020014299 0.76099998 -0.0053371461 1.5185537e-38 305 244
-0.018680012 0.76099998 -0.0053371461 1.5368852e-38 306 244
-0.017300138 0.759 -0.0053231199 1.518482e-38 307 244
-0.015969358 0.759 -0.0053231199 1.5369208e-38 308 244
-0.014600007 0.75700003 -0.0053090933 1.5185176e-38 309 244
-0.013272733 0.75700003 -0.0053090933 1.518589e-38 310 244
-0.01194546 0.75700003 -0.0053090933 1.518589e-38 311 244
-0.010590133 0.755 -0.0052950666 1.5186611e-38 312 244
-0.0092663663 0.755 -0.0052950666 1.5186611e-38 313 244
-0.0079425992 0.755 -0.0052950666 1.5185906e-38 314 244
-0.0066188332 0.755 -0.0052950666 1.5001874e-38 315 244
-0.0052950666 0.755 -0.0052950666 1.4910044e-38 316 244
-0.0039712996 0.755 -0.0052950666 1.4910044e-38 317 244
-0.0026545466 0.75700003 -0.0053090933 1.4634536e-38 318 244
-0.0013272733 0.75700003 -0.0053090933 1.4634536e-38 319 244
0 0.75700003 -0.0053090933 1.4451218e-38 320 244
0.0013272733 0.75700003 -0.0053090933 1.4451218e-38 321 244
0.0026545466 0.75700003 -0.0053090933 1.4360097e-38 322 244
0.0039818203 0.75700003 -0.0053090933 1.4452293e-38 323 244
0.0053090933 0.75700003 -0.0053090933 1.4176429e-38 324 244
0.0066363667 0.75700003 -0.0053090933 1.4084234e-38 325 244
0.0079636406 0.75700003 -0.0053090933 1.3806924e-38 326 244
0.0092663663 0.755 -0.0052950666 1.3714728e-38 327 244
0.010590133 0.755 -0.0052950666 1.3437064e-38 328 244
0.011913899 0.755 -0.0052950666 1.3252671e-38 329 244
0.013272733 0.75700003 -0.0053090933 1.2884614e-38 330 244
0.014600007 0.75700003 -0.0053090933 1.2608029e-38 331 244
0.015969358 0.759 -0.0053231199 1.2790991e-38 332 244
0.017300138 0.759 -0.0053231199 1.2790991e-38 333 244
0.018680012 0.76099998 -0.0053371461 1.2790638e-38 334 244
0.020014299 0.76099998 -0.0053371461 1.2698441e-38 335 244
0.02137664 0.76200002 -0.0053441599 1.2421861e-38 336 244
0.02271268 0.76200002 -0.0053441599 1.2237469e-38 337 244
0.02404872 0.76200002 -0.0053441599 1.1870132e-38 338 244
0.025451386 0.764 -0.0053581866 1.1777577e-38 339 244
0.026861066 0.76599997 -0.0053722127 1.1226207e-38 340 244
0.02824094 0.76700002 -0.0053792265 1.1134011e-38 341 244
0.02966289 0.76899999 -0.0053932532 1.0857797e-38 342 244
0.031091858 0.77100003 -0.0054072798 1.0949993e-38 343 244
0.032527838 0.773 -0.0054213065 1.0309312e-38 344 244
0.033927001 0.77399999 -0.0054283198 1.0585899e-38 345 244
0.03528408 0.77399999 -0.0054283198 1.1232733e-38 346 244
0.036735836 0.77600002 -0.0054423464 1.3445068e-38 347 244
0.038096428 0.77600002 -0.0054423464 1.6776368e-38 348 244
0.039457016 0.77600002 -0.0054423464 1.7329183e-38 349 244
-0.042069476 0.77399999 -0.0067853997 1.8346949e-38 289 245
-0.040712398 0.77399999 -0.0067853997 1.779268e-38 290 245
-0.039304473 0.773 -0.0067766332 1.6225356e-38 291 245
-0.037949149 0.773 -0.0067766332 1.4005415e-38 292 245
-0.036499143 0.77100003 -0.0067590997 1.2530285e-38 293 245
-0.03514732 0.77100003 -0.0067590997 1.4821817e-38 294 245
-0.033707831 0.76899999 -0.0067415666 1.4637067e-38 295 245
-0.03227536 0.76700002 -0.006724033 1.4820001e-38 296 245
-0.030930554 0.76700002 -0.006724033 1.4635608e-38 297 245
-0.029547172 0.76599997 -0.0067152665 1.4727082e-38 298 245
-0.028204117 0.76599997 -0.0067152665 1.4634887e-38 299 245
-0.026790932 0.764 -0.006697733 1.4634533e-38 300 245
-0.02538476 0.76200002 -0.0066801999 1.4634533e-38 301 245
-0.024017159 0.76099998 -0.0066714329 1.4726729e-38 302 245
-0.022682872 0.76099998 -0.0066714329 1.4726729e-38 303 245
-0.021348584 0.76099998 -0.0066714329 1.4909676e-38 304 245
-0.020014299 0.76099998 -0.0066714329 1.4909676e-38 305 245
-0.018680012 0.76099998 -0.0066714329 1.5092272e-38 306 245
-0.017300138 0.759 -0.0066538998 1.5000076e-38 307 245
-0.015969358 0.759 -0.0066538998 1.5092628e-38 308 245
-0.014600007 0.75700003 -0.0066363667 1.5000073e-38 309 245
-0.013272733 0.75700003 -0.0066363667 1.4818555e-38 310 245
-0.01194546 0.75700003 -0.0066363667 1.4818555e-38 311 245
-0.010590133 0.755 -0.0066188332 1.4909676e-38 312 245
-0.0092663663 0.755 -0.0066188332 1.4909676e-38 313 245
-0.0079425992 0.755 -0.0066188332 1.4818202e-38 314 245
-0.0066188332 0.755 -0.0066188332 1.4818202e-38 315 245
-0.0052950666 0.755 -0.0066188332 1.4634533e-38 316 245
-0.0039712996 0.755 -0.0066188332 1.4634533e-38 317 245
-0.0026475333 0.755 -0.0066188332 1.4267193e-38 318 245
-0.0013237667 0.755 -0.0066188332 1.4359388e-38 319 245
0 0.75700003 -0.0066363667 1.4176432e-38 320 245
0.0013272733 0.75700003 -0.0066363667 1.4176432e-38 321 245
0.0026545466 0.75700003 -0.0066363667 1.4177148e-38 322 245
0.0039818203 0.75700003 -0.0066363667 1.4177148e-38 323 245
0.0053090933 0.75700003 -0.0066363667 1.4084597e-38 324 245
0.0066363667 0.75700003 -0.0066363667 1.380837e-38 325 245
0.0079636406 0.75700003 -0.0066363667 1.3623611e-38 326 245
0.0092663663 0.755 -0.0066188332 1.3438861e-38 327 245
0.010590133 0.755 -0.0066188332 1.3253751e-38 328 245
0.011913899 0.755 -0.0066188332 1.3069359e-38 329 245
0.013272733 0.75700003 -0.0066363667 1.2701299e-38 330 245
0.014600007 0.75700003 -0.0066363667 1.2609104e-38 331 245
0.015969358 0.759 -0.0066538998 1.2515479e-38 332 245
0.017345725 0.76099998 -0.0066714329 1.2515479e-38 333 245
0.018680012 0.76099998 -0.0066714329 1.242258e-38 334 245
0.020014299 0.76099998 -0.0066714329 1.2330384e-38 335 245
0.02137664 0.76200002 -0.0066801999 1.2237832e-38 336 245
0.022772292 0.764 -0.006697733 1.1961606e-38 337 245
0.024111839 0.764 -0.006697733 1.1777577e-38 338 245
0.025451386 0.764 -0.006697733 1.1501349e-38 339 245
0.026861066 0.76599997 -0.0067152665 1.1133655e-38 340 245
0.02824094 0.76700002 -0.006724033 1.0949264e-38 341 245
0.02966289 0.76899999 -0.0067415666 1.0582652e-38 342 245
0.031091858 0.77100003 -0.0067590997 1.0767044e-38 343 245
0.032527838 0.773 -0.0067766332 1.0493703e-38 344 245
0.033883166 0.773 -0.0067766332 1.0862126e-38 345 245
0.03528408 0.77399999 -0.0067853997 1.1786625e-38 346 245
0.036735836 0.77600002 -0.0068029333 1.4460299e-38 347 245
0.038096428 0.77600002 -0.0068029333 1.705332e-38 348 245
0.039457016 0.77600002 -0.0068029333 1.7145517e-38 349 245
-0.042178184 0.77600002 -0.0081635201 1.8162915e-38 289 246
-0.040712398 0.77399999 -0.0081424797 1.7977069e-38 290 246
-0.039355319 0.77399999 -0.0081424797 1.6501939e-38 291 246
-0.037949149 0.773 -0.0081319595 1.4004693e-38 292 246
-0.036499143 0.77100003 -0.0081109209 1.2345172e-38 293 246
-0.03514732 0.77100003 -0.0081109209 1.463707e-38 294 246
-0.033707831 0.76899999 -0.0080898795 1.4360843e-38 295 246
-0.03227536 0.76700002 -0.00806884 1.4635608e-38 296 246
-0.030930554 0.76700002 -0.00806884 1.4451218e-38 297 246
-0.029547172 0.76599997 -0.0080583189 1.4726356e-38 298 246
-0.028204117 0.76599997 -0.0080583189 1.4542325e-38 299 246
-0.026790932 0.764 -0.0080372803 1.4541969e-38 300 246
-0.02538476 0.76200002 -0.0080162399 1.4449774e-38 301 246
-0.024017159 0.76099998 -0.0080057196 1.4633442e-38 302 246
-0.022682872 0.76099998 -0.0080057196 1.4725637e-38 303 246
-0.021348584 0.76099998 -0.0080057196 1.4908584e-38 304 246
-0.020014299 0.76099998 -0.0080057196 1.4908584e-38 305 246
-0.01863092 0.759 -0.0079846792 1.4907508e-38 306 246
-0.017300138 0.759 -0.0079846792 1.4907508e-38 307 246
-0.015927281 0.75700003 -0.0079636406 1.4816031e-38 308 246
-0.014600007 0.75700003 -0.0079636406 1.4816031e-38 309 246
-0.013272733 0.75700003 -0.0079636406 1.4633436e-38 310 246
-0.01194546 0.75700003 -0.0079636406 1.4633436e-38 311 246
-0.010590133 0.755 -0.0079425992 1.4724919e-38 312 246
-0.0092663663 0.755 -0.0079425992 1.4724919e-38 313 246
-0.0079425992 0.755 -0.0079425992 1.4450492e-38 314 246
-0.0066188332 0.755 -0.0079425992 1.4450492e-38 315 246
-0.0052950666 0.755 -0.0079425992 1.4359376e-38 316 246
-0.0039712996 0.755 -0.0079425992 1.426718e-38 317 246
-0.0026475333 0.755 -0.0079425992 1.4267896e-38 318 246
-0.0013237667 0.755 -0.0079425992 1.4360092e-38 319 246
0 0.75700003 -0.0079636406 1.417678e-38 320 246
0.0013272733 0.75700003 -0.0079636406 1.417678e-38 321 246
0.0026545466 0.75700003 -0.0079636406 1.3994186e-38 322 246
0.0039818203 0.75700003 -0.0079636406 1.3901991e-38 323 246
0.0053090933 0.75700003 -0.0079636406 1.3900193e-38 324 246
0.0066188332 0.755 -0.0079425992 1.3807996e-38 325 246
0.0079425992 0.755 -0.0079425992 1.3529978e-38 326 246
0.0092663663 0.755 -0.0079425992 1.3345947e-38 327 246
0.010590133 0.755 -0.0079425992 1.2977889e-38 328 246
0.01194546 0.75700003 -0.0079636406 1.2885693e-38 329 246
0.013272733 0.75700003 -0.0079636406 1.2700224e-38 330 246
0.014638579 0.759 -0.0079846792 1.2608029e-38 331 246
0.015969358 0.759 -0.0079846792 1.2423636e-38 332 246
0.017345725 0.76099998 -0.0080057196 1.233144e-38 333 246
0.018680012 0.76099998 -0.0080057196 1.2330015e-38 334 246
0.020014299 0.76099998 -0.0080057196 1.223782e-38 335 246
0.02137664 0.76200002 -0.0080162399 1.2145274e-38 336 246
0.022772292 0.764 -0.0080372803 1.2053078e-38 337 246
0.024111839 0.764 -0.0080372803 1.1502421e-38 338 246
0.025518013 0.76599997 -0.0080583189 1.1410225e-38 339 246
0.026861066 0.76599997 -0.0080583189 1.0949617e-38 340 246
0.02824094 0.76700002 -0.00806884 1.0765586e-38 341 246
0.02966289 0.76899999 -0.0080898795 1.0398258e-38 342 246
0.031091858 0.77100003 -0.0081109209 1.0675204e-38 343 246
0.032527838 0.773 -0.0081319595 1.0584098e-38 344 246
0.033883166 0.773 -0.0081319595 1.095288e-38 345 246
0.03528408 0.77399999 -0.0081424797 1.2065733e-38 346 246
0.036641158 0.77399999 -0.0081424797 1.5108189e-38 347 246
0.038096428 0.77600002 -0.0081635201 1.7329551e-38 348 246
-0.0408176 0.77600002 -0.009524107 1.7886308e-38 290 247
-0.039355319 0.77399999 -0.0094995592 1.6503374e-38 291 247
-0.037949149 0.773 -0.0094872871 1.39125e-38 292 247
-0.036499143 0.77100003 -0.0094627403 1.225262e-38 293 247
-0.03514732 0.77100003 -0.0094627403 1.4453757e-38 294 247
-0.033707831 0.76899999 -0.0094381925 1.4084976e-38 295 247
-0.03227536 0.76700002 -0.0094136465 1.4176432e-38 296 247
-0.030930554 0.76700002 -0.0094136465 1.3991682e-38 297 247
-0.029547172 0.76599997 -0.0094013726 1.4174629e-38 298 247
-0.028204117 0.76599997 -0.0094013726 1.4174629e-38 299 247
-0.026790932 0.764 -0.0093768267 1.4357944e-38 300 247
-0.02538476 0.76200002 -0.0093522798 1.4173913e-38 301 247
-0.024017159 0.76099998 -0.0093400059 1.4357225e-38 302 247
-0.022682872 0.76099998 -0.0093400059 1.4265028e-38 303 247
-0.021348584 0.76099998 -0.0093400059 1.4265381e-38 304 247
-0.020014299 0.76099998 -0.0093400059 1.4449774e-38 305 247
-0.01863092 0.759 -0.00931546 1.4356858e-38 306 247
-0.017300138 0.759 -0.00931546 1.4356858e-38 307 247
-0.015927281 0.75700003 -0.0092909131 1.4265028e-38 308 247
-0.014561433 0.755 -0.0092663663 1.4265028e-38 309 247
-0.013237666 0.755 -0.0092663663 1.4265028e-38 310 247
-0.011913899 0.755 -0.0092663663 1.4357225e-38 311 247
-0.010590133 0.755 -0.0092663663 1.4357944e-38 312 247
-0.0092663663 0.755 -0.0092663663 1.4357944e-38 313 247
-0.0079425992 0.755 -0.0092663663 1.4450495e-38 314 247
-0.0066188332 0.755 -0.0092663663 1.4450495e-38 315 247
-0.0053090933 0.75700003 -0.0092909131 1.4267896e-38 316 247
-0.0039818203 0.75700003 -0.0092909131 1.4267896e-38 317 247
-0.0026545466 0.75700003 -0.0092909131 1.4084581e-38 318 247
-0.0013272733 0.75700003 -0.0092909131 1.4177136e-38 319 247
0 0.75700003 -0.0092909131 1.40853e-38 320 247
0.0013272733 0.75700003 -0.0092909131 1.4177854e-38 321 247
0.0026545466 0.75700003 -0.0092909131 1.3809795e-38 322 247
0.0039818203 0.75700003 -0.0092909131 1.3717599e-38 323 247
0.0053090933 0.75700003 -0.0092909131 1.3624329e-38 324 247
0.0066188332 0.755 -0.0092663663 1.3347382e-38 325 247
0.0079425992 0.755 -0.0092663663 1.3161919e-38 326 247
0.0092663663 0.755 -0.0092663663 1.2977886e-38 327 247
0.010590133 0.755 -0.0092663663 1.2701665e-38 328 247
0.01194546 0.75700003 -0.0092909131 1.2517634e-38 329 247
0.013272733 0.75700003 -0.0092909131 1.2333603e-38 330 247
0.014638579 0.759 -0.00931546 1.2057375e-38 331 247
0.015969358 0.759 -0.00931546 1.2148128e-38 332 247
0.017345725 0.76099998 -0.0093400059 1.2148128e-38 333 247
0.018680012 0.76099998 -0.0093400059 1.2054507e-38 334 247
0.020014299 0.76099998 -0.0093400059 1.1962312e-38 335 247
0.02137664 0.76200002 -0.0093522798 1.186941e-38 336 247
0.022772292 0.764 -0.0093768267 1.1777213e-38 337 247
0.024111839 0.764 -0.0093768267 1.1501702e-38 338 247
0.025518013 0.76599997 -0.0094013726 1.1316952e-38 339 247
0.026896132 0.76700002 -0.0094136465 1.1041813e-38 340 247
0.02824094 0.76700002 -0.0094136465 1.0765586e-38 341 247
0.02966289 0.76899999 -0.0094381925 1.0490103e-38 342 247
0.031091858 0.77100003 -0.0094627403 1.0674495e-38 343 247
0.032527838 0.773 -0.0094872871 1.0492268e-38 344 247
0.033883166 0.773 -0.0094872871 1.0677018e-38 345 247
0.035238493 0.773 -0.0094872871 1.2896933e-38 346 247
0.036641158 0.77399999 -0.0094995592 1.5570606e-38 347 247
0.037998237 0.77399999 -0.0094995592 1.6685264e-38 348 247
-0.0408176 0.77600002 -0.010884693 1.7978871e-38 290 248
-0.039355319 0.77399999 -0.01085664 1.6688132e-38 291 248
-0.037949149 0.773 -0.010842613 1.3821751e-38 292 248
-0.036499143 0.77100003 -0.01081456 1.2254065e-38 293 248
-0.035056144 0.76899999 -0.010786506 1.3719439e-38 294 248
-0.033620168 0.76700002 -0.010758453 1.3534689e-38 295 248
-0.03227536 0.76700002 -0.010758453 1.4175723e-38 296 248
-0.030930554 0.76700002 -0.010758453 1.3899136e-38 297 248
-0.029547172 0.76599997 -0.010744425 1.4265028e-38 298 248
-0.028204117 0.76599997 -0.010744425 1.4172832e-38 299 248
-0.026790932 0.764 -0.010716373 1.3989514e-38 300 248
-0.025351444 0.76099998 -0.010674292 1.3989514e-38 301 248
-0.024017159 0.76099998 -0.010674292 1.4172461e-38 302 248
-0.022682872 0.76099998 -0.010674292 1.4172461e-38 303 248
-0.021348584 0.76099998 -0.010674292 1.4263577e-38 304 248
-0.020014299 0.76099998 -0.010674292 1.4448327e-38 305 248
-0.01863092 0.759 -0.01064624 1.4447974e-38 306 248
-0.017300138 0.759 -0.01064624 1.4263583e-38 307 248
-0.015927281 0.75700003 -0.010618187 1.4354704e-38 308 248
-0.014561433 0.755 -0.010590133 1.4354704e-38 309 248
-0.013237666 0.755 -0.010590133 1.4172113e-38 310 248
-0.011913899 0.755 -0.010590133 1.4264309e-38 311 248
-0.010590133 0.755 -0.010590133 1.4081716e-38 312 248
-0.0092663663 0.755 -0.010590133 1.4081716e-38 313 248
-0.0079425992 0.755 -0.010590133 1.4082433e-38 314 248
-0.0066188332 0.755 -0.010590133 1.4174629e-38 315 248
-0.0052950666 0.755 -0.010590133 1.3992388e-38 316 248
-0.0039818203 0.75700003 -0.010618187 1.4084584e-38 317 248
-0.0026545466 0.75700003 -0.010618187 1.399346e-38 318 248
-0.0013272733 0.75700003 -0.010618187 1.4177852e-38 319 248
0 0.75700003 -0.010618187 1.3902341e-38 320 248
0.0013272733 0.75700003 -0.010618187 1.3810145e-38 321 248
0.0026545466 0.75700003 -0.010618187 1.3717599e-38 322 248
0.0039818203 0.75700003 -0.010618187 1.3625045e-38 323 248
0.0053090933 0.75700003 -0.010618187 1.3256268e-38 324 248
0.0066188332 0.755 -0.010590133 1.2979681e-38 325 248
0.0079425992 0.755 -0.010590133 1.288569e-38 326 248
0.0092663663 0.755 -0.010590133 1.2793495e-38 327 248
0.010590133 0.755 -0.010590133 1.2700946e-38 328 248
0.01194546 0.75700003 -0.010618187 1.2516555e-38 329 248
0.013272733 0.75700003 -0.010618187 1.2148847e-38 330 248
0.014638579 0.759 -0.01064624 1.2148847e-38 331 248
0.015969358 0.759 -0.01064624 1.2238892e-38 332 248
0.017345725 0.76099998 -0.010674292 1.1962306e-38 333 248
0.018680012 0.76099998 -0.010674292 1.2053075e-38 334 248
0.0200406 0.76200002 -0.01068832 1.1960878e-38 335 248
0.02137664 0.76200002 -0.01068832 1.1593898e-38 336 248
0.022772292 0.764 -0.010716373 1.1501702e-38 337 248
0.024111839 0.764 -0.010716373 1.140987e-38 338 248
0.025518013 0.76599997 -0.010744425 1.1133643e-38 339 248
0.026896132 0.76700002 -0.010758453 1.0582637e-38 340 248
0.02824094 0.76700002 -0.010758453 1.0582637e-38 341 248
0.02966289 0.76899999 -0.010786506 1.0674132e-38 342 248
0.031091858 0.77100003 -0.01081456 1.0858163e-38 343 248
0.032527838 0.773 -0.010842613 1.0491554e-38 344 248
0.033883166 0.773 -0.010842613 1.1136923e-38 345 248
0.035238493 0.773 -0.010842613 1.3451554e-38 346 248
0.036641158 0.77399999 -0.01085664 1.5572054e-38 347 248
0.037998237 0.77399999 -0.01085664 1.5949142e-38 348 248
-0.039355319 0.77399999 -0.01221372 1.7424618e-38 291 249
-0.037949149 0.773 -0.012197939 1.4650079e-38 292 249
-0.036499143 0.77100003 -0.01216638 1.2621774e-38 293 249
-0.035056144 0.76899999 -0.012134819 1.3627607e-38 294 249
-0.033620168 0.76700002 -0.01210326 1.3535411e-38 295 249
-0.03227536 0.76700002 -0.01210326 1.3808741e-38 296 249
-0.030930554 0.76700002 -0.01210326 1.343996e-38 297 249
-0.029547172 0.76599997 -0.012087479 1.37133e-38 298 249
-0.028204117 0.76599997 -0.012087479 1.3621105e-38 299 249
-0.026790932 0.764 -0.01205592 1.3621458e-38 300 249
-0.025351444 0.76099998 -0.012008579 1.3621458e-38 301 249
-0.024017159 0.76099998 -0.012008579 1.3621458e-38 302 249
-0.022682872 0.76099998 -0.012008579 1.3621458e-38 303 249
-0.021348584 0.76099998 -0.012008579 1.3896247e-38 304 249
-0.020014299 0.76099998 -0.012008579 1.3896247e-38 305 249
-0.01863092 0.759 -0.01197702 1.3987366e-38 306 249
-0.017300138 0.759 -0.01197702 1.4079562e-38 307 249
-0.015927281 0.75700003 -0.01194546 1.3894817e-38 308 249
-0.014561433 0.755 -0.011913899 1.3894817e-38 309 249
-0.013237666 0.755 -0.011913899 1.3620754e-38 310 249
-0.011913899 0.755 -0.011913899 1.3620754e-38 311 249
-0.010590133 0.755 -0.011913899 1.3438158e-38 312 249
-0.0092663663 0.755 -0.011913899 1.3438158e-38 313 249
-0.0079425992 0.755 -0.011913899 1.3622902e-38 314 249
-0.0066188332 0.755 -0.011913899 1.3622902e-38 315 249
-0.0052950666 0.755 -0.011913899 1.3716527e-38 316 249
-0.0039818203 0.75700003 -0.01194546 1.3992754e-38 317 249
-0.0026685731 0.76099998 -0.012008579 1.362648e-38 318 249
-0.00133078 0.759 -0.01197702 1.3810511e-38 319 249
0 0.75700003 -0.01194546 1.3901988e-38 320 249
0.0013272733 0.75700003 -0.01194546 1.3809792e-38 321 249
0.0026545466 0.75700003 -0.01194546 1.3717597e-38 322 249
0.0039818203 0.75700003 -0.01194546 1.3441368e-38 323 249
0.0053090933 0.75700003 -0.01194546 1.3256621e-38 324 249
0.0066188332 0.755 -0.011913899 1.2979676e-38 325 249
0.0079425992 0.755 -0.011913899 1.2703097e-38 326 249
0.0092663663 0.755 -0.011913899 1.2426151e-38 327 249
0.010590133 0.755 -0.011913899 1.2332887e-38 328 249
0.01194546 0.75700003 -0.01194546 1.224069e-38 329 249
0.0133078 0.759 -0.01197702 1.2147775e-38 330 249
0.014638579 0.759 -0.01197702 1.2147775e-38 331 249
0.016011439 0.76099998 -0.012008579 1.223782e-38 332 249
0.017345725 0.76099998 -0.012008579 1.2053427e-38 333 249
0.018680012 0.76099998 -0.012008579 1.177721e-38 334 249
0.0200406 0.76200002 -0.01202436 1.1869407e-38 335 249
0.02137664 0.76200002 -0.01202436 1.1501349e-38 336 249
0.022772292 0.764 -0.01205592 1.1409153e-38 337 249
0.024111839 0.764 -0.01205592 1.1134009e-38 338 249
0.025518013 0.76599997 -0.012087479 1.1041813e-38 339 249
0.026896132 0.76700002 -0.01210326 1.0674835e-38 340 249
0.02824094 0.76700002 -0.01210326 1.0674835e-38 341 249
0.02966289 0.76899999 -0.012134819 1.0767046e-38 342 249
0.031091858 0.77100003 -0.01216638 1.1043274e-38 343 249
0.032527838 0.773 -0.012197939 1.0493716e-38 344 249
0.033883166 0.773 -0.012197939 1.1231281e-38 345 249
0.035238493 0.773 -0.012197939 1.3637751e-38 346 249
0.036593821 0.773 -0.012197939 1.5481663e-38 347 249
-0.039355319 0.77399999 -0.013570799 1.7885955e-38 291 250
-0.037998237 0.77399999 -0.013570799 1.5390164e-38 292 250
-0.036499143 0.77100003 -0.013518199 1.2440264e-38 293 250
-0.03514732 0.77100003 -0.013518199 1.3350674e-38 294 250
-0.033620168 0.76700002 -0.013448066 1.3534705e-38 295 250
-0.032233275 0.76599997 -0.013430533 1.3808035e-38 296 250
-0.030890226 0.76599997 -0.013430533 1.3347058e-38 297 250
-0.029547172 0.76599997 -0.013430533 1.3438514e-38 298 250
-0.028204117 0.76599997 -0.013430533 1.3253764e-38 299 250
-0.026790932 0.764 -0.013395466 1.3345597e-38 300 250
-0.02538476 0.76200002 -0.0133604 1.3345597e-38 301 250
-0.024017159 0.76099998 -0.013342866 1.3528912e-38 302 250
-0.022682872 0.76099998 -0.013342866 1.3528912e-38 303 250
-0.021348584 0.76099998 -0.013342866 1.3712224e-38 304 250
-0.020014299 0.76099998 -0.013342866 1.3712224e-38 305 250
-0.018680012 0.76099998 -0.013342866 1.3711505e-38 306 250
-0.017300138 0.759 -0.0133078 1.3803701e-38 307 250
-0.015927281 0.75700003 -0.013272733 1.352784e-38 308 250
-0.014600007 0.75700003 -0.013272733 1.352784e-38 309 250
-0.013237666 0.755 -0.013237666 1.3344893e-38 310 250
-0.011913899 0.755 -0.013237666 1.3344893e-38 311 250
-0.010590133 0.755 -0.013237666 1.3345965e-38 312 250
-0.0092663663 0.755 -0.013237666 1.325377e-38 313 250
-0.0079425992 0.755 -0.013237666 1.3163003e-38 314 250
-0.0066188332 0.755 -0.013237666 1.343923e-38 315 250
-0.0052950666 0.755 -0.013237666 1.3349187e-38 316 250
-0.0039818203 0.75700003 -0.013272733 1.3533578e-38 317 250
-0.00266156 0.759 -0.0133078 1.3626127e-38 318 250
-0.00133078 0.759 -0.0133078 1.3626127e-38 319 250
0 0.759 -0.0133078 1.3626127e-38 320 250
0.00133078 0.759 -0.0133078 1.3533931e-38 321 250
0.00266156 0.759 -0.0133078 1.3534284e-38 322 250
0.0039923396 0.759 -0.0133078 1.3349533e-38 323 250
0.0053090933 0.75700003 -0.013272733 1.2981464e-38 324 250
0.0066363667 0.75700003 -0.013272733 1.2889268e-38 325 250
0.0079636406 0.75700003 -0.013272733 1.2702012e-38 326 250
0.0092909131 0.75700003 -0.013272733 1.2425786e-38 327 250
0.010618187 0.75700003 -0.013272733 1.2239971e-38 328 250
0.01197702 0.759 -0.0133078 1.2239971e-38 329 250
0.0133078 0.759 -0.0133078 1.2055589e-38 330 250
0.014638579 0.759 -0.0133078 1.1779363e-38 331 250
0.016011439 0.76099998 -0.013342866 1.1870482e-38 332 250
0.017345725 0.76099998 -0.013342866 1.1778286e-38 333 250
0.01870456 0.76200002 -0.0133604 1.1593901e-38 334 250
0.0200406 0.76200002 -0.0133604 1.1593901e-38 335 250
0.021432746 0.764 -0.013395466 1.1226204e-38 336 250
0.022772292 0.764 -0.013395466 1.1041813e-38 337 250
0.024111839 0.764 -0.013395466 1.0858145e-38 338 250
0.025518013 0.76599997 -0.013430533 1.0858145e-38 339 250
0.026896132 0.76700002 -0.013448066 1.0491886e-38 340 250
0.028314579 0.76899999 -0.013483133 1.0675917e-38 341 250
0.02966289 0.76899999 -0.013483133 1.0401508e-38 342 250
0.031212838 0.77399999 -0.013570799 1.0862126e-38 343 250
0.032527838 0.773 -0.013553266 1.0680634e-38 344 250
0.033883166 0.773 -0.013553266 1.1694427e-38 345 250
0.035238493 0.773 -0.013553266 1.3914705e-38 346 250
0.036593821 0.773 -0.013553266 1.5574225e-38 347 250
-0.039818201 0.75700003 -0.014600007 1.7978518e-38 290 251
-0.038490929 0.75700003 -0.014600007 1.7794125e-38 291 251
-0.037016369 0.75400001 -0.014542146 1.6129181e-38 292 251
-0.035694357 0.75400001 -0.014542146 1.3455507e-38 293 251
-0.03514732 0.77100003 -0.01487002 1.3167727e-38 294 251
-0.033620168 0.76700002 -0.014792874 1.2983336e-38 295 251
-0.032233275 0.76599997 -0.014773586 1.3440692e-38 296 251
-0.030890226 0.76599997 -0.014773586 1.3164465e-38 297 251
-0.029547172 0.76599997 -0.014773586 1.3163016e-38 298 251
-0.028204117 0.76599997 -0.014773586 1.2978625e-38 299 251
-0.026790932 0.764 -0.014735013 1.3161571e-38 300 251
-0.02538476 0.76200002 -0.01469644 1.2977539e-38 301 251
-0.024017159 0.76099998 -0.014677152 1.334416e-38 302 251
-0.022682872 0.76099998 -0.014677152 1.3436716e-38 303 251
-0.021348584 0.76099998 -0.014677152 1.3344516e-38 304 251
-0.020014299 0.76099998 -0.014677152 1.3252321e-38 305 251
-0.018680012 0.76099998 -0.014677152 1.3343797e-38 306 251
-0.017345725 0.76099998 -0.014677152 1.3343797e-38 307 251
-0.015969358 0.759 -0.014638579 1.3251965e-38 308 251
-0.014600007 0.75700003 -0.014600007 1.334416e-38 309 251
-0.013272733 0.75700003 -0.014600007 1.3161215e-38 310 251
-0.011913899 0.755 -0.014561433 1.3161215e-38 311 251
-0.010590133 0.755 -0.014561433 1.3161568e-38 312 251
-0.0092663663 0.755 -0.014561433 1.3161568e-38 313 251
-0.0079425992 0.755 -0.014561433 1.3071526e-38 314 251
-0.0066188332 0.755 -0.014561433 1.3255918e-38 315 251
-0.0052950666 0.755 -0.014561433 1.3349187e-38 316 251
-0.0039923396 0.759 -0.014638579 1.3441382e-38 317 251
-0.00266156 0.759 -0.014638579 1.3533934e-38 318 251
-0.00133078 0.759 -0.014638579 1.3533934e-38 319 251
0 0.759 -0.014638579 1.3441736e-38 320 251
0.00133078 0.759 -0.014638579 1.334954e-38 321 251
0.0026545466 0.75700003 -0.014600007 1.3349533e-38 322 251
0.0039818203 0.75700003 -0.014600007 1.3165142e-38 323 251
0.0053090933 0.75700003 -0.014600007 1.307223e-38 324 251
0.0066363667 0.75700003 -0.014600007 1.2795644e-38 325 251
0.0079636406 0.75700003 -0.014600007 1.2517631e-38 326 251
0.0092909131 0.75700003 -0.014600007 1.2241043e-38 327 251
0.010618187 0.75700003 -0.014600007 1.2055942e-38 328 251
0.01197702 0.759 -0.014638579 1.1871911e-38 329 251
0.0133078 0.759 -0.014638579 1.1963031e-38 330 251
0.014677152 0.76099998 -0.014677152 1.1870476e-38 331 251
0.016011439 0.76099998 -0.014677152 1.186976e-38 332 251
0.017345725 0.76099998 -0.014677152 1.1777563e-38 333 251
0.01870456 0.76200002 -0.01469644 1.1502421e-38 334 251
0.0200406 0.76200002 -0.01469644 1.1225836e-38 335 251
0.021432746 0.764 -0.014735013 1.1134006e-38 336 251
0.022772292 0.764 -0.014735013 1.104181e-38 337 251
0.024111839 0.764 -0.014735013 1.0583353e-38 338 251
0.025518013 0.76599997 -0.014773586 1.0583353e-38 339 251
0.026896132 0.76700002 -0.014792874 1.0400406e-38 340 251
0.028314579 0.76899999 -0.014831445 1.0585156e-38 341 251
0.02966289 0.76899999 -0.014831445 1.0494057e-38 342 251
0.031091858 0.77100003 -0.01487002 1.0862479e-38 343 251
0.032443684 0.77100003 -0.01487002 1.1418196e-38 344 251
0.033795502 0.77100003 -0.01487002 1.2616739e-38 345 251
0.035238493 0.773 -0.014908593 1.3732114e-38 346 251
0.036593821 0.773 -0.014908593 1.4930656e-38 347 251
-0.039818201 0.75700003 -0.015927281 1.7793772e-38 290 252
-0.038490929 0.75700003 -0.015927281 1.7517545e-38 291 252
-0.037016369 0.75400001 -0.01586416 1.6499771e-38 292 252
-0.035694357 0.75400001 -0.01586416 1.4563663e-38 293 252
-0.035238493 0.773 -0.016263919 1.3446475e-38 294 252
-0.033620168 0.76700002 -0.01613768 1.2617074e-38 295 252
-0.03227536 0.76700002 -0.01613768 1.3350284e-38 296 252
-0.030890226 0.76599997 -0.016116638 1.3165534e-38 297 252
-0.029547172 0.76599997 -0.016116638 1.3164085e-38 298 252
-0.028204117 0.76599997 -0.016116638 1.2795663e-38 299 252
-0.026790932 0.764 -0.016074561 1.2978975e-38 300 252
-0.025451386 0.764 -0.016074561 1.2702747e-38 301 252
-0.02404872 0.76200002 -0.01603248 1.2977536e-38 302 252
-0.022682872 0.76099998 -0.016011439 1.288534e-38 303 252
-0.021348584 0.76099998 -0.016011439 1.2793142e-38 304 252
-0.020014299 0.76099998 -0.016011439 1.2793142e-38 305 252
-0.018680012 0.76099998 -0.016011439 1.2975738e-38 306 252
-0.017345725 0.76099998 -0.016011439 1.2975738e-38 307 252
-0.015969358 0.759 -0.015969358 1.2976104e-38 308 252
-0.014600007 0.75700003 -0.015927281 1.2976104e-38 309 252
-0.013272733 0.75700003 -0.015927281 1.2793513e-38 310 252
-0.01194546 0.75700003 -0.015927281 1.2885709e-38 311 252
-0.010618187 0.75700003 -0.015927281 1.2794588e-38 312 252
-0.0092909131 0.75700003 -0.015927281 1.2978978e-38 313 252
-0.0079636406 0.75700003 -0.015927281 1.2887858e-38 314 252
-0.0066363667 0.75700003 -0.015927281 1.3164085e-38 315 252
-0.0053090933 0.75700003 -0.015927281 1.3073324e-38 316 252
-0.0039923396 0.759 -0.015969358 1.3257717e-38 317 252
-0.0026685731 0.76099998 -0.016011439 1.3257717e-38 318 252
-0.00133078 0.759 -0.015969358 1.3257717e-38 319 252
0 0.759 -0.015969358 1.3165521e-38 320 252
