# .PCD v.7 - Point Cloud Data file format
FIELDS x y z rgb imX imY
SIZE 4 4 4 4 4 4
TYPE F F F F F F
COUNT 1 1 1 1 1 1
WIDTH 828
HEIGHT 1
VIEWPOINT 0 0 0 1 0 0 0
POINTS 828
DATA ascii
0.037345998 0.70999998 -0.046060063 1.4270089e-38 350 277
0.038590867 0.70999998 -0.046060063 1.4731067e-38 351 277
0.039891839 0.71100003 -0.046124939 1.4184785e-38 352 277
0.041138459 0.71100003 -0.046124939 1.9439936e-38 353 277
0.042385083 0.71100003 -0.046124939 1.8348382e-38 354 277
-0.035150826 0.71600002 -0.047704693 1.7884876e-38 292 278
-0.03389544 0.71600002 -0.047704693 1.5027172e-38 293 278
-0.032640055 0.71600002 -0.047704693 1.0863943e-38 294 278
-0.031384666 0.71600002 -0.047704693 1.114089e-38 295 278
-0.030045118 0.71399999 -0.047571439 1.2241097e-38 296 278
-0.028752912 0.713 -0.047504812 1.1687925e-38 297 278
-0.027387066 0.70999998 -0.047304932 1.1596078e-38 298 278
-0.02603174 0.70700002 -0.047105055 1.1965221e-38 299 278
-0.024686933 0.704 -0.046905171 1.2701689e-38 300 278
-0.023419274 0.70300001 -0.046838548 1.2794243e-38 301 278
-0.02218668 0.70300001 -0.046838548 1.3621476e-38 302 278
-0.020954086 0.70300001 -0.046838548 1.3713671e-38 303 278
-0.019665385 0.70099998 -0.046705291 1.4263956e-38 304 278
-0.018409999 0.69999999 -0.046638668 1.4356151e-38 305 278
-0.017182667 0.69999999 -0.046638668 1.4723132e-38 306 278
-0.015955333 0.69999999 -0.046638668 1.4723132e-38 307 278
-0.014727999 0.69999999 -0.046638668 1.4723135e-38 308 278
-0.013462093 0.69800001 -0.046505414 1.4723135e-38 309 278
-0.012238266 0.69800001 -0.046505414 1.453982e-38 310 278
-0.01101444 0.69800001 -0.046505414 1.453982e-38 311 278
-0.0097906133 0.69800001 -0.046505414 1.454054e-38 312 278
-0.0085667865 0.69800001 -0.046505414 1.454054e-38 313 278
-0.00733244 0.69700003 -0.046438783 1.4723488e-38 314 278
-0.0061103669 0.69700003 -0.046438783 1.4723488e-38 315 278
-0.0048882933 0.69700003 -0.046438783 1.4447977e-38 316 278
-0.0036609597 0.69599998 -0.046372157 1.463237e-38 317 278
-0.0024406398 0.69599998 -0.046372157 1.4356858e-38 318 278
-0.0012203199 0.69599998 -0.046372157 1.454089e-38 319 278
0 0.69599998 -0.046372157 1.4357574e-38 320 278
0.0012168133 0.69400001 -0.046238903 1.4357574e-38 321 278
0.0024336267 0.69400001 -0.046238903 1.4541242e-38 322 278
0.0036504399 0.69400001 -0.046238903 1.4633439e-38 323 278
0.0048672534 0.69400001 -0.046238903 1.4450124e-38 324 278
0.0060840664 0.69400001 -0.046238903 1.4357927e-38 325 278
0.0073008798 0.69400001 -0.046238903 1.4541592e-38 326 278
0.0085176928 0.69400001 -0.046238903 1.4357561e-38 327 278
0.0097204801 0.69300002 -0.04617228 1.4263933e-38 328 278
0.010935539 0.69300002 -0.04617228 1.4079902e-38 329 278
0.012150601 0.69300002 -0.04617228 1.4079549e-38 330 278
0.01336566 0.69300002 -0.04617228 1.4079549e-38 331 278
0.014580719 0.69300002 -0.04617228 1.4080268e-38 332 278
0.015818574 0.69400001 -0.046238903 1.4172464e-38 333 278
0.017035386 0.69400001 -0.046238903 1.4080634e-38 334 278
0.018304799 0.69599998 -0.046372157 1.4080634e-38 335 278
0.019525118 0.69599998 -0.046372157 1.4172832e-38 336 278
0.020745439 0.69599998 -0.046372157 1.4172832e-38 337 278
0.021965759 0.69599998 -0.046372157 1.4081716e-38 338 278
0.023219392 0.69700003 -0.046438783 1.4173913e-38 339 278
0.024441468 0.69700003 -0.046438783 1.3990963e-38 340 278
0.025663542 0.69700003 -0.046438783 1.4175353e-38 341 278
0.026885614 0.69700003 -0.046438783 1.4268277e-38 342 278
0.028148014 0.69800001 -0.046505414 1.4544506e-38 343 278
0.029455997 0.69999999 -0.046638668 1.436119e-38 344 278
0.030727165 0.70099998 -0.046705291 1.4268995e-38 345 278
0.032047424 0.70300001 -0.046838548 1.4634899e-38 346 278
0.033422034 0.70599997 -0.047038425 1.4634899e-38 347 278
0.034708988 0.70700002 -0.047105055 1.4267924e-38 348 278
0.03599944 0.708 -0.047171678 1.4636348e-38 349 278
0.037345998 0.70999998 -0.047304932 1.4087146e-38 350 278
0.038590867 0.70999998 -0.047304932 1.4455569e-38 351 278
0.039835732 0.70999998 -0.047304932 1.4001473e-38 352 278
0.041080594 0.70999998 -0.047304932 1.8980036e-38 353 278
0.042325463 0.70999998 -0.047304932 1.8346224e-38 354 278
-0.035150826 0.71600002 -0.048960082 1.7699766e-38 292 279
-0.03389544 0.71600002 -0.048960082 1.4933537e-38 293 279
-0.032548878 0.71399999 -0.048823316 1.067811e-38 294 279
-0.031296998 0.71399999 -0.048823316 1.1139088e-38 295 279
-0.030045118 0.71399999 -0.048823316 1.2147461e-38 296 279
-0.028752912 0.713 -0.048754938 1.1870873e-38 297 279
-0.027387066 0.70999998 -0.048549797 1.1871223e-38 298 279
-0.026068559 0.708 -0.048413038 1.214817e-38 299 279
-0.024686933 0.704 -0.048139516 1.2884637e-38 300 279
-0.023419274 0.70300001 -0.048071139 1.2792441e-38 301 279
-0.022123558 0.70099998 -0.047934376 1.3709e-38 302 279
-0.020894472 0.70099998 -0.047934376 1.4078142e-38 303 279
-0.019665385 0.70099998 -0.047934376 1.4261805e-38 304 279
-0.018409999 0.69999999 -0.047865998 1.4354e-38 305 279
-0.017182667 0.69999999 -0.047865998 1.4538375e-38 306 279
-0.015955333 0.69999999 -0.047865998 1.4630571e-38 307 279
-0.014727999 0.69999999 -0.047865998 1.4538372e-38 308 279
-0.013462093 0.69800001 -0.047729239 1.4538372e-38 309 279
-0.012238266 0.69800001 -0.047729239 1.435506e-38 310 279
-0.01101444 0.69800001 -0.047729239 1.435506e-38 311 279
-0.0097906133 0.69800001 -0.047729239 1.4539454e-38 312 279
-0.0085667865 0.69800001 -0.047729239 1.4447258e-38 313 279
-0.00733244 0.69700003 -0.047660861 1.4538375e-38 314 279
-0.0061103669 0.69700003 -0.047660861 1.4538375e-38 315 279
-0.0048882933 0.69700003 -0.047660861 1.4447253e-38 316 279
-0.00366622 0.69700003 -0.047660861 1.4539807e-38 317 279
-0.0024406398 0.69599998 -0.047592476 1.4448327e-38 318 279
-0.0012203199 0.69599998 -0.047592476 1.4448327e-38 319 279
0 0.69599998 -0.047592476 1.4265015e-38 320 279
0.0012168133 0.69400001 -0.047455717 1.4265015e-38 321 279
0.0024336267 0.69400001 -0.047455717 1.4265015e-38 322 279
0.0036504399 0.69400001 -0.047455717 1.4357211e-38 323 279
0.0048672534 0.69400001 -0.047455717 1.4265734e-38 324 279
0.0060840664 0.69400001 -0.047455717 1.417318e-38 325 279
0.0073008798 0.69400001 -0.047455717 1.4356482e-38 326 279
0.0085176928 0.69400001 -0.047455717 1.4264287e-38 327 279
0.0097204801 0.69300002 -0.047387339 1.4079899e-38 328 279
0.010935539 0.69300002 -0.047387339 1.3987702e-38 329 279
0.012150601 0.69300002 -0.047387339 1.398807e-38 330 279
0.01336566 0.69300002 -0.047387339 1.4080265e-38 331 279
0.01460176 0.69400001 -0.047455717 1.3896953e-38 332 279
0.015818574 0.69400001 -0.047455717 1.3804757e-38 333 279
0.017035386 0.69400001 -0.047455717 1.3896603e-38 334 279
0.018304799 0.69599998 -0.047592476 1.3896603e-38 335 279
0.019525118 0.69599998 -0.047592476 1.4079912e-38 336 279
0.020745439 0.69599998 -0.047592476 1.4079912e-38 337 279
0.021965759 0.69599998 -0.047592476 1.3897672e-38 338 279
0.023186078 0.69599998 -0.047592476 1.3989867e-38 339 279
0.024441468 0.69700003 -0.047660861 1.3989514e-38 340 279
0.025663542 0.69700003 -0.047660861 1.4082069e-38 341 279
0.026885614 0.69700003 -0.047660861 1.4174631e-38 342 279
0.028148014 0.69800001 -0.047729239 1.4451218e-38 343 279
0.029455997 0.69999999 -0.047865998 1.4451221e-38 344 279
0.030727165 0.70099998 -0.047934376 1.4451221e-38 345 279
0.031956252 0.70099998 -0.047934376 1.4635252e-38 346 279
0.03332736 0.704 -0.048139516 1.4451221e-38 347 279
0.034659892 0.70599997 -0.048276275 1.4268277e-38 348 279
0.03599944 0.708 -0.048413038 1.4636701e-38 349 279
0.037345998 0.70999998 -0.048549797 1.427226e-38 350 279
0.038482159 0.708 -0.048413038 1.4364456e-38 351 279
0.039723519 0.708 -0.048413038 1.3907844e-38 352 279
0.041080594 0.70999998 -0.048549797 1.8794572e-38 353 279
0.042325463 0.70999998 -0.048549797 1.8163268e-38 354 279
-0.03389544 0.71600002 -0.050215468 1.4933174e-38 293 280
-0.032548878 0.71399999 -0.050075196 1.0493716e-38 294 280
-0.031296998 0.71399999 -0.050075196 1.0678466e-38 295 280
-0.030045118 0.71399999 -0.050075196 1.2055622e-38 296 280
-0.028752912 0.713 -0.050005067 1.1778674e-38 297 280
-0.027387066 0.70999998 -0.049794663 1.1596431e-38 298 280
-0.02603174 0.70700002 -0.049584266 1.1873378e-38 299 280
-0.024686933 0.704 -0.049373865 1.2423681e-38 300 280
-0.023419274 0.70300001 -0.049303733 1.2238931e-38 301 280
-0.022123558 0.70099998 -0.049163464 1.2514798e-38 302 280
-0.020894472 0.70099998 -0.049163464 1.3160167e-38 303 280
-0.019665385 0.70099998 -0.049163464 1.3802997e-38 304 280
-0.018409999 0.69999999 -0.049093332 1.3895193e-38 305 280
-0.017182667 0.69999999 -0.049093332 1.4262524e-38 306 280
-0.015955333 0.69999999 -0.049093332 1.4262524e-38 307 280
-0.014727999 0.69999999 -0.049093332 1.4262874e-38 308 280
-0.013462093 0.69800001 -0.048953064 1.4262874e-38 309 280
-0.012238266 0.69800001 -0.048953064 1.3896249e-38 310 280
-0.01101444 0.69800001 -0.048953064 1.3896249e-38 311 280
-0.0097906133 0.69800001 -0.048953064 1.3896252e-38 312 280
-0.0085667865 0.69800001 -0.048953064 1.3804057e-38 313 280
-0.0073429602 0.69800001 -0.048953064 1.3987366e-38 314 280
-0.0061015999 0.69599998 -0.048812799 1.4079562e-38 315 280
-0.0048812795 0.69599998 -0.048812799 1.3897319e-38 316 280
-0.0036504399 0.69400001 -0.048672531 1.3989514e-38 317 280
-0.0024336267 0.69400001 -0.048672531 1.4082066e-38 318 280
-0.0012203199 0.69599998 -0.048812799 1.398987e-38 319 280
0 0.69599998 -0.048812799 1.3897319e-38 320 280
0.0012168133 0.69400001 -0.048672531 1.3989514e-38 321 280
0.0024336267 0.69400001 -0.048672531 1.3897684e-38 322 280
0.0036504399 0.69400001 -0.048672531 1.3897684e-38 323 280
0.00486024 0.69300002 -0.048602402 1.3897687e-38 324 280
0.0060753003 0.69300002 -0.048602402 1.362146e-38 325 280
0.0072903596 0.69300002 -0.048602402 1.3804404e-38 326 280
0.0085054198 0.69300002 -0.048602402 1.3804404e-38 327 280
0.0097204801 0.69300002 -0.048602402 1.389587e-38 328 280
0.010935539 0.69300002 -0.048602402 1.3988067e-38 329 280
0.012150601 0.69300002 -0.048602402 1.3529965e-38 330 280
0.01336566 0.69300002 -0.048602402 1.3622161e-38 331 280
0.01460176 0.69400001 -0.048672531 1.3530334e-38 332 280
0.015818574 0.69400001 -0.048672531 1.3346303e-38 333 280
0.017035386 0.69400001 -0.048672531 1.3528909e-38 334 280
0.018304799 0.69599998 -0.048812799 1.3528909e-38 335 280
0.019525118 0.69599998 -0.048812799 1.3436713e-38 336 280
0.020745439 0.69599998 -0.048812799 1.3528909e-38 337 280
0.021965759 0.69599998 -0.048812799 1.362146e-38 338 280
0.023186078 0.69599998 -0.048812799 1.3713656e-38 339 280
0.024441468 0.69700003 -0.048882935 1.3621823e-38 340 280
0.025663542 0.69700003 -0.048882935 1.3714019e-38 341 280
0.026885614 0.69700003 -0.048882935 1.3806585e-38 342 280
0.028107686 0.69700003 -0.048882935 1.408353e-38 343 280
0.029371841 0.69800001 -0.048953064 1.3900937e-38 344 280
0.030683333 0.69999999 -0.049093332 1.3900937e-38 345 280
0.031956252 0.70099998 -0.049163464 1.4176076e-38 346 280
0.03332736 0.704 -0.049373865 1.4176076e-38 347 280
0.034659892 0.70599997 -0.04951413 1.4086051e-38 348 280
0.03599944 0.708 -0.049654398 1.4270442e-38 349 280
0.037345998 0.70999998 -0.049794663 1.381345e-38 350 280
0.038482159 0.708 -0.049654398 1.3997481e-38 351 280
0.039723519 0.708 -0.049654398 1.3997526e-38 352 280
0.041080594 0.70999998 -0.049794663 1.9160481e-38 353 280
0.042325463 0.70999998 -0.049794663 1.8254384e-38 354 280
-0.032366529 0.70999998 -0.051039528 1.0402599e-38 294 281
-0.031253166 0.713 -0.051255193 1.0586631e-38 295 281
-0.030003037 0.713 -0.051255193 1.1687561e-38 296 281
-0.028752912 0.713 -0.051255193 1.1871593e-38 297 281
-0.027309919 0.708 -0.050895758 1.1871945e-38 298 281
-0.02603174 0.70700002 -0.050823875 1.1964142e-38 299 281
-0.024686933 0.704 -0.050608214 1.2329683e-38 300 281
-0.023419274 0.70300001 -0.050536323 1.1960902e-38 301 281
-0.022123558 0.70099998 -0.050392549 1.1687182e-38 302 281
-0.020894472 0.70099998 -0.050392549 1.2516943e-38 303 281
-0.019665385 0.70099998 -0.050392549 1.3984863e-38 304 281
-0.018409999 0.69999999 -0.050320663 1.4169256e-38 305 281
-0.017182667 0.69999999 -0.050320663 1.4262161e-38 306 281
-0.015955333 0.69999999 -0.050320663 1.4077409e-38 307 281
-0.014727999 0.69999999 -0.050320663 1.4077765e-38 308 281
-0.013462093 0.69800001 -0.050176892 1.4077765e-38 309 281
-0.012238266 0.69800001 -0.050176892 1.4078118e-38 310 281
-0.01101444 0.69800001 -0.050176892 1.4078118e-38 311 281
-0.0097765867 0.69700003 -0.050105009 1.3711135e-38 312 281
-0.0085545136 0.69700003 -0.050105009 1.3711135e-38 313 281
-0.0073219193 0.69599998 -0.050033119 1.3895524e-38 314 281
-0.0061015999 0.69599998 -0.050033119 1.3987719e-38 315 281
-0.0048812795 0.69599998 -0.050033119 1.3896956e-38 316 281
-0.0036504399 0.69400001 -0.049889345 1.3896956e-38 317 281
-0.0024336267 0.69400001 -0.049889345 1.4080631e-38 318 281
-0.0012203199 0.69599998 -0.050033119 1.38966e-38 319 281
0 0.69599998 -0.050033119 1.4080637e-38 320 281
0.0012168133 0.69400001 -0.049889345 1.3896247e-38 321 281
0.0024336267 0.69400001 -0.049889345 1.3804422e-38 322 281
0.0036504399 0.69400001 -0.049889345 1.3712227e-38 323 281
0.00486024 0.69300002 -0.049817458 1.3711874e-38 324 281
0.0060753003 0.69300002 -0.049817458 1.3711874e-38 325 281
0.0072903596 0.69300002 -0.049817458 1.3711505e-38 326 281
0.0085054198 0.69300002 -0.049817458 1.3711505e-38 327 281
0.0097204801 0.69300002 -0.049817458 1.3804054e-38 328 281
0.01090398 0.69099998 -0.049673684 1.3711858e-38 329 281
0.012115533 0.69099998 -0.049673684 1.3712574e-38 330 281
0.01336566 0.69300002 -0.049817458 1.3528543e-38 331 281
0.014580719 0.69300002 -0.049817458 1.352854e-38 332 281
0.015818574 0.69400001 -0.049889345 1.3436343e-38 333 281
0.017035386 0.69400001 -0.049889345 1.3436346e-38 334 281
0.018304799 0.69599998 -0.050033119 1.3436346e-38 335 281
0.019525118 0.69599998 -0.050033119 1.3343795e-38 336 281
0.020745439 0.69599998 -0.050033119 1.343599e-38 337 281
0.02199732 0.69700003 -0.050105009 1.3528546e-38 338 281
0.023219392 0.69700003 -0.050105009 1.3528546e-38 339 281
0.024441468 0.69700003 -0.050105009 1.3622179e-38 340 281
0.025663542 0.69700003 -0.050105009 1.3529984e-38 341 281
0.026885614 0.69700003 -0.050105009 1.3714375e-38 342 281
0.028107686 0.69700003 -0.050105009 1.3898768e-38 343 281
0.029371841 0.69800001 -0.050176892 1.3991685e-38 344 281
0.030683333 0.69999999 -0.050320663 1.4083881e-38 345 281
0.031956252 0.70099998 -0.050392549 1.4174644e-38 346 281
0.03332736 0.704 -0.050608214 1.4359394e-38 347 281
0.034659892 0.70599997 -0.050751984 1.3993502e-38 348 281
0.035948593 0.70700002 -0.050823875 1.4270089e-38 349 281
0.0372408 0.708 -0.050895758 1.3997112e-38 350 281
0.038482159 0.708 -0.050895758 1.3812721e-38 351 281
0.039723519 0.708 -0.050895758 1.3813478e-38 352 281
0.041080594 0.70999998 -0.051039528 1.9161184e-38 353 281
0.042325463 0.70999998 -0.051039528 1.8162186e-38 354 281
-0.031121666 0.70999998 -0.052284397 1.1139441e-38 295 282
-0.029876797 0.70999998 -0.052284397 1.1688994e-38 296 282
-0.028631933 0.70999998 -0.052284397 1.1781549e-38 297 282
-0.027309919 0.708 -0.052137118 1.1873025e-38 298 282
-0.02603174 0.70700002 -0.05206348 1.1596078e-38 299 282
-0.024686933 0.704 -0.051842559 1.2419728e-38 300 282
-0.023419274 0.70300001 -0.051768921 1.2419728e-38 301 282
-0.022123558 0.70099998 -0.051621638 1.2239637e-38 302 282
-0.020894472 0.70099998 -0.051621638 1.2516224e-38 303 282
-0.019665385 0.70099998 -0.051621638 1.3618236e-38 304 282
-0.018409999 0.69999999 -0.051547997 1.3710432e-38 305 282
-0.017182667 0.69999999 -0.051547997 1.3801551e-38 306 282
-0.015955333 0.69999999 -0.051547997 1.3801551e-38 307 282
-0.014727999 0.69999999 -0.051547997 1.3801185e-38 308 282
-0.013500666 0.69999999 -0.051547997 1.3801185e-38 309 282
-0.012238266 0.69800001 -0.051400717 1.3526391e-38 310 282
-0.01101444 0.69800001 -0.051400717 1.3526391e-38 311 282
-0.0097765867 0.69700003 -0.051327083 1.3618942e-38 312 282
-0.0085545136 0.69700003 -0.051327083 1.3618942e-38 313 282
-0.0073219193 0.69599998 -0.051253434 1.3436346e-38 314 282
-0.0061015999 0.69599998 -0.051253434 1.3528543e-38 315 282
-0.0048812795 0.69599998 -0.051253434 1.3529265e-38 316 282
-0.0036504399 0.69400001 -0.051106159 1.3713656e-38 317 282
-0.0024336267 0.69400001 -0.051106159 1.3804776e-38 318 282
-0.0012203199 0.69599998 -0.051253434 1.3804776e-38 319 282
0 0.69599998 -0.051253434 1.3712224e-38 320 282
0.0012168133 0.69400001 -0.051106159 1.3712224e-38 321 282
0.0024336267 0.69400001 -0.051106159 1.343601e-38 322 282
0.0036504399 0.69400001 -0.051106159 1.343601e-38 323 282
0.00486024 0.69300002 -0.051032521 1.3343461e-38 324 282
0.0060753003 0.69300002 -0.051032521 1.3251264e-38 325 282
0.0072903596 0.69300002 -0.051032521 1.3343813e-38 326 282
0.0085054198 0.69300002 -0.051032521 1.3343813e-38 327 282
0.0097204801 0.69300002 -0.051032521 1.3435643e-38 328 282
0.01090398 0.69099998 -0.050885238 1.3435643e-38 329 282
0.012115533 0.69099998 -0.050885238 1.334416e-38 330 282
0.01336566 0.69300002 -0.051032521 1.334416e-38 331 282
0.014580719 0.69300002 -0.051032521 1.3343797e-38 332 282
0.015818574 0.69400001 -0.051106159 1.3343797e-38 333 282
0.017035386 0.69400001 -0.051106159 1.3252321e-38 334 282
0.0182522 0.69400001 -0.051106159 1.3252321e-38 335 282
0.019469013 0.69400001 -0.051106159 1.3251965e-38 336 282
0.020745439 0.69599998 -0.051253434 1.334416e-38 337 282
0.02199732 0.69700003 -0.051327083 1.3161568e-38 338 282
0.023219392 0.69700003 -0.051327083 1.3253764e-38 339 282
0.024441468 0.69700003 -0.051327083 1.3529631e-38 340 282
0.025663542 0.69700003 -0.051327083 1.3529631e-38 341 282
0.026885614 0.69700003 -0.051327083 1.3621473e-38 342 282
0.028148014 0.69800001 -0.051400717 1.3805864e-38 343 282
0.029371841 0.69800001 -0.051400717 1.3622555e-38 344 282
0.030683333 0.69999999 -0.051547997 1.3806587e-38 345 282
0.031956252 0.70099998 -0.051621638 1.3990265e-38 346 282
0.03332736 0.704 -0.051842559 1.4358688e-38 347 282
0.034561705 0.704 -0.051842559 1.390168e-38 348 282
0.035897743 0.70599997 -0.051989835 1.4270461e-38 349 282
0.037188202 0.70700002 -0.05206348 1.3814168e-38 350 282
0.038482159 0.708 -0.052137118 1.3721973e-38 351 282
0.039723519 0.708 -0.052137118 1.3998229e-38 352 282
0.041080594 0.70999998 -0.052284397 1.925338e-38 353 282
0.042325463 0.70999998 -0.052284397 1.806999e-38 354 282
-0.032366529 0.70999998 -0.053529263 1.1969925e-38 294 283
-0.031121666 0.70999998 -0.053529263 1.1508947e-38 295 283
-0.029876797 0.70999998 -0.053529263 1.2241798e-38 296 283
-0.028631933 0.70999998 -0.053529263 1.2241798e-38 297 283
-0.027309919 0.708 -0.053378478 1.2149239e-38 298 283
-0.02603174 0.70700002 -0.053303085 1.1872292e-38 299 283
-0.024757065 0.70599997 -0.053227689 1.2419357e-38 300 283
-0.023419274 0.70300001 -0.053001512 1.2880333e-38 301 283
-0.02218668 0.70300001 -0.053001512 1.2883555e-38 302 283
-0.020954086 0.70300001 -0.053001512 1.3068305e-38 303 283
-0.019665385 0.70099998 -0.052850723 1.3251249e-38 304 283
-0.018436298 0.70099998 -0.052850723 1.3343444e-38 305 283
-0.017182667 0.69999999 -0.052775331 1.3709353e-38 306 283
-0.015955333 0.69999999 -0.052775331 1.3617157e-38 307 283
-0.014727999 0.69999999 -0.052775331 1.3708987e-38 308 283
-0.013462093 0.69800001 -0.052624546 1.3708987e-38 309 283
-0.012238266 0.69800001 -0.052624546 1.3434192e-38 310 283
-0.01101444 0.69800001 -0.052624546 1.3434192e-38 311 283
-0.0097765867 0.69700003 -0.052549154 1.3526388e-38 312 283
-0.0085545136 0.69700003 -0.052549154 1.3526388e-38 313 283
-0.0073219193 0.69599998 -0.052473757 1.352711e-38 314 283
-0.0061015999 0.69599998 -0.052473757 1.3619305e-38 315 283
-0.0048812795 0.69599998 -0.052473757 1.3436716e-38 316 283
-0.0036504399 0.69400001 -0.052322973 1.3621107e-38 317 283
-0.0024336267 0.69400001 -0.052322973 1.3804066e-38 318 283
-0.0012203199 0.69599998 -0.052473757 1.3804066e-38 319 283
0 0.69599998 -0.052473757 1.3528559e-38 320 283
0.0012168133 0.69400001 -0.052322973 1.3528559e-38 321 283
0.0024336267 0.69400001 -0.052322973 1.3436007e-38 322 283
0.0036504399 0.69400001 -0.052322973 1.334381e-38 323 283
0.00486024 0.69300002 -0.05224758 1.3343094e-38 324 283
0.0060753003 0.69300002 -0.05224758 1.3250898e-38 325 283
0.0072903596 0.69300002 -0.05224758 1.3251617e-38 326 283
0.0085054198 0.69300002 -0.05224758 1.3251617e-38 327 283
0.0097204801 0.69300002 -0.05224758 1.3343447e-38 328 283
0.010935539 0.69300002 -0.05224758 1.3343447e-38 329 283
0.012150601 0.69300002 -0.05224758 1.3252321e-38 330 283
0.01336566 0.69300002 -0.05224758 1.3252321e-38 331 283
0.014580719 0.69300002 -0.05224758 1.3251599e-38 332 283
0.015818574 0.69400001 -0.052322973 1.3251599e-38 333 283
0.017035386 0.69400001 -0.052322973 1.3068287e-38 334 283
0.0182522 0.69400001 -0.052322973 1.3068287e-38 335 283
0.019469013 0.69400001 -0.052322973 1.3252321e-38 336 283
0.020745439 0.69599998 -0.052473757 1.3344516e-38 337 283
0.021965759 0.69599998 -0.052473757 1.3160851e-38 338 283
0.023219392 0.69700003 -0.052549154 1.3253048e-38 339 283
0.024441468 0.69700003 -0.052549154 1.3528559e-38 340 283
0.025663542 0.69700003 -0.052549154 1.3528559e-38 341 283
0.026885614 0.69700003 -0.052549154 1.3345246e-38 342 283
0.028148014 0.69800001 -0.052624546 1.3529277e-38 343 283
0.029455997 0.69999999 -0.052775331 1.3621473e-38 344 283
0.030683333 0.69999999 -0.052775331 1.3805864e-38 345 283
0.031956252 0.70099998 -0.052850723 1.3898433e-38 346 283
0.03332736 0.704 -0.053076904 1.4267574e-38 347 283
0.034561705 0.704 -0.053076904 1.3902045e-38 348 283
0.035897743 0.70599997 -0.053227689 1.4178992e-38 349 283
0.037188202 0.70700002 -0.053303085 1.3999283e-38 350 283
0.038482159 0.708 -0.053378478 1.3907086e-38 351 283
0.039723519 0.708 -0.053378478 1.4275182e-38 352 283
0.041080594 0.70999998 -0.053529263 1.9622888e-38 353 283
0.042325463 0.70999998 -0.053529263 1.7794122e-38 354 283
-0.032366529 0.70999998 -0.054774132 1.2154316e-38 294 284
-0.031121666 0.70999998 -0.054774132 1.1601143e-38 295 284
-0.029876797 0.70999998 -0.054774132 1.2149608e-38 296 284
-0.028631933 0.70999998 -0.054774132 1.2241804e-38 297 284
-0.027309919 0.708 -0.054619838 1.2333631e-38 298 284
-0.02603174 0.70700002 -0.054542694 1.2057044e-38 299 284
-0.024757065 0.70599997 -0.054465543 1.2605176e-38 300 284
-0.023419274 0.70300001 -0.054234106 1.315835e-38 301 284
-0.02218668 0.70300001 -0.054234106 1.2976104e-38 302 284
-0.020954086 0.70300001 -0.054234106 1.2976104e-38 303 284
-0.019665385 0.70099998 -0.054079808 1.3251249e-38 304 284
-0.018436298 0.70099998 -0.054079808 1.3251249e-38 305 284
-0.017182667 0.69999999 -0.054002665 1.3433845e-38 306 284
-0.015955333 0.69999999 -0.054002665 1.3341649e-38 307 284
-0.014727999 0.69999999 -0.054002665 1.3340925e-38 308 284
-0.013462093 0.69800001 -0.053848371 1.3340925e-38 309 284
-0.012238266 0.69800001 -0.053848371 1.3158687e-38 310 284
-0.01101444 0.69800001 -0.053848371 1.3158687e-38 311 284
-0.0097765867 0.69700003 -0.053771228 1.3157978e-38 312 284
-0.0085545136 0.69700003 -0.053771228 1.3157978e-38 313 284
-0.0073219193 0.69599998 -0.053694077 1.3250895e-38 314 284
-0.0061015999 0.69599998 -0.053694077 1.3343091e-38 315 284
-0.0048812795 0.69599998 -0.053694077 1.3344166e-38 316 284
-0.0036504399 0.69400001 -0.053539783 1.3436363e-38 317 284
-0.0024336267 0.69400001 -0.053539783 1.3528559e-38 318 284
-0.0012203199 0.69599998 -0.053694077 1.3436363e-38 319 284
0 0.69599998 -0.053694077 1.3436363e-38 320 284
0.0012168133 0.69400001 -0.053539783 1.3436363e-38 321 284
0.0024336267 0.69400001 -0.053539783 1.3343813e-38 322 284
0.0036504399 0.69400001 -0.053539783 1.3251617e-38 323 284
0.00486024 0.69300002 -0.053462639 1.3067949e-38 324 284
0.0060753003 0.69300002 -0.053462639 1.3067949e-38 325 284
0.0072903596 0.69300002 -0.053462639 1.2975751e-38 326 284
0.0085054198 0.69300002 -0.053462639 1.2975751e-38 327 284
0.0097204801 0.69300002 -0.053462639 1.2975385e-38 328 284
0.010935539 0.69300002 -0.053462639 1.306758e-38 329 284
0.012150601 0.69300002 -0.053462639 1.2976457e-38 330 284
0.01336566 0.69300002 -0.053462639 1.2976457e-38 331 284
0.014580719 0.69300002 -0.053462639 1.2976091e-38 332 284
0.015818574 0.69400001 -0.053539783 1.3068287e-38 333 284
0.017035386 0.69400001 -0.053539783 1.2884614e-38 334 284
0.0182522 0.69400001 -0.053539783 1.2884614e-38 335 284
0.019469013 0.69400001 -0.053539783 1.2976454e-38 336 284
0.020745439 0.69599998 -0.053694077 1.2976454e-38 337 284
0.021965759 0.69599998 -0.053694077 1.3068652e-38 338 284
0.023219392 0.69700003 -0.053771228 1.3068652e-38 339 284
0.024441468 0.69700003 -0.053771228 1.3160851e-38 340 284
0.025663542 0.69700003 -0.053771228 1.3160851e-38 341 284
0.026885614 0.69700003 -0.053771228 1.3253048e-38 342 284
0.028148014 0.69800001 -0.053848371 1.3253048e-38 343 284
0.029455997 0.69999999 -0.054002665 1.334489e-38 344 284
0.030683333 0.69999999 -0.054002665 1.3621476e-38 345 284
0.031956252 0.70099998 -0.054079808 1.3530729e-38 346 284
0.03332736 0.704 -0.054311249 1.4083543e-38 347 284
0.034561705 0.704 -0.054311249 1.3719086e-38 348 284
0.035897743 0.70599997 -0.054465543 1.4180064e-38 349 284
0.037188202 0.70700002 -0.054542694 1.3999283e-38 350 284
0.038427804 0.70700002 -0.054542694 1.4460259e-38 351 284
0.039667413 0.70700002 -0.054542694 1.455465e-38 352 284
0.041080594 0.70999998 -0.054774132 1.98098e-38 353 284
-0.032366529 0.70999998 -0.056018997 1.2340503e-38 294 285
-0.031121666 0.70999998 -0.056018997 1.1695133e-38 295 285
-0.029876797 0.70999998 -0.056018997 1.1782981e-38 296 285
-0.028631933 0.70999998 -0.056018997 1.1967012e-38 297 285
-0.027309919 0.708 -0.055861197 1.2609848e-38 298 285
-0.02603174 0.70700002 -0.055782299 1.2609848e-38 299 285
-0.024757065 0.70599997 -0.055703394 1.2883911e-38 300 285
-0.023452586 0.704 -0.055545598 1.2883911e-38 301 285
-0.02218668 0.70300001 -0.0554667 1.2976106e-38 302 285
-0.020954086 0.70300001 -0.0554667 1.2976106e-38 303 285
-0.019665385 0.70099998 -0.055308893 1.2975388e-38 304 285
-0.018436298 0.70099998 -0.055308893 1.2975388e-38 305 285
-0.017182667 0.69999999 -0.055229999 1.3159053e-38 306 285
-0.015955333 0.69999999 -0.055229999 1.3159053e-38 307 285
-0.014727999 0.69999999 -0.055229999 1.3158331e-38 308 285
-0.013500666 0.69999999 -0.055229999 1.3066136e-38 309 285
-0.012238266 0.69800001 -0.0550722 1.3066857e-38 310 285
-0.01101444 0.69800001 -0.0550722 1.3066857e-38 311 285
-0.0097765867 0.69700003 -0.054993302 1.3066148e-38 312 285
-0.0085545136 0.69700003 -0.054993302 1.3066148e-38 313 285
-0.00733244 0.69700003 -0.054993302 1.2883555e-38 314 285
-0.0061015999 0.69599998 -0.054914396 1.2975751e-38 315 285
-0.0048812795 0.69599998 -0.054914396 1.3068305e-38 316 285
-0.0036609597 0.69599998 -0.054914396 1.3160501e-38 317 285
-0.0024406398 0.69599998 -0.054914396 1.3161218e-38 318 285
-0.0012203199 0.69599998 -0.054914396 1.3253414e-38 319 285
0 0.69599998 -0.054914396 1.3161218e-38 320 285
0.0012168133 0.69400001 -0.054756597 1.2977185e-38 321 285
0.0024336267 0.69400001 -0.054756597 1.3160146e-38 322 285
0.0036451798 0.69300002 -0.054677699 1.3160146e-38 323 285
0.00486024 0.69300002 -0.054677699 1.3067949e-38 324 285
0.0060753003 0.69300002 -0.054677699 1.3067949e-38 325 285
0.0072903596 0.69300002 -0.054677699 1.2792438e-38 326 285
0.0085054198 0.69300002 -0.054677699 1.2792438e-38 327 285
0.0097204801 0.69300002 -0.054677699 1.2976106e-38 328 285
0.010935539 0.69300002 -0.054677699 1.2976106e-38 329 285
0.012150601 0.69300002 -0.054677699 1.2700946e-38 330 285
0.01336566 0.69300002 -0.054677699 1.2700946e-38 331 285
0.014580719 0.69300002 -0.054677699 1.2701299e-38 332 285
0.015818574 0.69400001 -0.054756597 1.2793495e-38 333 285
0.017035386 0.69400001 -0.054756597 1.2700943e-38 334 285
0.0182522 0.69400001 -0.054756597 1.2700943e-38 335 285
0.019469013 0.69400001 -0.054756597 1.2884258e-38 336 285
0.020745439 0.69599998 -0.054914396 1.2884258e-38 337 285
0.021965759 0.69599998 -0.054914396 1.2700949e-38 338 285
0.023219392 0.69700003 -0.054993302 1.2793145e-38 339 285
0.024441468 0.69700003 -0.054993302 1.288534e-38 340 285
0.025663542 0.69700003 -0.054993302 1.288534e-38 341 285
0.026924185 0.69800001 -0.0550722 1.2885343e-38 342 285
0.028148014 0.69800001 -0.0550722 1.2977539e-38 343 285
0.029455997 0.69999999 -0.055229999 1.3070104e-38 344 285
0.030683333 0.69999999 -0.055229999 1.3346331e-38 345 285
0.031956252 0.70099998 -0.055308893 1.3347777e-38 346 285
0.03332736 0.704 -0.055545598 1.3808754e-38 347 285
0.034561705 0.704 -0.055545598 1.3719449e-38 348 285
0.035897743 0.70599997 -0.055703394 1.4272623e-38 349 285
0.037135597 0.70599997 -0.055703394 1.40922e-38 350 285
0.038427804 0.70700002 -0.055782299 1.4737569e-38 351 285
0.039667413 0.70700002 -0.055782299 1.5292933e-38 352 285
-0.032366529 0.70999998 -0.057263866 1.2985869e-38 294 286
-0.031121666 0.70999998 -0.057263866 1.2156467e-38 295 286
-0.02979264 0.708 -0.057102561 1.2521985e-38 296 286
-0.02855128 0.708 -0.057102561 1.2521985e-38 297 286
-0.027309919 0.708 -0.057102561 1.2704211e-38 298 286
-0.02603174 0.70700002 -0.057021905 1.2519461e-38 299 286
-0.024757065 0.70599997 -0.056941248 1.2793157e-38 300 286
-0.023452586 0.704 -0.056779943 1.2793157e-38 301 286
-0.02218668 0.70300001 -0.056699295 1.2975385e-38 302 286
-0.020954086 0.70300001 -0.056699295 1.2975385e-38 303 286
-0.019665385 0.70099998 -0.056537982 1.3066501e-38 304 286
-0.018436298 0.70099998 -0.056537982 1.288247e-38 305 286
-0.017182667 0.69999999 -0.056457333 1.3249451e-38 306 286
-0.015955333 0.69999999 -0.056457333 1.3341646e-38 307 286
-0.014727999 0.69999999 -0.056457333 1.3158331e-38 308 286
-0.013500666 0.69999999 -0.056457333 1.3066136e-38 309 286
-0.012238266 0.69800001 -0.056296028 1.3066855e-38 310 286
-0.01101444 0.69800001 -0.056296028 1.2882823e-38 311 286
-0.0097765867 0.69700003 -0.056215372 1.288247e-38 312 286
-0.0085545136 0.69700003 -0.056215372 1.288247e-38 313 286
-0.00733244 0.69700003 -0.056215372 1.3066504e-38 314 286
-0.0061015999 0.69599998 -0.056134716 1.3066504e-38 315 286
-0.0048672534 0.69400001 -0.055973411 1.3158697e-38 316 286
-0.0036504399 0.69400001 -0.055973411 1.3251251e-38 317 286
-0.0024406398 0.69599998 -0.056134716 1.306758e-38 318 286
-0.0012203199 0.69599998 -0.056134716 1.3251612e-38 319 286
0 0.69599998 -0.056134716 1.3160498e-38 320 286
0.0012168133 0.69400001 -0.055973411 1.3068302e-38 321 286
0.0024336267 0.69400001 -0.055973411 1.306723e-38 322 286
0.0036451798 0.69300002 -0.055892758 1.3251261e-38 323 286
0.00486024 0.69300002 -0.055892758 1.2976837e-38 324 286
0.0060753003 0.69300002 -0.055892758 1.2976837e-38 325 286
0.0072903596 0.69300002 -0.055892758 1.2884637e-38 326 286
0.0085054198 0.69300002 -0.055892758 1.2792441e-38 327 286
0.0097204801 0.69300002 -0.055892758 1.2792791e-38 328 286
0.010935539 0.69300002 -0.055892758 1.2792791e-38 329 286
0.012150601 0.69300002 -0.055892758 1.2700946e-38 330 286
0.01336566 0.69300002 -0.055892758 1.2700946e-38 331 286
0.01460176 0.69400001 -0.055973411 1.2700943e-38 332 286
0.015818574 0.69400001 -0.055973411 1.2700943e-38 333 286
0.017035386 0.69400001 -0.055973411 1.2884258e-38 334 286
0.0182522 0.69400001 -0.055973411 1.2884258e-38 335 286
0.019469013 0.69400001 -0.055973411 1.2884261e-38 336 286
0.020745439 0.69599998 -0.056134716 1.2607676e-38 337 286
0.021965759 0.69599998 -0.056134716 1.2700224e-38 338 286
0.023219392 0.69700003 -0.056215372 1.2700224e-38 339 286
0.024441468 0.69700003 -0.056215372 1.2884609e-38 340 286
0.025663542 0.69700003 -0.056215372 1.2884609e-38 341 286
0.026924185 0.69800001 -0.056296028 1.2793142e-38 342 286
0.028148014 0.69800001 -0.056296028 1.2885337e-38 343 286
0.029455997 0.69999999 -0.056457333 1.2977906e-38 344 286
0.030683333 0.69999999 -0.056457333 1.3438882e-38 345 286
0.031956252 0.70099998 -0.056537982 1.3347061e-38 346 286
0.03332736 0.704 -0.056779943 1.399243e-38 347 286
0.034561705 0.704 -0.056779943 1.3810206e-38 348 286
0.035897743 0.70599997 -0.056941248 1.4547771e-38 349 286
0.037135597 0.70599997 -0.056941248 1.4275872e-38 350 286
-0.031121666 0.70999998 -0.058508728 1.2434125e-38 295 287
-0.02979264 0.708 -0.058343921 1.3259181e-38 296 287
-0.02855128 0.708 -0.058343921 1.3166984e-38 297 287
-0.027309919 0.708 -0.058343921 1.3255936e-38 298 287
-0.02603174 0.70700002 -0.05826151 1.2887155e-38 299 287
-0.024757065 0.70599997 -0.058179103 1.3253051e-38 300 287
-0.023452586 0.704 -0.058014292 1.2976104e-38 301 287
-0.02218668 0.70300001 -0.057931885 1.2883911e-38 302 287
-0.020954086 0.70300001 -0.057931885 1.2699521e-38 303 287
-0.019665385 0.70099998 -0.057767071 1.2882473e-38 304 287
-0.018436298 0.70099998 -0.057767071 1.3066504e-38 305 287
-0.017182667 0.69999999 -0.05768466 1.288247e-38 306 287
-0.015955333 0.69999999 -0.05768466 1.288247e-38 307 287
-0.014727999 0.69999999 -0.05768466 1.3065783e-38 308 287
-0.013500666 0.69999999 -0.05768466 1.3065783e-38 309 287
-0.012238266 0.69800001 -0.057519849 1.288247e-38 310 287
-0.01101444 0.69800001 -0.057519849 1.288247e-38 311 287
-0.0097765867 0.69700003 -0.05743745 1.2882473e-38 312 287
-0.0085545136 0.69700003 -0.05743745 1.2882473e-38 313 287
-0.00733244 0.69700003 -0.05743745 1.2883192e-38 314 287
-0.0061015999 0.69599998 -0.057355035 1.2790638e-38 315 287
-0.0048672534 0.69400001 -0.057190225 1.2699521e-38 316 287
-0.0036504399 0.69400001 -0.057190225 1.2883911e-38 317 287
-0.0024406398 0.69599998 -0.057355035 1.2792085e-38 318 287
-0.0012203199 0.69599998 -0.057355035 1.2792085e-38 319 287
0 0.69599998 -0.057355035 1.2792088e-38 320 287
0.0012168133 0.69400001 -0.057190225 1.2792088e-38 321 287
0.0024336267 0.69400001 -0.057190225 1.2792091e-38 322 287
0.0036451798 0.69300002 -0.057107817 1.2884286e-38 323 287
0.00486024 0.69300002 -0.057107817 1.2792807e-38 324 287
0.0060753003 0.69300002 -0.057107817 1.2792807e-38 325 287
0.0072903596 0.69300002 -0.057107817 1.2518012e-38 326 287
0.0085054198 0.69300002 -0.057107817 1.2333981e-38 327 287
0.0097204801 0.69300002 -0.057107817 1.2425451e-38 328 287
0.010935539 0.69300002 -0.057107817 1.2425451e-38 329 287
0.012150601 0.69300002 -0.057107817 1.2517281e-38 330 287
0.013384946 0.69400001 -0.057190225 1.2517281e-38 331 287
0.01460176 0.69400001 -0.057190225 1.2700593e-38 332 287
0.015818574 0.69400001 -0.057190225 1.2700593e-38 333 287
0.017084479 0.69599998 -0.057355035 1.2699874e-38 334 287
0.018304799 0.69599998 -0.057355035 1.2699874e-38 335 287
0.019525118 0.69599998 -0.057355035 1.2425438e-38 336 287
0.020745439 0.69599998 -0.057355035 1.2425438e-38 337 287
0.02199732 0.69700003 -0.05743745 1.2425435e-38 338 287
0.023219392 0.69700003 -0.05743745 1.2517631e-38 339 287
0.024476532 0.69800001 -0.057519849 1.2517631e-38 340 287
0.025700359 0.69800001 -0.057519849 1.2517631e-38 341 287
0.026924185 0.69800001 -0.057519849 1.2610551e-38 342 287
0.028228667 0.69999999 -0.05768466 1.2702747e-38 343 287
0.029455997 0.69999999 -0.05768466 1.2978271e-38 344 287
0.030727165 0.70099998 -0.057767071 1.3255217e-38 345 287
0.031956252 0.70099998 -0.057767071 1.3256676e-38 346 287
0.03332736 0.704 -0.058014292 1.3533623e-38 347 287
0.034561705 0.704 -0.058014292 1.3812015e-38 348 287
0.035897743 0.70599997 -0.058179103 1.4181156e-38 349 287
0.037135597 0.70599997 -0.058179103 1.4091494e-38 350 287
-0.031121666 0.70999998 -0.059753593 1.2897272e-38 295 288
-0.02979264 0.708 -0.059585281 1.3902401e-38 296 288
-0.02855128 0.708 -0.059585281 1.3810206e-38 297 288
-0.027309919 0.708 -0.059585281 1.3439978e-38 298 288
-0.02603174 0.70700002 -0.059501119 1.3163031e-38 299 288
-0.024757065 0.70599997 -0.059416957 1.3160146e-38 300 288
-0.023452586 0.704 -0.059248637 1.2975753e-38 301 288
-0.02218668 0.70300001 -0.059164476 1.2883192e-38 302 288
-0.020954086 0.70300001 -0.059164476 1.2883192e-38 303 288
-0.019665385 0.70099998 -0.058996156 1.288247e-38 304 288
-0.018436298 0.70099998 -0.058996156 1.3066501e-38 305 288
-0.017207211 0.70099998 -0.058996156 1.288247e-38 306 288
-0.015955333 0.69999999 -0.058911994 1.288247e-38 307 288
-0.014727999 0.69999999 -0.058911994 1.2882473e-38 308 288
-0.013500666 0.69999999 -0.058911994 1.2789917e-38 309 288
-0.012238266 0.69800001 -0.058743682 1.2790273e-38 310 288
-0.01101444 0.69800001 -0.058743682 1.288247e-38 311 288
-0.0097765867 0.69700003 -0.05865952 1.2790273e-38 312 288
-0.0085545136 0.69700003 -0.05865952 1.2790273e-38 313 288
-0.00733244 0.69700003 -0.05865952 1.2790991e-38 314 288
-0.0061015999 0.69599998 -0.058575355 1.2790991e-38 315 288
-0.0048812795 0.69599998 -0.058575355 1.2883186e-38 316 288
-0.0036609597 0.69599998 -0.058575355 1.2883186e-38 317 288
-0.0024406398 0.69599998 -0.058575355 1.2882839e-38 318 288
-0.0012203199 0.69599998 -0.058575355 1.306723e-38 319 288
0 0.69599998 -0.058575355 1.2883205e-38 320 288
0.0012168133 0.69400001 -0.058407038 1.29754e-38 321 288
0.0024336267 0.69400001 -0.058407038 1.2792088e-38 322 288
0.0036504399 0.69400001 -0.058407038 1.2792088e-38 323 288
0.0048672534 0.69400001 -0.058407038 1.2516946e-38 324 288
0.0060753003 0.69300002 -0.058322877 1.2516946e-38 325 288
0.0072903596 0.69300002 -0.058322877 1.2424745e-38 326 288
0.0085054198 0.69300002 -0.058322877 1.2424745e-38 327 288
0.0097204801 0.69300002 -0.058322877 1.2424732e-38 328 288
0.010935539 0.69300002 -0.058322877 1.2424732e-38 329 288
0.012168133 0.69400001 -0.058407038 1.2425085e-38 330 288
0.013384946 0.69400001 -0.058407038 1.2425085e-38 331 288
0.01460176 0.69400001 -0.058407038 1.2791344e-38 332 288
0.015818574 0.69400001 -0.058407038 1.2883539e-38 333 288
0.017084479 0.69599998 -0.058575355 1.2791341e-38 334 288
0.018304799 0.69599998 -0.058575355 1.2791341e-38 335 288
0.019525118 0.69599998 -0.058575355 1.2516549e-38 336 288
0.020745439 0.69599998 -0.058575355 1.2609104e-38 337 288
0.02199732 0.69700003 -0.05865952 1.2426507e-38 338 288
0.023219392 0.69700003 -0.05865952 1.2426507e-38 339 288
0.024476532 0.69800001 -0.058743682 1.2517984e-38 340 288
0.025700359 0.69800001 -0.058743682 1.2517984e-38 341 288
0.026924185 0.69800001 -0.058743682 1.2701662e-38 342 288
0.028228667 0.69999999 -0.058911994 1.2886412e-38 343 288
0.029455997 0.69999999 -0.058911994 1.2978625e-38 344 288
0.030727165 0.70099998 -0.058996156 1.3255211e-38 345 288
0.032047424 0.70300001 -0.059164476 1.325631e-38 346 288
0.03332736 0.704 -0.059248637 1.4085711e-38 347 288
0.034659892 0.70599997 -0.059416957 1.3721254e-38 348 288
0.035897743 0.70599997 -0.059416957 1.4274428e-38 349 288
-0.032412119 0.71100003 -0.061084379 1.6955329e-38 294 289
-0.031121666 0.70999998 -0.060998458 1.4096906e-38 295 289
-0.02979264 0.708 -0.060826641 1.4271907e-38 296 289
-0.02855128 0.708 -0.060826641 1.3718733e-38 297 289
-0.027309919 0.708 -0.060826641 1.3715839e-38 298 289
-0.02603174 0.70700002 -0.060740728 1.3347058e-38 299 289
-0.024792133 0.70700002 -0.060740728 1.3252698e-38 300 289
-0.023452586 0.704 -0.060482983 1.2975751e-38 301 289
-0.022218239 0.704 -0.060482983 1.2883911e-38 302 289
-0.020983893 0.704 -0.060482983 1.2699521e-38 303 289
-0.019749546 0.704 -0.060482983 1.2607681e-38 304 289
-0.018488899 0.70300001 -0.06039707 1.2607681e-38 305 289
-0.017207211 0.70099998 -0.060225245 1.2790638e-38 306 289
-0.015955333 0.69999999 -0.060139328 1.2790638e-38 307 289
-0.014727999 0.69999999 -0.060139328 1.2789917e-38 308 289
-0.013462093 0.69800001 -0.059967503 1.2789917e-38 309 289
-0.012238266 0.69800001 -0.059967503 1.2790273e-38 310 289
-0.01101444 0.69800001 -0.059967503 1.2790273e-38 311 289
-0.0097765867 0.69700003 -0.05988159 1.2698796e-38 312 289
-0.0085545136 0.69700003 -0.05988159 1.2790994e-38 313 289
-0.00733244 0.69700003 -0.05988159 1.2516202e-38 314 289
-0.0061015999 0.69599998 -0.059795678 1.2516202e-38 315 289
-0.0048812795 0.69599998 -0.059795678 1.2607681e-38 316 289
-0.0036609597 0.69599998 -0.059795678 1.2607681e-38 317 289
-0.0024406398 0.69599998 -0.059795678 1.269989e-38 318 289
-0.0012203199 0.69599998 -0.059795678 1.269989e-38 319 289
0 0.69599998 -0.059795678 1.251658e-38 320 289
0.0012203199 0.69599998 -0.059795678 1.2700611e-38 321 289
0.0024406398 0.69599998 -0.059795678 1.2517296e-38 322 289
0.0036504399 0.69400001 -0.059623852 1.2609492e-38 323 289
0.0048672534 0.69400001 -0.059623852 1.2517662e-38 324 289
0.0060840664 0.69400001 -0.059623852 1.2333631e-38 325 289
0.0073008798 0.69400001 -0.059623852 1.24251e-38 326 289
0.0085176928 0.69400001 -0.059623852 1.24251e-38 327 289
0.0097204801 0.69300002 -0.05953794 1.2333252e-38 328 289
0.010935539 0.69300002 -0.05953794 1.2333252e-38 329 289
0.012168133 0.69400001 -0.059623852 1.2333606e-38 330 289
0.013384946 0.69400001 -0.059623852 1.2333606e-38 331 289
0.01460176 0.69400001 -0.059623852 1.233324e-38 332 289
0.015864158 0.69599998 -0.059795678 1.2425435e-38 333 289
0.017084479 0.69599998 -0.059795678 1.2608029e-38 334 289
0.018304799 0.69599998 -0.059795678 1.2608029e-38 335 289
0.019553173 0.69700003 -0.05988159 1.233324e-38 336 289
0.020775247 0.69700003 -0.05988159 1.2425435e-38 337 289
0.02199732 0.69700003 -0.05988159 1.2425435e-38 338 289
0.023252707 0.69800001 -0.059967503 1.2517631e-38 339 289
0.024476532 0.69800001 -0.059967503 1.2518706e-38 340 289
0.025700359 0.69800001 -0.059967503 1.2518706e-38 341 289
0.026924185 0.69800001 -0.059967503 1.2702741e-38 342 289
0.028228667 0.69999999 -0.060139328 1.2795297e-38 343 289
0.029455997 0.69999999 -0.060139328 1.2887508e-38 344 289
0.030814834 0.70300001 -0.06039707 1.325593e-38 345 289
0.032047424 0.70300001 -0.06039707 1.3349581e-38 346 289
0.03332736 0.704 -0.060482983 1.4087146e-38 347 289
0.034561705 0.704 -0.060482983 1.3906361e-38 348 289
0.035897743 0.70599997 -0.060654808 1.4551731e-38 349 289
-0.032412119 0.71100003 -0.062331002 1.8155684e-38 294 290
-0.031121666 0.70999998 -0.062243331 1.5297618e-38 295 290
-0.029876797 0.70999998 -0.062243331 1.4364471e-38 296 290
-0.02855128 0.708 -0.062068 1.3626906e-38 297 290
-0.027309919 0.708 -0.062068 1.4083543e-38 298 290
-0.026068559 0.708 -0.062068 1.3622925e-38 299 290
-0.024792133 0.70700002 -0.061980337 1.3345965e-38 300 290
-0.023452586 0.704 -0.061717331 1.2977183e-38 301 290
-0.022218239 0.704 -0.061717331 1.297646e-38 302 290
-0.020983893 0.704 -0.061717331 1.2883905e-38 303 290
-0.019749546 0.704 -0.061717331 1.2608397e-38 304 290
-0.018488899 0.70300001 -0.061629668 1.2608397e-38 305 290
-0.017207211 0.70099998 -0.06145433 1.2699874e-38 306 290
-0.015955333 0.69999999 -0.061366666 1.2699874e-38 307 290
-0.014727999 0.69999999 -0.061366666 1.2515126e-38 308 290
-0.013462093 0.69800001 -0.061191335 1.2515126e-38 309 290
-0.012238266 0.69800001 -0.061191335 1.2515128e-38 310 290
-0.01101444 0.69800001 -0.061191335 1.2515128e-38 311 290
-0.0097906133 0.69800001 -0.061191335 1.2608044e-38 312 290
-0.0085545136 0.69700003 -0.061103668 1.2515849e-38 313 290
-0.00733244 0.69700003 -0.061103668 1.2423652e-38 314 290
-0.0061103669 0.69700003 -0.061103668 1.2423652e-38 315 290
-0.0048812795 0.69599998 -0.061015997 1.2515133e-38 316 290
-0.0036609597 0.69599998 -0.061015997 1.2607328e-38 317 290
-0.0024406398 0.69599998 -0.061015997 1.2515501e-38 318 290
-0.0012203199 0.69599998 -0.061015997 1.2699892e-38 319 290
0 0.69599998 -0.061015997 1.2699892e-38 320 290
0.0012203199 0.69599998 -0.061015997 1.2699892e-38 321 290
0.0024406398 0.69599998 -0.061015997 1.24251e-38 322 290
0.0036609597 0.69599998 -0.061015997 1.2517296e-38 323 290
0.0048812795 0.69599998 -0.061015997 1.2242151e-38 324 290
0.0060840664 0.69400001 -0.060840666 1.2242151e-38 325 290
0.0073008798 0.69400001 -0.060840666 1.2242507e-38 326 290
0.0085176928 0.69400001 -0.060840666 1.2242507e-38 327 290
0.0097345067 0.69400001 -0.060840666 1.2150656e-38 328 290
0.01095132 0.69400001 -0.060840666 1.2150656e-38 329 290
0.012168133 0.69400001 -0.060840666 1.2242842e-38 330 290
0.013384946 0.69400001 -0.060840666 1.2242842e-38 331 290
0.014643839 0.69599998 -0.061015997 1.2334312e-38 332 290
0.015864158 0.69599998 -0.061015997 1.2334312e-38 333 290
0.017084479 0.69599998 -0.061015997 1.2425789e-38 334 290
0.018304799 0.69599998 -0.061015997 1.2333593e-38 335 290
0.019553173 0.69700003 -0.061103668 1.2425435e-38 336 290
0.020775247 0.69700003 -0.061103668 1.2517631e-38 337 290
0.02202888 0.69800001 -0.061191335 1.2426157e-38 338 290
0.023252707 0.69800001 -0.061191335 1.2518353e-38 339 290
0.024476532 0.69800001 -0.061191335 1.2793861e-38 340 290
0.025700359 0.69800001 -0.061191335 1.2793861e-38 341 290
0.027001332 0.69999999 -0.061366666 1.2703464e-38 342 290
0.028228667 0.69999999 -0.061366666 1.2887855e-38 343 290
0.029498078 0.70099998 -0.06145433 1.298042e-38 344 290
0.030814834 0.70300001 -0.061629668 1.3257367e-38 345 290
0.032047424 0.70300001 -0.061629668 1.3350297e-38 346 290
0.033280019 0.70300001 -0.061629668 1.4180059e-38 347 290
0.034561705 0.704 -0.061717331 1.418403e-38 348 290
-0.033753417 0.713 -0.063756458 1.9359653e-38 293 291
-0.032412119 0.71100003 -0.063577622 1.9171278e-38 294 291
-0.031121666 0.70999998 -0.063488193 1.5944431e-38 295 291
-0.029876797 0.70999998 -0.063488193 1.3998207e-38 296 291
-0.028631933 0.70999998 -0.063488193 1.3260642e-38 297 291
-0.027387066 0.70999998 -0.063488193 1.4084626e-38 298 291
-0.026068559 0.708 -0.063309364 1.3808038e-38 299 291
-0.024792133 0.70700002 -0.063219935 1.3255217e-38 300 291
-0.023519212 0.70599997 -0.063130513 1.3162663e-38 301 291
-0.022218239 0.704 -0.062951677 1.2702396e-38 302 291
-0.020983893 0.704 -0.062951677 1.2517646e-38 303 291
-0.019749546 0.704 -0.062951677 1.2700243e-38 304 291
-0.018515198 0.704 -0.062951677 1.2608047e-38 305 291
-0.017256306 0.70300001 -0.062862262 1.2699877e-38 306 291
-0.015978126 0.70099998 -0.062683418 1.2699877e-38 307 291
-0.014727999 0.69999999 -0.062593997 1.2423649e-38 308 291
-0.013500666 0.69999999 -0.062593997 1.2239618e-38 309 291
-0.012238266 0.69800001 -0.062415157 1.2515128e-38 310 291
-0.01101444 0.69800001 -0.062415157 1.2515128e-38 311 291
-0.0097906133 0.69800001 -0.062415157 1.2332534e-38 312 291
-0.0085667865 0.69800001 -0.062415157 1.2240336e-38 313 291
-0.00733244 0.69700003 -0.062325738 1.2422935e-38 314 291
-0.0061103669 0.69700003 -0.062325738 1.2422935e-38 315 291
-0.0048882933 0.69700003 -0.062325738 1.2239634e-38 316 291
-0.00366622 0.69700003 -0.062325738 1.2239634e-38 317 291
-0.0024441467 0.69700003 -0.062325738 1.2422949e-38 318 291
-0.0012220733 0.69700003 -0.062325738 1.2515145e-38 319 291
0 0.69700003 -0.062325738 1.2515498e-38 320 291
0.0012203199 0.69599998 -0.062236317 1.2515498e-38 321 291
0.0024406398 0.69599998 -0.062236317 1.2148874e-38 322 291
0.0036609597 0.69599998 -0.062236317 1.2332905e-38 323 291
0.0048812795 0.69599998 -0.062236317 1.1965924e-38 324 291
0.0061015999 0.69599998 -0.062236317 1.1965924e-38 325 291
0.0073008798 0.69400001 -0.06205748 1.1966996e-38 326 291
0.0085176928 0.69400001 -0.06205748 1.1966996e-38 327 291
0.0097345067 0.69400001 -0.06205748 1.2150656e-38 328 291
0.01095132 0.69400001 -0.06205748 1.1966625e-38 329 291
0.012168133 0.69400001 -0.06205748 1.2242842e-38 330 291
0.013423519 0.69599998 -0.062236317 1.2335038e-38 331 291
0.014643839 0.69599998 -0.062236317 1.2242839e-38 332 291
0.015864158 0.69599998 -0.062236317 1.2242839e-38 333 291
0.017084479 0.69599998 -0.062236317 1.2242839e-38 334 291
0.018331099 0.69700003 -0.062325738 1.2150644e-38 335 291
0.019553173 0.69700003 -0.062325738 1.2426154e-38 336 291
0.020805053 0.69800001 -0.062415157 1.251835e-38 337 291
0.02202888 0.69800001 -0.062415157 1.2518706e-38 338 291
0.023319334 0.69999999 -0.062593997 1.2610901e-38 339 291
0.024546666 0.69999999 -0.062593997 1.2610548e-38 340 291
0.025773998 0.69999999 -0.062593997 1.2702744e-38 341 291
0.027001332 0.69999999 -0.062593997 1.2612713e-38 342 291
0.028228667 0.69999999 -0.062593997 1.2704909e-38 343 291
0.029498078 0.70099998 -0.062683418 1.3072621e-38 344 291
0.030814834 0.70300001 -0.062862262 1.3441045e-38 345 291
0.032047424 0.70300001 -0.062862262 1.3442496e-38 346 291
0.033280019 0.70300001 -0.062862262 1.4272257e-38 347 291
