# .PCD v.7 - Point Cloud Data file format
FIELDS x y z rgb imX imY
SIZE 4 4 4 4 4 4
TYPE F F F F F F
COUNT 1 1 1 1 1 1
WIDTH 829
HEIGHT 1
VIEWPOINT 0 0 0 1 0 0 0
POINTS 829
DATA ascii
0.0180944 0.68800002 -0.042220265 1.5281736e-38 335 275
0.019300694 0.68800002 -0.042220265 1.5834172e-38 336 275
0.020506985 0.68800002 -0.042220265 1.5557584e-38 337 275
0.021776399 0.69 -0.042342998 1.5554341e-38 338 275
0.022986198 0.69 -0.042342998 1.5554341e-38 339 275
0.024195999 0.69 -0.042342998 1.5279906e-38 340 275
0.025442619 0.69099998 -0.042404365 1.518771e-38 341 275
0.026654173 0.69099998 -0.042404365 1.5369938e-38 342 275
0.027865725 0.69099998 -0.042404365 1.5277383e-38 343 275
0.029077278 0.69099998 -0.042404365 1.4634536e-38 344 275
0.0303765 0.69300002 -0.042527102 1.4634536e-38 345 275
0.031591557 0.69300002 -0.042527102 1.4541631e-38 346 275
0.032853961 0.69400001 -0.042588469 1.4634186e-38 347 275
0.034070771 0.69400001 -0.042588469 1.4543434e-38 348 275
0.035287585 0.69400001 -0.042588469 1.4635629e-38 349 275
0.036662199 0.69700003 -0.042772565 1.4636701e-38 350 275
0.038047329 0.69999999 -0.042956665 1.4544506e-38 351 275
0.039274666 0.69999999 -0.042956665 1.4727102e-38 352 275
0.040559858 0.70099998 -0.043018032 1.4450515e-38 353 275
0.041908171 0.70300001 -0.043140765 1.4266492e-38 354 275
0.043202132 0.704 -0.043202132 1.3160146e-38 355 275
0.044562716 0.70599997 -0.043324865 1.4090437e-38 356 275
0.045865446 0.70700002 -0.043386232 1.8147404e-38 357 275
0.047105055 0.70700002 -0.043386232 1.816328e-38 358 275
-0.023452586 0.704 -0.044436477 1.1802113e-38 301 276
-0.022218239 0.704 -0.044436477 1.4363026e-38 302 276
-0.020983893 0.704 -0.044436477 1.4178636e-38 303 276
-0.019721493 0.70300001 -0.04437336 1.6107871e-38 304 276
-0.018488899 0.70300001 -0.04437336 1.6015317e-38 305 276
-0.017207211 0.70099998 -0.044247117 1.601567e-38 306 276
-0.015909746 0.69800001 -0.04405776 1.601567e-38 307 276
-0.01468592 0.69800001 -0.04405776 1.5923474e-38 308 276
-0.013462093 0.69800001 -0.04405776 1.5831279e-38 309 276
-0.012220734 0.69700003 -0.043994639 1.5279921e-38 310 276
-0.01095132 0.69400001 -0.043805279 1.5372118e-38 311 276
-0.0097204801 0.69300002 -0.043742158 1.5005859e-38 312 276
-0.0085054198 0.69300002 -0.043742158 1.4913664e-38 313 276
-0.0072903596 0.69300002 -0.043742158 1.5372118e-38 314 276
-0.0060577663 0.69099998 -0.043615919 1.5372118e-38 315 276
-0.0048462129 0.69099998 -0.043615919 1.509589e-38 316 276
-0.0036346598 0.69099998 -0.043615919 1.491114e-38 317 276
-0.0024195998 0.69 -0.043552797 1.4817875e-38 318 276
-0.0012062934 0.68800002 -0.043426562 1.4725679e-38 319 276
0 0.68800002 -0.043426562 1.4633496e-38 320 276
0.00121506 0.69300002 -0.043742158 1.4725692e-38 321 276
0.0024231065 0.69099998 -0.043615919 1.4817169e-38 322 276
0.0036188802 0.68800002 -0.043426562 1.5001559e-38 323 276
0.0048251734 0.68800002 -0.043426562 1.4818962e-38 324 276
0.0060314666 0.68800002 -0.043426562 1.4818962e-38 325 276
0.0072377604 0.68800002 -0.043426562 1.4820041e-38 326 276
0.0084317802 0.68699998 -0.043363437 1.4820041e-38 327 276
0.0096363192 0.68699998 -0.043363437 1.4912239e-38 328 276
0.010840859 0.68699998 -0.043363437 1.4820041e-38 329 276
0.012045399 0.68699998 -0.043363437 1.4818607e-38 330 276
0.013249939 0.68699998 -0.043363437 1.4450184e-38 331 276
0.014454478 0.68699998 -0.043363437 1.4079975e-38 332 276
0.015659019 0.68699998 -0.043363437 1.3987779e-38 333 276
0.01686356 0.68699998 -0.043363437 1.3899177e-38 334 276
0.018068098 0.68699998 -0.043363437 1.4544546e-38 335 276
0.019300694 0.68800002 -0.043426562 1.5556162e-38 336 276
0.020506985 0.68800002 -0.043426562 1.5371412e-38 337 276
0.021713281 0.68800002 -0.043426562 1.5461793e-38 338 276
0.022919573 0.68800002 -0.043426562 1.5461793e-38 339 276
0.024125867 0.68800002 -0.043426562 1.5279552e-38 340 276
0.025405798 0.69 -0.043552797 1.5095161e-38 341 276
0.026615599 0.69 -0.043552797 1.5277036e-38 342 276
0.027825398 0.69 -0.043552797 1.5184839e-38 343 276
0.029077278 0.69099998 -0.043615919 1.47253e-38 344 276
0.0303765 0.69300002 -0.043742158 1.47253e-38 345 276
0.031591557 0.69300002 -0.043742158 1.4541631e-38 346 276
0.032853961 0.69400001 -0.043805279 1.4634186e-38 347 276
0.034070771 0.69400001 -0.043805279 1.4267924e-38 348 276
0.035287585 0.69400001 -0.043805279 1.4451957e-38 349 276
0.036609598 0.69599998 -0.043931518 1.4451957e-38 350 276
0.037938625 0.69800001 -0.04405776 1.4451957e-38 351 276
0.039162453 0.69800001 -0.04405776 1.4451239e-38 352 276
0.040502001 0.69999999 -0.044183996 1.4451239e-38 353 276
0.041788943 0.70099998 -0.044247117 1.4175373e-38 354 276
0.043140765 0.70300001 -0.04437336 1.3622199e-38 355 276
0.044562716 0.70599997 -0.044562716 1.3167024e-38 356 276
0.04580057 0.70599997 -0.044562716 1.6486066e-38 357 276
0.047038425 0.70599997 -0.044562716 1.7793406e-38 358 276
-0.024686933 0.704 -0.045670826 1.6413325e-38 300 277
-0.023419274 0.70300001 -0.04560595 9.5908468e-39 301 277
-0.02218668 0.70300001 -0.04560595 1.4084273e-38 302 277
-0.020954086 0.70300001 -0.04560595 1.5006228e-38 303 277
-0.019665385 0.70099998 -0.045476202 1.5831651e-38 304 277
-0.018436298 0.70099998 -0.045476202 1.5739456e-38 305 277
-0.017182667 0.69999999 -0.04541133 1.5832005e-38 306 277
-0.015909746 0.69800001 -0.045281585 1.59242e-38 307 277
-0.01466488 0.69700003 -0.045216713 1.5557216e-38 308 277
-0.013442807 0.69700003 -0.045216713 1.5096237e-38 309 277
-0.012168133 0.69400001 -0.045022093 1.4635279e-38 310 277
-0.01095132 0.69400001 -0.045022093 1.4911864e-38 311 277
-0.0097204801 0.69300002 -0.044957221 1.4912592e-38 312 277
-0.0085054198 0.69300002 -0.044957221 1.4912592e-38 313 277
-0.0072903596 0.69300002 -0.044957221 1.4912943e-38 314 277
-0.0060577663 0.69099998 -0.044827472 1.4820748e-38 315 277
-0.0048462129 0.69099998 -0.044827472 1.5001906e-38 316 277
-0.0036293997 0.69 -0.0447626 1.4633482e-38 317 277
-0.0024125867 0.68800002 -0.044632856 1.4539859e-38 318 277
-0.0012062934 0.68800002 -0.044632856 1.4539859e-38 319 277
0 0.68800002 -0.044632856 1.426472e-38 320 277
0.0012062934 0.68800002 -0.044632856 1.426472e-38 321 277
0.0024125867 0.68800002 -0.044632856 1.4540227e-38 322 277
0.0036188802 0.68800002 -0.044632856 1.4632423e-38 323 277
0.0048251734 0.68800002 -0.044632856 1.4357631e-38 324 277
0.0060226996 0.68699998 -0.044567976 1.4357631e-38 325 277
0.0072272392 0.68699998 -0.044567976 1.4450187e-38 326 277
0.0084317802 0.68699998 -0.044567976 1.4542383e-38 327 277
0.0096222926 0.68599999 -0.044503104 1.4450187e-38 328 277
0.010825079 0.68599999 -0.044503104 1.4357631e-38 329 277
0.012027865 0.68599999 -0.044503104 1.4173243e-38 330 277
0.013230653 0.68599999 -0.044503104 1.3896657e-38 331 277
0.01443344 0.68599999 -0.044503104 1.3619e-38 332 277
0.015636226 0.68599999 -0.044503104 1.3342054e-38 333 277
0.01686356 0.68699998 -0.044567976 1.3068347e-38 334 277
0.018068098 0.68699998 -0.044567976 1.3989943e-38 335 277
0.019272638 0.68699998 -0.044567976 1.4451985e-38 336 277
0.020477179 0.68699998 -0.044567976 1.4451985e-38 337 277
0.021681719 0.68699998 -0.044567976 1.5001538e-38 338 277
0.022886258 0.68699998 -0.044567976 1.5094092e-38 339 277
0.024090799 0.68699998 -0.044567976 1.5094086e-38 340 277
0.02533216 0.68800002 -0.044632856 1.4817498e-38 341 277
0.026538454 0.68800002 -0.044632856 1.499902e-38 342 277
0.027744746 0.68800002 -0.044632856 1.5091215e-38 343 277
0.029035198 0.69 -0.0447626 1.4540918e-38 344 277
0.030288832 0.69099998 -0.044827472 1.4540918e-38 345 277
0.031500384 0.69099998 -0.044827472 1.426577e-38 346 277
0.03280662 0.69300002 -0.044957221 1.445052e-38 347 277
0.034070771 0.69400001 -0.045022093 1.4358685e-38 348 277
0.035287585 0.69400001 -0.045022093 1.4451239e-38 349 277
0.036609598 0.69599998 -0.045151837 1.4267568e-38 350 277
0.037884273 0.69700003 -0.045216713 1.4267568e-38 351 277
0.039162453 0.69800001 -0.045281585 1.4267568e-38 352 277
0.040386278 0.69800001 -0.045281585 1.4267568e-38 353 277
0.041729331 0.69999999 -0.04541133 1.4175373e-38 354 277
0.043140765 0.70300001 -0.04560595 1.3990981e-38 355 277
0.044562716 0.70599997 -0.04580057 1.3255972e-38 356 277
0.04580057 0.70599997 -0.04580057 1.5469028e-38 357 277
0.047038425 0.70599997 -0.04580057 1.7422097e-38 358 277
-0.024686933 0.704 -0.046905171 1.5578875e-38 300 278
-0.023452586 0.704 -0.046905171 9.6783551e-39 301 278
-0.02218668 0.70300001 -0.046838548 1.3992433e-38 302 278
-0.020954086 0.70300001 -0.046838548 1.5190616e-38 303 278
-0.019665385 0.70099998 -0.046705291 1.5739824e-38 304 278
-0.018409999 0.69999999 -0.046638668 1.5463598e-38 305 278
-0.017133573 0.69800001 -0.046505414 1.5556865e-38 306 278
-0.015886955 0.69700003 -0.046438783 1.5649061e-38 307 278
-0.01466488 0.69700003 -0.046438783 1.5464314e-38 308 278
-0.013423519 0.69599998 -0.046372157 1.5003336e-38 309 278
-0.012168133 0.69400001 -0.046238903 1.4451256e-38 310 278
-0.010935539 0.69300002 -0.04617228 1.4635647e-38 311 278
-0.0097204801 0.69300002 -0.04617228 1.4269386e-38 312 278
-0.0085054198 0.69300002 -0.04617228 1.4269386e-38 313 278
-0.0072693196 0.69099998 -0.046039023 1.4727843e-38 314 278
-0.0060577663 0.69099998 -0.046039023 1.4451256e-38 315 278
-0.0048391996 0.69 -0.045972396 1.4724249e-38 316 278
-0.0036188802 0.68800002 -0.045839146 1.4447663e-38 317 278
-0.0024125867 0.68800002 -0.045839146 1.435547e-38 318 278
-0.0012062934 0.68800002 -0.045839146 1.435547e-38 319 278
0 0.68800002 -0.045839146 1.3987774e-38 320 278
0.0012062934 0.68800002 -0.045839146 1.4080328e-38 321 278
0.0024125867 0.68800002 -0.045839146 1.389666e-38 322 278
0.0036188802 0.68800002 -0.045839146 1.3988856e-38 323 278
0.0048181596 0.68699998 -0.045772515 1.3897379e-38 324 278
0.0060226996 0.68699998 -0.045772515 1.3897379e-38 325 278
0.0072272392 0.68699998 -0.045772515 1.3989572e-38 326 278
0.0084195063 0.68599999 -0.045705888 1.3989572e-38 327 278
0.0096222926 0.68599999 -0.045705888 1.389666e-38 328 278
0.01079352 0.68400002 -0.045572639 1.3804464e-38 329 278
0.011975267 0.68300003 -0.045506012 1.3711911e-38 330 278
0.013172794 0.68300003 -0.045506012 1.352752e-38 331 278
0.01443344 0.68599999 -0.045705888 1.343425e-38 332 278
0.015636226 0.68599999 -0.045705888 1.3249859e-38 333 278
0.016839013 0.68599999 -0.045705888 1.2975795e-38 334 278
0.018041799 0.68599999 -0.045705888 1.371336e-38 335 278
0.019244585 0.68599999 -0.045705888 1.38077e-38 336 278
0.020447372 0.68599999 -0.045705888 1.3899897e-38 337 278
0.021650158 0.68599999 -0.045705888 1.4634203e-38 338 278
0.022886258 0.68699998 -0.045772515 1.4634203e-38 339 278
0.024090799 0.68699998 -0.045772515 1.4724593e-38 340 278
0.025295338 0.68699998 -0.045772515 1.4356171e-38 341 278
0.026499879 0.68699998 -0.045772515 1.4814275e-38 342 278
0.027704418 0.68699998 -0.045772515 1.4906471e-38 343 278
0.028908957 0.68699998 -0.045772515 1.4172506e-38 344 278
0.030157333 0.68800002 -0.045839146 1.4172506e-38 345 278
0.031363625 0.68800002 -0.045839146 1.426542e-38 346 278
0.032711938 0.69099998 -0.046039023 1.426542e-38 347 278
0.034021679 0.69300002 -0.04617228 1.4266495e-38 348 278
0.035287585 0.69400001 -0.046238903 1.4266495e-38 349 278
0.036504399 0.69400001 -0.046238903 1.4083543e-38 350 278
0.037829921 0.69599998 -0.046372157 1.4083543e-38 351 278
0.039050236 0.69599998 -0.046372157 1.4083899e-38 352 278
0.040328421 0.69700003 -0.046438783 1.4083899e-38 353 278
0.041550495 0.69700003 -0.046438783 1.4083543e-38 354 278
0.042956665 0.69999999 -0.046638668 1.3991347e-38 355 278
0.04437336 0.70300001 -0.046838548 1.325453e-38 356 278
0.045865446 0.70700002 -0.047105055 1.4545269e-38 357 278
-0.024651866 0.70300001 -0.048071139 1.4376382e-38 300 279
-0.023419274 0.70300001 -0.048071139 1.041197e-38 301 279
-0.022123558 0.70099998 -0.047934376 1.4177187e-38 302 279
-0.020894472 0.70099998 -0.047934376 1.4638166e-38 303 279
-0.019637333 0.69999999 -0.047865998 1.5462514e-38 304 279
-0.0183574 0.69800001 -0.047729239 1.5462514e-38 305 279
-0.017133573 0.69800001 -0.047729239 1.564654e-38 306 279
-0.015886955 0.69700003 -0.047660861 1.6475942e-38 307 279
-0.014643839 0.69599998 -0.047592476 1.5188803e-38 308 279
-0.013423519 0.69599998 -0.047592476 1.4820019e-38 309 279
-0.012168133 0.69400001 -0.047455717 1.4269013e-38 310 279
-0.010935539 0.69300002 -0.047387339 1.4269013e-38 311 279
-0.0097204801 0.69300002 -0.047387339 1.4268294e-38 312 279
-0.0085054198 0.69300002 -0.047387339 1.4268294e-38 313 279
-0.0072693196 0.69099998 -0.047250576 1.4725324e-38 314 279
-0.0060489997 0.69 -0.047182199 1.4448735e-38 315 279
-0.0048251734 0.68800002 -0.047045439 1.4539133e-38 316 279
-0.0036188802 0.68800002 -0.047045439 1.4539133e-38 317 279
-0.0024125867 0.68800002 -0.047045439 1.4172506e-38 318 279
-0.0012045399 0.68699998 -0.046977058 1.408031e-38 319 279
0 0.68699998 -0.046977058 1.3988483e-38 320 279
0.0012062934 0.68800002 -0.047045439 1.3711896e-38 321 279
0.0024125867 0.68800002 -0.047045439 1.3894858e-38 322 279
0.0036136196 0.68699998 -0.046977058 1.3987054e-38 323 279
0.0048181596 0.68699998 -0.046977058 1.3895933e-38 324 279
0.0060226996 0.68699998 -0.046977058 1.3895933e-38 325 279
0.0072167199 0.68599999 -0.046908677 1.389593e-38 326 279
0.0083949603 0.68400002 -0.046771921 1.3711899e-38 327 279
0.0095942402 0.68400002 -0.046771921 1.3710817e-38 328 279
0.01077774 0.68300003 -0.04670354 1.3526786e-38 329 279
0.011975267 0.68300003 -0.04670354 1.3526783e-38 330 279
0.013172794 0.68300003 -0.04670354 1.3434587e-38 331 279
0.01439136 0.68400002 -0.046771921 1.3250558e-38 332 279
0.01559064 0.68400002 -0.046771921 1.3343114e-38 333 279
0.016789921 0.68400002 -0.046771921 1.3251997e-38 334 279
0.018041799 0.68599999 -0.046908677 1.3712615e-38 335 279
0.019244585 0.68599999 -0.046908677 1.4081029e-38 336 279
0.020387759 0.68400002 -0.046771921 1.4081029e-38 337 279
0.02158704 0.68400002 -0.046771921 1.4539839e-38 338 279
0.022852944 0.68599999 -0.046908677 1.4355448e-38 339 279
0.024055731 0.68599999 -0.046908677 1.4538397e-38 340 279
0.025258519 0.68599999 -0.046908677 1.4354006e-38 341 279
0.026461305 0.68599999 -0.046908677 1.4538397e-38 342 279
0.027664091 0.68599999 -0.046908677 1.4538397e-38 343 279
0.028908957 0.68699998 -0.046977058 1.4446565e-38 344 279
0.030157333 0.68800002 -0.047045439 1.4539119e-38 345 279
0.031363625 0.68800002 -0.047045439 1.4081376e-38 346 279
0.032664597 0.69 -0.047182199 1.4173931e-38 347 279
0.034021679 0.69300002 -0.047387339 1.3990616e-38 348 279
0.035236739 0.69300002 -0.047387339 1.3990616e-38 349 279
0.036504399 0.69400001 -0.047455717 1.3990979e-38 350 279
0.037829921 0.69599998 -0.047592476 1.4083533e-38 351 279
0.039050236 0.69599998 -0.047592476 1.408318e-38 352 279
0.040270556 0.69599998 -0.047592476 1.408318e-38 353 279
0.041550495 0.69700003 -0.047660861 1.399135e-38 354 279
0.042833932 0.69800001 -0.047729239 1.4083546e-38 355 279
0.044183996 0.69999999 -0.047865998 1.3714786e-38 356 279
0.04541133 0.69999999 -0.047865998 1.4360155e-38 357 279
-0.024651866 0.70300001 -0.049303733 1.3173523e-38 300 280
-0.023352645 0.70099998 -0.049163464 1.1329969e-38 301 280
-0.022091998 0.69999999 -0.049093332 1.3807344e-38 302 280
-0.020864666 0.69999999 -0.049093332 1.4084291e-38 303 280
-0.019637333 0.69999999 -0.049093332 1.454238e-38 304 280
-0.0183574 0.69800001 -0.048953064 1.5003357e-38 305 280
-0.017133573 0.69800001 -0.048953064 1.5003704e-38 306 280
-0.015886955 0.69700003 -0.048882935 1.5280651e-38 307 280
-0.014643839 0.69599998 -0.048812799 1.4819663e-38 308 280
-0.013384946 0.69400001 -0.048672531 1.4543436e-38 309 280
-0.012168133 0.69400001 -0.048672531 1.4084976e-38 310 280
-0.010935539 0.69300002 -0.048602402 1.4084976e-38 311 280
-0.0097204801 0.69300002 -0.048602402 1.4267941e-38 312 280
-0.0085054198 0.69300002 -0.048602402 1.3990994e-38 313 280
-0.0072693196 0.69099998 -0.04846213 1.426507e-38 314 280
-0.0060489997 0.69 -0.048391998 1.4080679e-38 315 280
-0.0048251734 0.68800002 -0.048251733 1.4355465e-38 316 280
-0.0036188802 0.68800002 -0.048251733 1.4263269e-38 317 280
-0.0024125867 0.68800002 -0.048251733 1.3895927e-38 318 280
-0.0012045399 0.68699998 -0.048181597 1.3711896e-38 319 280
0 0.68699998 -0.048181597 1.380266e-38 320 280
0.0012045399 0.68699998 -0.048181597 1.380266e-38 321 280
0.0024090798 0.68699998 -0.048181597 1.3527154e-38 322 280
0.00360836 0.68599999 -0.048111461 1.361935e-38 323 280
0.0048111463 0.68599999 -0.048111461 1.3344921e-38 324 280
0.0060139326 0.68599999 -0.048111461 1.3068694e-38 325 280
0.0072167199 0.68599999 -0.048111461 1.3252007e-38 326 280
0.0083949603 0.68400002 -0.0479712 1.2883583e-38 327 280
0.0095942402 0.68400002 -0.0479712 1.3066892e-38 328 280
0.01077774 0.68300003 -0.047901068 1.2974697e-38 329 280
0.011975267 0.68300003 -0.047901068 1.2883936e-38 330 280
0.013172794 0.68300003 -0.047901068 1.2883936e-38 331 280
0.01439136 0.68400002 -0.0479712 1.3250914e-38 332 280
0.01559064 0.68400002 -0.0479712 1.3343111e-38 333 280
0.016789921 0.68400002 -0.0479712 1.3251997e-38 334 280
0.0179892 0.68400002 -0.0479712 1.3251997e-38 335 280
0.01918848 0.68400002 -0.0479712 1.343424e-38 336 280
0.020387759 0.68400002 -0.0479712 1.3526436e-38 337 280
0.02158704 0.68400002 -0.0479712 1.3527505e-38 338 280
0.022786319 0.68400002 -0.0479712 1.3527505e-38 339 280
0.024055731 0.68599999 -0.048111461 1.4078864e-38 340 280
0.025258519 0.68599999 -0.048111461 1.398631e-38 341 280
0.026461305 0.68599999 -0.048111461 1.4078864e-38 342 280
0.027664091 0.68599999 -0.048111461 1.4078864e-38 343 280
0.028908957 0.68699998 -0.048181597 1.4079583e-38 344 280
0.030113498 0.68699998 -0.048181597 1.4263974e-38 345 280
0.031318039 0.68699998 -0.048181597 1.3988826e-38 346 280
0.032569919 0.68800002 -0.048251733 1.4081382e-38 347 280
0.033923492 0.69099998 -0.04846213 1.3897711e-38 348 280
0.035135046 0.69099998 -0.04846213 1.3990265e-38 349 280
0.036504399 0.69400001 -0.048672531 1.3715839e-38 350 280
0.037829921 0.69599998 -0.048812799 1.3623644e-38 351 280
0.039050236 0.69599998 -0.048812799 1.3623291e-38 352 280
0.040270556 0.69599998 -0.048812799 1.3715486e-38 353 280
0.041490879 0.69599998 -0.048812799 1.3715489e-38 354 280
0.042772565 0.69700003 -0.048882935 1.3992077e-38 355 280
0.043994639 0.69700003 -0.048882935 1.3531836e-38 356 280
0.045216713 0.69700003 -0.048882935 1.3716229e-38 357 280
0.046438783 0.69700003 -0.048882935 1.5481293e-38 358 280
-0.024581732 0.70099998 -0.050392549 1.3262474e-38 300 281
-0.023319334 0.69999999 -0.050320663 1.1695509e-38 301 281
-0.02202888 0.69800001 -0.050176892 1.4080328e-38 302 281
-0.020805053 0.69800001 -0.050176892 1.426472e-38 303 281
-0.019637333 0.69999999 -0.050320663 1.4540212e-38 304 281
-0.0183574 0.69800001 -0.050176892 1.4908994e-38 305 281
-0.017109027 0.69700003 -0.050105009 1.4818225e-38 306 281
-0.015864158 0.69599998 -0.050033119 1.4818225e-38 307 281
-0.014643839 0.69599998 -0.050033119 1.4450518e-38 308 281
-0.013384946 0.69400001 -0.049889345 1.4634549e-38 309 281
-0.012168133 0.69400001 -0.049889345 1.4175729e-38 310 281
-0.010935539 0.69300002 -0.049817458 1.4175729e-38 311 281
-0.0096924258 0.69099998 -0.049673684 1.4358685e-38 312 281
-0.008480873 0.69099998 -0.049673684 1.4266489e-38 313 281
-0.0072693196 0.69099998 -0.049673684 1.4172506e-38 314 281
-0.0060489997 0.69 -0.049601797 1.408031e-38 315 281
-0.0048251734 0.68800002 -0.049458027 1.407923e-38 316 281
-0.0036188802 0.68800002 -0.049458027 1.3895199e-38 317 281
-0.0024125867 0.68800002 -0.049458027 1.3802647e-38 318 281
-0.0012045399 0.68699998 -0.049386136 1.3618256e-38 319 281
0 0.68699998 -0.049386136 1.3709379e-38 320 281
0.0012045399 0.68699998 -0.049386136 1.3617182e-38 321 281
0.0024055731 0.68599999 -0.049314249 1.3342758e-38 322 281
0.00360836 0.68599999 -0.049314249 1.3342758e-38 323 281
0.0047971201 0.68400002 -0.049170479 1.3160164e-38 324 281
0.0059964 0.68400002 -0.049170479 1.3160164e-38 325 281
0.0071956799 0.68400002 -0.049170479 1.3067246e-38 326 281
0.0083949603 0.68400002 -0.049170479 1.297505e-38 327 281
0.0095802136 0.68300003 -0.049098592 1.2698818e-38 328 281
0.01077774 0.68300003 -0.049098592 1.2698818e-38 329 281
0.011975267 0.68300003 -0.049098592 1.2699892e-38 330 281
0.013172794 0.68300003 -0.049098592 1.2792088e-38 331 281
0.014370319 0.68300003 -0.049098592 1.3067952e-38 332 281
0.015567848 0.68300003 -0.049098592 1.3252344e-38 333 281
0.016765373 0.68300003 -0.049098592 1.3343464e-38 334 281
0.0179892 0.68400002 -0.049170479 1.2698094e-38 335 281
0.01918848 0.68400002 -0.049170479 1.2969293e-38 336 281
0.020387759 0.68400002 -0.049170479 1.3153324e-38 337 281
0.02158704 0.68400002 -0.049170479 1.3340946e-38 338 281
0.022786319 0.68400002 -0.049170479 1.3433141e-38 339 281
0.024055731 0.68599999 -0.049314249 1.3801551e-38 340 281
0.025258519 0.68599999 -0.049314249 1.3893747e-38 341 281
0.026461305 0.68599999 -0.049314249 1.3894467e-38 342 281
0.027664091 0.68599999 -0.049314249 1.3894467e-38 343 281
0.028908957 0.68699998 -0.049386136 1.4078858e-38 344 281
0.030113498 0.68699998 -0.049386136 1.4263608e-38 345 281
0.031318039 0.68699998 -0.049386136 1.3988107e-38 346 281
0.032569919 0.68800002 -0.049458027 1.3988107e-38 347 281
0.0338744 0.69 -0.049601797 1.3897714e-38 348 281
0.035084199 0.69 -0.049601797 1.3989909e-38 349 281
0.036451802 0.69300002 -0.049817458 1.3622202e-38 350 281
0.037721213 0.69400001 -0.049889345 1.3622202e-38 351 281
0.038938027 0.69400001 -0.049889345 1.3530725e-38 352 281
0.040154841 0.69400001 -0.049889345 1.3530725e-38 353 281
0.041490879 0.69599998 -0.050033119 1.3714765e-38 354 281
0.042711195 0.69599998 -0.050033119 1.399135e-38 355 281
0.043931518 0.69599998 -0.050033119 1.371478e-38 356 281
0.045216713 0.69700003 -0.050105009 1.3807334e-38 357 281
0.046438783 0.69700003 -0.050105009 1.5019589e-38 358 281
-0.024546666 0.69999999 -0.051547997 1.2801131e-38 300 282
-0.023319334 0.69999999 -0.051547997 1.1326e-38 301 282
-0.02202888 0.69800001 -0.051400717 1.3436401e-38 302 282
-0.020805053 0.69800001 -0.051400717 1.3621152e-38 303 282
-0.019581227 0.69800001 -0.051400717 1.4173593e-38 304 282
-0.0183574 0.69800001 -0.051400717 1.4357984e-38 305 282
-0.017109027 0.69700003 -0.051327083 1.4358335e-38 306 282
-0.015864158 0.69599998 -0.051253434 1.4266139e-38 307 282
-0.01460176 0.69400001 -0.051106159 1.4357972e-38 308 282
-0.013384946 0.69400001 -0.051106159 1.4450167e-38 309 282
-0.012150601 0.69300002 -0.051032521 1.4358322e-38 310 282
-0.010935539 0.69300002 -0.051032521 1.4358322e-38 311 282
-0.0096924258 0.69099998 -0.050885238 1.426577e-38 312 282
-0.0084686 0.69 -0.050811596 1.4173575e-38 313 282
-0.0072587994 0.69 -0.050811596 1.398883e-38 314 282
-0.0060314666 0.68800002 -0.050664321 1.3712602e-38 315 282
-0.0048251734 0.68800002 -0.050664321 1.3527855e-38 316 282
-0.0036188802 0.68800002 -0.050664321 1.3343464e-38 317 282
-0.0024125867 0.68800002 -0.050664321 1.2975053e-38 318 282
-0.0012045399 0.68699998 -0.050590675 1.2698467e-38 319 282
0 0.68699998 -0.050590675 1.2881785e-38 320 282
0.0012045399 0.68699998 -0.050590675 1.2973981e-38 321 282
0.0024055731 0.68599999 -0.050517038 1.29747e-38 322 282
0.00360836 0.68599999 -0.050517038 1.3066895e-38 323 282
0.0047971201 0.68400002 -0.050369758 1.2608788e-38 324 282
0.0059964 0.68400002 -0.050369758 1.2700985e-38 325 282
0.0071851597 0.68300003 -0.05029612 1.2424394e-38 326 282
0.0083826864 0.68300003 -0.05029612 1.2332199e-38 327 282
0.0095802136 0.68300003 -0.05029612 1.233148e-38 328 282
0.01077774 0.68300003 -0.05029612 1.2239284e-38 329 282
0.011975267 0.68300003 -0.05029612 1.2422243e-38 330 282
0.013172794 0.68300003 -0.05029612 1.2422243e-38 331 282
0.014370319 0.68300003 -0.05029612 1.2423681e-38 332 282
0.015567848 0.68300003 -0.05029612 1.2699908e-38 333 282
0.016765373 0.68300003 -0.05029612 1.3248044e-38 334 282
0.017962901 0.68300003 -0.05029612 1.2787066e-38 335 282
0.019160427 0.68300003 -0.05029612 1.2601958e-38 336 282
0.020357953 0.68300003 -0.05029612 1.278635e-38 337 282
0.02158704 0.68400002 -0.050369758 1.2605191e-38 338 282
0.022786319 0.68400002 -0.050369758 1.2789584e-38 339 282
0.0239856 0.68400002 -0.050369758 1.3157278e-38 340 282
0.025258519 0.68599999 -0.050517038 1.3249473e-38 341 282
0.026461305 0.68599999 -0.050517038 1.3434938e-38 342 282
0.027664091 0.68599999 -0.050517038 1.3527133e-38 343 282
0.028908957 0.68699998 -0.050590675 1.3802997e-38 344 282
0.030113498 0.68699998 -0.050590675 1.4079583e-38 345 282
0.031318039 0.68699998 -0.050590675 1.3712602e-38 346 282
0.032522578 0.68699998 -0.050590675 1.3896633e-38 347 282
0.033776212 0.68800002 -0.050664321 1.3529653e-38 348 282
0.035084199 0.69 -0.050811596 1.362185e-38 349 282
0.036451802 0.69300002 -0.051032521 1.3530373e-38 350 282
0.037721213 0.69400001 -0.051106159 1.3438176e-38 351 282
0.038938027 0.69400001 -0.051106159 1.3254508e-38 352 282
0.040154841 0.69400001 -0.051106159 1.3254508e-38 353 282
0.041371655 0.69400001 -0.051106159 1.3438906e-38 354 282
0.042711195 0.69599998 -0.051253434 1.3715133e-38 355 282
0.043931518 0.69599998 -0.051253434 1.3624388e-38 356 282
0.045216713 0.69700003 -0.051327083 1.3716585e-38 357 282
0.046505414 0.69800001 -0.051400717 1.5017789e-38 358 282
-0.024546666 0.69999999 -0.052775331 1.289079e-38 300 283
-0.023252707 0.69800001 -0.052624546 1.1600051e-38 301 283
-0.02202888 0.69800001 -0.052624546 1.3619698e-38 302 283
-0.020805053 0.69800001 -0.052624546 1.398848e-38 303 283
-0.019581227 0.69800001 -0.052624546 1.3990265e-38 304 283
-0.0183574 0.69800001 -0.052624546 1.4266492e-38 305 283
-0.017109027 0.69700003 -0.052549154 1.426577e-38 306 283
-0.015864158 0.69599998 -0.052473757 1.426577e-38 307 283
-0.01460176 0.69400001 -0.052322973 1.4173941e-38 308 283
-0.013384946 0.69400001 -0.052322973 1.4266495e-38 309 283
-0.012150601 0.69300002 -0.05224758 1.4174297e-38 310 283
-0.010935539 0.69300002 -0.05224758 1.3990265e-38 311 283
-0.0096924258 0.69099998 -0.052096792 1.3897711e-38 312 283
-0.0084686 0.69 -0.052021399 1.3805514e-38 313 283
-0.0072587994 0.69 -0.052021399 1.3712246e-38 314 283
-0.0060314666 0.68800002 -0.051870614 1.3527855e-38 315 283
-0.0048251734 0.68800002 -0.051870614 1.3251264e-38 316 283
-0.0036188802 0.68800002 -0.051870614 1.2882483e-38 317 283
-0.0024125867 0.68800002 -0.051870614 1.2697739e-38 318 283
-0.0012045399 0.68699998 -0.051795214 1.242151e-38 319 283
0 0.68699998 -0.051795214 1.242116e-38 320 283
0.0012045399 0.68699998 -0.051795214 1.2789584e-38 321 283
0.0024055731 0.68599999 -0.051719822 1.2606993e-38 322 283
0.00359784 0.68400002 -0.051569041 1.2699189e-38 323 283
0.0047971201 0.68400002 -0.051569041 1.2241804e-38 324 283
0.0059964 0.68400002 -0.051569041 1.2241804e-38 325 283
0.0071851597 0.68300003 -0.051493648 1.2148884e-38 326 283
0.0083826864 0.68300003 -0.051493648 1.2056688e-38 327 283
0.0095802136 0.68300003 -0.051493648 1.2238564e-38 328 283
0.01077774 0.68300003 -0.051493648 1.2054173e-38 329 283
0.011975267 0.68300003 -0.051493648 1.2144217e-38 330 283
0.013172794 0.68300003 -0.051493648 1.2236413e-38 331 283
0.014370319 0.68300003 -0.051493648 1.1777956e-38 332 283
0.015567848 0.68300003 -0.051493648 1.1870151e-38 333 283
0.016765373 0.68300003 -0.051493648 1.2419725e-38 334 283
0.017962901 0.68300003 -0.051493648 1.2143498e-38 335 283
0.019160427 0.68300003 -0.051493648 1.2234611e-38 336 283
0.020357953 0.68300003 -0.051493648 1.2327167e-38 337 283
0.02155548 0.68300003 -0.051493648 1.2144217e-38 338 283
0.022786319 0.68400002 -0.051569041 1.2236413e-38 339 283
0.0239856 0.68400002 -0.051569041 1.2605191e-38 340 283
0.025184879 0.68400002 -0.051569041 1.2789584e-38 341 283
0.026461305 0.68599999 -0.051719822 1.3251264e-38 342 283
0.027664091 0.68599999 -0.051719822 1.3343461e-38 343 283
0.028908957 0.68699998 -0.051795214 1.3710799e-38 344 283
0.030113498 0.68699998 -0.051795214 1.3895549e-38 345 283
0.031318039 0.68699998 -0.051795214 1.3620407e-38 346 283
0.032522578 0.68699998 -0.051795214 1.3712602e-38 347 283
0.033776212 0.68800002 -0.051870614 1.362077e-38 348 283
0.03498251 0.68800002 -0.051870614 1.3712965e-38 349 283
0.036346599 0.69099998 -0.052096792 1.3438529e-38 350 283
0.037666857 0.69300002 -0.05224758 1.3438529e-38 351 283
0.03888192 0.69300002 -0.05224758 1.3345981e-38 352 283
0.040154841 0.69400001 -0.052322973 1.3345981e-38 353 283
0.041371655 0.69400001 -0.052322973 1.3346711e-38 354 283
0.042711195 0.69599998 -0.052473757 1.3715133e-38 355 283
0.043931518 0.69599998 -0.052473757 1.3624388e-38 356 283
0.045216713 0.69700003 -0.052549154 1.3900976e-38 357 283
0.046505414 0.69800001 -0.052624546 1.4832321e-38 358 283
0.047729239 0.69800001 -0.052624546 1.7413799e-38 359 283
-0.025773998 0.69999999 -0.054002665 1.1797072e-38 299 284
-0.024476532 0.69800001 -0.053848371 1.3073732e-38 300 284
-0.023252707 0.69800001 -0.053848371 1.2059582e-38 301 284
-0.02202888 0.69800001 -0.053848371 1.3528571e-38 302 284
-0.020805053 0.69800001 -0.053848371 1.3805518e-38 303 284
-0.019581227 0.69800001 -0.053848371 1.3898067e-38 304 284
-0.018331099 0.69700003 -0.053771228 1.3990263e-38 305 284
-0.017109027 0.69700003 -0.053771228 1.4081382e-38 306 284
-0.015818574 0.69400001 -0.053539783 1.3988826e-38 307 284
-0.01460176 0.69400001 -0.053539783 1.362185e-38 308 284
-0.01336566 0.69300002 -0.053462639 1.362185e-38 309 284
-0.012150601 0.69300002 -0.053462639 1.3621126e-38 310 284
-0.010935539 0.69300002 -0.053462639 1.334454e-38 311 284
-0.0096924258 0.69099998 -0.053308345 1.3620407e-38 312 284
-0.0084686 0.69 -0.053231198 1.3435657e-38 313 284
-0.0072377604 0.68800002 -0.053076908 1.3160152e-38 314 284
-0.0060314666 0.68800002 -0.053076908 1.29754e-38 315 284
-0.0048251734 0.68800002 -0.053076908 1.279029e-38 316 284
-0.0036188802 0.68800002 -0.053076908 1.2605897e-38 317 284
-0.0024090798 0.68699998 -0.052999757 1.2237482e-38 318 284
-0.0012045399 0.68699998 -0.052999757 1.2237482e-38 319 284
0 0.68699998 -0.052999757 1.1777956e-38 320 284
0.0012027866 0.68599999 -0.05292261 1.2054182e-38 321 284
0.0024055731 0.68599999 -0.05292261 1.1963066e-38 322 284
0.00359784 0.68400002 -0.05276832 1.2147817e-38 323 284
0.0047971201 0.68400002 -0.05276832 1.1781193e-38 324 284
0.0059964 0.68400002 -0.05276832 1.1781193e-38 325 284
0.0071851597 0.68300003 -0.052691177 1.1964139e-38 326 284
0.0083826864 0.68300003 -0.052691177 1.1687911e-38 327 284
0.0095802136 0.68300003 -0.052691177 1.1961977e-38 328 284
0.01077774 0.68300003 -0.052691177 1.1869423e-38 329 284
0.011975267 0.68300003 -0.052691177 1.1776509e-38 330 284
0.013172794 0.68300003 -0.052691177 1.1776509e-38 331 284
0.014370319 0.68300003 -0.052691177 1.1592841e-38 332 284
0.015567848 0.68300003 -0.052691177 1.1592841e-38 333 284
0.016765373 0.68300003 -0.052691177 1.1683961e-38 334 284
0.017962901 0.68300003 -0.052691177 1.1591765e-38 335 284
0.019160427 0.68300003 -0.052691177 1.1591043e-38 336 284
0.020357953 0.68300003 -0.052691177 1.1683239e-38 337 284
0.02155548 0.68300003 -0.052691177 1.1683605e-38 338 284
0.022786319 0.68400002 -0.05276832 1.1683605e-38 339 284
0.0239856 0.68400002 -0.05276832 1.1960902e-38 340 284
0.025184879 0.68400002 -0.05276832 1.2237129e-38 341 284
0.02638416 0.68400002 -0.05276832 1.288212e-38 342 284
0.027664091 0.68599999 -0.05292261 1.3066151e-38 343 284
0.028908957 0.68699998 -0.052999757 1.3434211e-38 344 284
0.030113498 0.68699998 -0.052999757 1.3618602e-38 345 284
0.031318039 0.68699998 -0.052999757 1.3435657e-38 346 284
0.032522578 0.68699998 -0.052999757 1.3620407e-38 347 284
0.033776212 0.68800002 -0.053076908 1.3345615e-38 348 284
0.03498251 0.68800002 -0.053076908 1.343781e-38 349 284
0.036293998 0.69 -0.053231198 1.3346328e-38 350 284
0.03755815 0.69099998 -0.053308345 1.3162297e-38 351 284
0.03888192 0.69300002 -0.053462639 1.3345259e-38 352 284
0.04009698 0.69300002 -0.053462639 1.3345259e-38 353 284
0.041371655 0.69400001 -0.053539783 1.3162678e-38 354 284
0.042588469 0.69400001 -0.053539783 1.3439625e-38 355 284
0.043805279 0.69400001 -0.053539783 1.3440717e-38 356 284
0.045216713 0.69700003 -0.053771228 1.3717304e-38 357 284
0.046505414 0.69800001 -0.053848371 1.3912163e-38 358 284
0.047729239 0.69800001 -0.053848371 1.6770229e-38 359 284
-0.025773998 0.69999999 -0.055229999 1.1611598e-38 299 285
-0.024476532 0.69800001 -0.0550722 1.316448e-38 300 285
-0.023252707 0.69800001 -0.0550722 1.2796056e-38 301 285
-0.02202888 0.69800001 -0.0550722 1.3805864e-38 302 285
-0.020805053 0.69800001 -0.0550722 1.3805864e-38 303 285
-0.019581227 0.69800001 -0.0550722 1.3898064e-38 304 285
-0.018331099 0.69700003 -0.054993302 1.3898064e-38 305 285
-0.017084479 0.69599998 -0.054914396 1.3622202e-38 306 285
-0.015818574 0.69400001 -0.054756597 1.3622202e-38 307 285
-0.014580719 0.69300002 -0.054677699 1.3344909e-38 308 285
-0.01336566 0.69300002 -0.054677699 1.3160517e-38 309 285
-0.012150601 0.69300002 -0.054677699 1.3159443e-38 310 285
-0.01090398 0.69099998 -0.054519895 1.3067246e-38 311 285
-0.0096783992 0.69 -0.054440998 1.288393e-38 312 285
-0.0084686 0.69 -0.054440998 1.2699539e-38 313 285
-0.0072377604 0.68800002 -0.054283202 1.2699539e-38 314 285
-0.0060314666 0.68800002 -0.054283202 1.2515148e-38 315 285
-0.0048181596 0.68699998 -0.054204296 1.2422232e-38 316 285
-0.0036136196 0.68699998 -0.054204296 1.2237482e-38 317 285
-0.0024090798 0.68699998 -0.054204296 1.1686113e-38 318 285
-0.0012045399 0.68699998 -0.054204296 1.1778309e-38 319 285
0 0.68699998 -0.054204296 1.1502448e-38 320 285
0.0012027866 0.68599999 -0.054125395 1.1778674e-38 321 285
0.0023985601 0.68400002 -0.053967599 1.1595012e-38 322 285
0.00359784 0.68400002 -0.053967599 1.1687208e-38 323 285
0.0047901068 0.68300003 -0.053888701 1.1595375e-38 324 285
0.0059876335 0.68300003 -0.053888701 1.1595375e-38 325 285
0.0071851597 0.68300003 -0.053888701 1.1687561e-38 326 285
0.0083826864 0.68300003 -0.053888701 1.1502811e-38 327 285
0.0095802136 0.68300003 -0.053888701 1.1592841e-38 328 285
0.01077774 0.68300003 -0.053888701 1.1500646e-38 329 285
0.011975267 0.68300003 -0.053888701 1.1500996e-38 330 285
0.013172794 0.68300003 -0.053888701 1.1593192e-38 331 285
0.014370319 0.68300003 -0.053888701 1.14088e-38 332 285
0.015545053 0.68199998 -0.053809796 1.14088e-38 333 285
0.016740825 0.68199998 -0.053809796 1.1040388e-38 334 285
0.017962901 0.68300003 -0.053888701 1.0948192e-38 335 285
0.019160427 0.68300003 -0.053888701 1.0855646e-38 336 285
0.020357953 0.68300003 -0.053888701 1.0947842e-38 337 285
0.02155548 0.68300003 -0.053888701 1.1223355e-38 338 285
0.022753006 0.68300003 -0.053888701 1.1223355e-38 339 285
0.0239856 0.68400002 -0.053967599 1.1408819e-38 340 285
0.025184879 0.68400002 -0.053967599 1.1501016e-38 341 285
0.02638416 0.68400002 -0.053967599 1.2237129e-38 342 285
0.027704418 0.68699998 -0.054204296 1.2421879e-38 343 285
0.028908957 0.68699998 -0.054204296 1.2882133e-38 344 285
0.030113498 0.68699998 -0.054204296 1.3250914e-38 345 285
0.031318039 0.68699998 -0.054204296 1.3159798e-38 346 285
0.032522578 0.68699998 -0.054204296 1.3251994e-38 347 285
0.033727121 0.68699998 -0.054204296 1.3253066e-38 348 285
0.03498251 0.68800002 -0.054283202 1.3253066e-38 349 285
0.0361888 0.68800002 -0.054283202 1.325306e-38 350 285
0.037503798 0.69 -0.054440998 1.3160865e-38 351 285
0.038769703 0.69099998 -0.054519895 1.3160512e-38 352 285
0.039981257 0.69099998 -0.054519895 1.3160512e-38 353 285
0.041312039 0.69300002 -0.054677699 1.3161962e-38 354 285
0.042588469 0.69400001 -0.054756597 1.362294e-38 355 285
0.043805279 0.69400001 -0.054756597 1.3257772e-38 356 285
0.045151837 0.69599998 -0.054914396 1.3534357e-38 357 285
0.046438783 0.69700003 -0.054993302 1.4003637e-38 358 285
0.047729239 0.69800001 -0.0550722 1.6861701e-38 359 285
-0.025773998 0.69999999 -0.056457333 1.1059144e-38 299 286
-0.024476532 0.69800001 -0.056296028 1.2979013e-38 300 286
-0.023252707 0.69800001 -0.056296028 1.3624382e-38 301 286
-0.02202888 0.69800001 -0.056296028 1.3716187e-38 302 286
-0.020805053 0.69800001 -0.056296028 1.3623991e-38 303 286
-0.019553173 0.69700003 -0.056215372 1.389877e-38 304 286
-0.018331099 0.69700003 -0.056215372 1.3714019e-38 305 286
-0.017084479 0.69599998 -0.056134716 1.3438158e-38 306 286
-0.015818574 0.69400001 -0.055973411 1.3253767e-38 307 286
-0.014580719 0.69300002 -0.055892758 1.3251261e-38 308 286
-0.01336566 0.69300002 -0.055892758 1.2882839e-38 309 286
-0.012115533 0.69099998 -0.055731449 1.2880686e-38 310 286
-0.01090398 0.69099998 -0.055731449 1.2880686e-38 311 286
-0.0096783992 0.69 -0.055650797 1.2422229e-38 312 286
-0.0084686 0.69 -0.055650797 1.2422229e-38 313 286
-0.0072377604 0.68800002 -0.055489492 1.2421157e-38 314 286
-0.0060314666 0.68800002 -0.055489492 1.2328962e-38 315 286
-0.0048181596 0.68699998 -0.055408835 1.1961977e-38 316 286
-0.0036136196 0.68699998 -0.055408835 1.1777227e-38 317 286
-0.0024090798 0.68699998 -0.055408835 1.1501718e-38 318 286
-0.0012045399 0.68699998 -0.055408835 1.1593915e-38 319 286
0 0.68699998 -0.055408835 1.1501365e-38 320 286
0.0012027866 0.68599999 -0.055328183 1.1593562e-38 321 286
0.0023985601 0.68400002 -0.055166878 1.1409899e-38 322 286
0.00359784 0.68400002 -0.055166878 1.1502095e-38 323 286
0.0047901068 0.68300003 -0.055086225 1.1502095e-38 324 286
0.0059876335 0.68300003 -0.055086225 1.1502095e-38 325 286
0.0071851597 0.68300003 -0.055086225 1.1317701e-38 326 286
0.0083826864 0.68300003 -0.055086225 1.1225504e-38 327 286
0.0095802136 0.68300003 -0.055086225 1.1407731e-38 328 286
0.01077774 0.68300003 -0.055086225 1.1591762e-38 329 286
0.011975267 0.68300003 -0.055086225 1.14088e-38 330 286
0.013172794 0.68300003 -0.055086225 1.1316605e-38 331 286
0.014370319 0.68300003 -0.055086225 1.1225491e-38 332 286
0.015545053 0.68199998 -0.055005573 1.1040741e-38 333 286
0.016740825 0.68199998 -0.055005573 1.0948192e-38 334 286
0.017936599 0.68199998 -0.055005573 1.0763799e-38 335 286
0.019160427 0.68300003 -0.055086225 1.0855646e-38 336 286
0.020357953 0.68300003 -0.055086225 1.0763449e-38 337 286
0.02155548 0.68300003 -0.055086225 1.0946045e-38 338 286
0.022753006 0.68300003 -0.055086225 1.1038241e-38 339 286
0.0239856 0.68400002 -0.055166878 1.1314457e-38 340 286
0.025184879 0.68400002 -0.055166878 1.1498848e-38 341 286
0.02638416 0.68400002 -0.055166878 1.223532e-38 342 286
0.027704418 0.68699998 -0.055408835 1.2419712e-38 343 286
0.028908957 0.68699998 -0.055408835 1.2604457e-38 344 286
0.030113498 0.68699998 -0.055408835 1.3065435e-38 345 286
0.031318039 0.68699998 -0.055408835 1.3157275e-38 346 286
0.032522578 0.68699998 -0.055408835 1.3526056e-38 347 286
0.033727121 0.68699998 -0.055408835 1.3252347e-38 348 286
0.03498251 0.68800002 -0.055489492 1.3344543e-38 349 286
0.0361888 0.68800002 -0.055489492 1.3252698e-38 350 286
0.037503798 0.69 -0.055650797 1.3160501e-38 351 286
0.038769703 0.69099998 -0.055731449 1.3160146e-38 352 286
0.039981257 0.69099998 -0.055731449 1.3252342e-38 353 286
0.041312039 0.69300002 -0.055892758 1.3070117e-38 354 286
0.042588469 0.69400001 -0.055973411 1.3254508e-38 355 286
0.043805279 0.69400001 -0.055973411 1.3439641e-38 356 286
0.045151837 0.69599998 -0.056134716 1.3716229e-38 357 286
0.046438783 0.69700003 -0.056215372 1.4647211e-38 358 286
0.047729239 0.69800001 -0.056296028 1.7320884e-38 359 286
-0.024476532 0.69800001 -0.057519849 1.3162331e-38 300 287
-0.023252707 0.69800001 -0.057519849 1.3899897e-38 301 287
-0.02199732 0.69700003 -0.05743745 1.3991335e-38 302 287
-0.020775247 0.69700003 -0.05743745 1.3899139e-38 303 287
-0.019553173 0.69700003 -0.05743745 1.3714022e-38 304 287
-0.018304799 0.69599998 -0.057355035 1.3529631e-38 305 287
-0.017035386 0.69400001 -0.057190225 1.3252342e-38 306 287
-0.015795778 0.69300002 -0.057107817 1.3160146e-38 307 287
-0.014580719 0.69300002 -0.057107817 1.2882483e-38 308 287
-0.01336566 0.69300002 -0.057107817 1.2698092e-38 309 287
-0.012115533 0.69099998 -0.056942999 1.2605897e-38 310 287
-0.01090398 0.69099998 -0.056942999 1.2421508e-38 311 287
-0.0096783992 0.69 -0.0568606 1.2146012e-38 312 287
-0.0084686 0.69 -0.0568606 1.1961621e-38 313 287
-0.0072377604 0.68800002 -0.056695789 1.1778312e-38 314 287
-0.0060314666 0.68800002 -0.056695789 1.1778312e-38 315 287
-0.0048251734 0.68800002 -0.056695789 1.1869779e-38 316 287
-0.0036188802 0.68800002 -0.056695789 1.1777583e-38 317 287
-0.0024090798 0.68699998 -0.056613375 1.1318049e-38 318 287
-0.0012045399 0.68699998 -0.056613375 1.1318049e-38 319 287
0 0.68599999 -0.056530971 1.1410252e-38 320 287
0.0012027866 0.68599999 -0.056530971 1.1410252e-38 321 287
0.0023985601 0.68400002 -0.056366164 1.1410252e-38 322 287
0.00359784 0.68400002 -0.056366164 1.1502448e-38 323 287
0.0047971201 0.68400002 -0.056366164 1.1502092e-38 324 287
0.0059876335 0.68300003 -0.056283753 1.1317701e-38 325 287
0.0071851597 0.68300003 -0.056283753 1.1041838e-38 326 287
0.0083826864 0.68300003 -0.056283753 1.0857447e-38 327 287
0.0095802136 0.68300003 -0.056283753 1.0674129e-38 328 287
0.01077774 0.68300003 -0.056283753 1.0674129e-38 329 287
0.011975267 0.68300003 -0.056283753 1.1316252e-38 330 287
0.013153506 0.68199998 -0.056201346 1.1316252e-38 331 287
0.01434928 0.68199998 -0.056201346 1.1224059e-38 332 287
0.015545053 0.68199998 -0.056201346 1.1131504e-38 333 287
0.016740825 0.68199998 -0.056201346 1.0396819e-38 334 287
0.017936599 0.68199998 -0.056201346 1.0396819e-38 335 287
0.019132372 0.68199998 -0.056201346 1.0580137e-38 336 287
0.020357953 0.68300003 -0.056283753 1.0580137e-38 337 287
0.02155548 0.68300003 -0.056283753 1.0763093e-38 338 287
0.022753006 0.68300003 -0.056283753 1.0486866e-38 339 287
0.0239856 0.68400002 -0.056366164 1.0396466e-38 340 287
0.025184879 0.68400002 -0.056366164 1.0673053e-38 341 287
0.026461305 0.68599999 -0.056530971 1.1133305e-38 342 287
0.027704418 0.68699998 -0.056613375 1.1317698e-38 343 287
0.028908957 0.68699998 -0.056613375 1.1961268e-38 344 287
0.030113498 0.68699998 -0.056613375 1.2146018e-38 345 287
0.031318039 0.68699998 -0.056613375 1.2421893e-38 346 287
0.032522578 0.68699998 -0.056613375 1.2606643e-38 347 287
0.033776212 0.68800002 -0.056695789 1.2699552e-38 348 287
0.03498251 0.68800002 -0.056695789 1.2884303e-38 349 287
0.0361888 0.68800002 -0.056695789 1.2792454e-38 350 287
0.037503798 0.69 -0.0568606 1.2884651e-38 351 287
0.038769703 0.69099998 -0.056942999 1.2976483e-38 352 287
0.039981257 0.69099998 -0.056942999 1.3160515e-38 353 287
0.041312039 0.69300002 -0.057107817 1.3161965e-38 354 287
0.042588469 0.69400001 -0.057190225 1.3622584e-38 355 287
0.043805279 0.69400001 -0.057190225 1.2889716e-38 356 287
0.045281585 0.69800001 -0.057519849 1.3350336e-38 357 287
0.046638668 0.69999999 -0.05768466 1.4925243e-38 358 287
0.047865998 0.69999999 -0.05768466 1.732233e-38 359 287
-0.024441468 0.69700003 -0.05865952 1.3346723e-38 300 288
-0.023219392 0.69700003 -0.05865952 1.3531473e-38 301 288
-0.02199732 0.69700003 -0.05865952 1.4173931e-38 302 288
-0.020775247 0.69700003 -0.05865952 1.3896984e-38 303 288
-0.019553173 0.69700003 -0.05865952 1.3711871e-38 304 288
-0.0182522 0.69400001 -0.058407038 1.352784e-38 305 288
-0.017035386 0.69400001 -0.058407038 1.3068302e-38 306 288
-0.015795778 0.69300002 -0.058322877 1.2976106e-38 307 288
-0.014580719 0.69300002 -0.058322877 1.2699524e-38 308 288
-0.013327086 0.69099998 -0.058154557 1.2607328e-38 309 288
-0.012115533 0.69099998 -0.058154557 1.2239988e-38 310 288
-0.010888199 0.69 -0.058070395 1.2147791e-38 311 288
-0.0096783992 0.69 -0.058070395 1.2237482e-38 312 288
-0.0084440531 0.68800002 -0.057902083 1.2053451e-38 313 288
-0.0072377604 0.68800002 -0.057902083 1.1868707e-38 314 288
-0.0060314666 0.68800002 -0.057902083 1.1960902e-38 315 288
-0.0048181596 0.68699998 -0.057817914 1.1686829e-38 316 288
-0.0036136196 0.68699998 -0.057817914 1.1410602e-38 317 288
-0.0024090798 0.68699998 -0.057817914 1.1043258e-38 318 288
-0.0012045399 0.68699998 -0.057817914 1.1043258e-38 319 288
0 0.68599999 -0.057733759 1.1319126e-38 320 288
0.0012027866 0.68599999 -0.057733759 1.1503517e-38 321 288
0.0024055731 0.68599999 -0.057733759 1.1595713e-38 322 288
0.00359784 0.68400002 -0.057565439 1.1503517e-38 323 288
0.0047971201 0.68400002 -0.057565439 1.1227656e-38 324 288
0.0059876335 0.68300003 -0.057481278 1.1042905e-38 325 288
0.0071851597 0.68300003 -0.057481278 1.085816e-38 326 288
0.0083826864 0.68300003 -0.057481278 1.0674129e-38 327 288
0.0095802136 0.68300003 -0.057481278 1.0765246e-38 328 288
0.01077774 0.68300003 -0.057481278 1.0857441e-38 329 288
0.011957732 0.68199998 -0.05739712 1.1407734e-38 330 288
0.013153506 0.68199998 -0.05739712 1.131518e-38 331 288
0.01434928 0.68199998 -0.05739712 1.0948195e-38 332 288
0.015545053 0.68199998 -0.05739712 1.0855999e-38 333 288
0.016740825 0.68199998 -0.05739712 1.0580134e-38 334 288
0.017936599 0.68199998 -0.05739712 1.0580134e-38 335 288
0.019132372 0.68199998 -0.05739712 1.0396822e-38 336 288
0.020357953 0.68300003 -0.057481278 1.0304626e-38 337 288
0.02155548 0.68300003 -0.057481278 1.0488292e-38 338 288
0.022753006 0.68300003 -0.057481278 1.0395737e-38 339 288
0.023950534 0.68300003 -0.057481278 1.039609e-38 340 288
0.025184879 0.68400002 -0.057565439 1.0580482e-38 341 288
0.026461305 0.68599999 -0.057733759 1.1132211e-38 342 288
0.027704418 0.68699998 -0.057817914 1.1316602e-38 343 288
0.028908957 0.68699998 -0.057817914 1.1776144e-38 344 288
0.030113498 0.68699998 -0.057817914 1.2052372e-38 345 288
0.031318039 0.68699998 -0.057817914 1.2143498e-38 346 288
0.032522578 0.68699998 -0.057817914 1.2511921e-38 347 288
0.033776212 0.68800002 -0.057902083 1.2697391e-38 348 288
0.03498251 0.68800002 -0.057902083 1.2881782e-38 349 288
0.0361888 0.68800002 -0.057902083 1.2699536e-38 350 288
0.037503798 0.69 -0.058070395 1.2884286e-38 351 288
0.038769703 0.69099998 -0.058154557 1.2885007e-38 352 288
0.039981257 0.69099998 -0.058154557 1.2885007e-38 353 288
0.041312039 0.69300002 -0.058322877 1.3069411e-38 354 288
0.042588469 0.69400001 -0.058407038 1.3438553e-38 355 288
0.043931518 0.69599998 -0.058575355 1.2980464e-38 356 288
0.045216713 0.69700003 -0.05865952 1.3533638e-38 357 288
0.046505414 0.69800001 -0.058743682 1.5110706e-38 358 288
0.047865998 0.69999999 -0.058911994 1.7507794e-38 359 288
-0.024441468 0.69700003 -0.05988159 1.3347079e-38 300 289
-0.023219392 0.69700003 -0.05988159 1.3439275e-38 301 289
-0.02199732 0.69700003 -0.05988159 1.3530009e-38 302 289
-0.020775247 0.69700003 -0.05988159 1.3160868e-38 303 289
-0.019553173 0.69700003 -0.05988159 1.2699171e-38 304 289
-0.0182522 0.69400001 -0.059623852 1.2699171e-38 305 289
-0.017035386 0.69400001 -0.059623852 1.2515145e-38 306 289
-0.015795778 0.69300002 -0.05953794 1.2515145e-38 307 289
-0.014580719 0.69300002 -0.05953794 1.2239637e-38 308 289
-0.013327086 0.69099998 -0.059366114 1.2054886e-38 309 289
-0.012115533 0.69099998 -0.059366114 1.2054886e-38 310 289
-0.010888199 0.69 -0.059280202 1.1870855e-38 311 289
-0.0096503468 0.68800002 -0.059108373 1.1961621e-38 312 289
-0.0084440531 0.68800002 -0.059108373 1.177723e-38 313 289
-0.0072377604 0.68800002 -0.059108373 1.1593562e-38 314 289
-0.0060226996 0.68699998 -0.059022456 1.1685757e-38 315 289
-0.0048181596 0.68699998 -0.059022456 1.1502795e-38 316 289
-0.0036136196 0.68699998 -0.059022456 1.1502795e-38 317 289
-0.0024090798 0.68699998 -0.059022456 1.1503151e-38 318 289
-0.0012045399 0.68699998 -0.059022456 1.1503151e-38 319 289
0 0.68599999 -0.058936544 1.1320558e-38 320 289
0.0012027866 0.68599999 -0.058936544 1.1504589e-38 321 289
0.0023985601 0.68400002 -0.058764715 1.1504236e-38 322 289
0.00359784 0.68400002 -0.058764715 1.1228009e-38 323 289
0.0047971201 0.68400002 -0.058764715 1.1135104e-38 324 289
0.0059876335 0.68300003 -0.05867881 1.1042909e-38 325 289
0.0071851597 0.68300003 -0.05867881 1.0492257e-38 326 289
0.0083826864 0.68300003 -0.05867881 1.0307507e-38 327 289
0.0095802136 0.68300003 -0.05867881 1.0490101e-38 328 289
0.01077774 0.68300003 -0.05867881 1.0397905e-38 329 289
0.011957732 0.68199998 -0.058592889 1.0855646e-38 330 289
0.013153506 0.68199998 -0.058592889 1.0763449e-38 331 289
