# .PCD v.7 - Point Cloud Data file format
FIELDS x y z rgb imX imY
SIZE 4 4 4 4 4 4
TYPE F F F F F F
COUNT 1 1 1 1 1 1
WIDTH 830
HEIGHT 1
VIEWPOINT 0 0 0 1 0 0 0
POINTS 830
DATA ascii
-0.041312039 0.69300002 -0.01701084 1.150529e-38 286 254
-0.039981257 0.69099998 -0.016961746 1.1597485e-38 287 254
-0.038713597 0.69 -0.0169372 1.1872996e-38 288 254
-0.037395094 0.68800002 -0.016888106 1.1965192e-38 289 254
-0.036136195 0.68699998 -0.01686356 1.1780824e-38 290 254
-0.034931656 0.68699998 -0.01686356 1.1596431e-38 291 254
-0.033579841 0.68400002 -0.016789921 1.1504613e-38 292 254
-0.032333218 0.68300003 -0.016765373 1.1504613e-38 293 254
-0.031090107 0.68199998 -0.016740825 1.1504969e-38 294 254
-0.029894331 0.68199998 -0.016740825 1.1412413e-38 295 254
-0.028614398 0.68000001 -0.016691733 1.12273e-38 296 254
-0.027422134 0.68000001 -0.016691733 1.0858516e-38 297 254
-0.026229866 0.68000001 -0.016691733 1.0948192e-38 298 254
-0.025000781 0.67900002 -0.016667187 1.0487573e-38 299 254
-0.023810266 0.67900002 -0.016667187 1.0487923e-38 300 254
-0.022586439 0.67799997 -0.016642639 1.0395727e-38 301 254
-0.021397678 0.67799997 -0.016642639 1.0488989e-38 302 254
-0.020208918 0.67799997 -0.016642639 1.0488989e-38 303 254
-0.018964052 0.676 -0.016593546 1.0488989e-38 304 254
-0.017778801 0.676 -0.016593546 1.0396794e-38 305 254
-0.016593546 0.676 -0.016593546 1.0304601e-38 306 254
-0.015408293 0.676 -0.016593546 1.0304601e-38 307 254
-0.014223038 0.676 -0.016593546 1.0487194e-38 308 254
-0.013037786 0.676 -0.016593546 1.057939e-38 309 254
-0.011835 0.67500001 -0.016569 1.0488989e-38 310 254
-0.0106515 0.67500001 -0.016569 1.0765936e-38 311 254
-0.0094679995 0.67500001 -0.016569 1.1134343e-38 312 254
-0.0082967728 0.676 -0.016593546 1.1226539e-38 313 254
-0.0071010003 0.67500001 -0.016569 1.1962291e-38 314 254
-0.0059174998 0.67500001 -0.016569 1.1962291e-38 315 254
-0.0047339997 0.67500001 -0.016569 1.2237797e-38 316 254
-0.0035505001 0.67500001 -0.016569 1.2329992e-38 317 254
-0.0023669999 0.67500001 -0.016569 1.2604422e-38 318 254
-0.0011852533 0.676 -0.016593546 1.2696975e-38 319 254
0 0.676 -0.016593546 1.2514021e-38 320 254
0.0011852533 0.676 -0.016593546 1.2606217e-38 321 254
0.0023705065 0.676 -0.016593546 1.2514381e-38 322 254
0.0035662798 0.67799997 -0.016642639 1.2514381e-38 323 254
0.0047690663 0.68000001 -0.016691733 1.242327e-38 324 254
0.0059613334 0.68000001 -0.016691733 1.242327e-38 325 254
0.0071535995 0.68000001 -0.016691733 1.2516555e-38 326 254
0.0083704125 0.68199998 -0.016740825 1.2793142e-38 327 254
0.009566186 0.68199998 -0.016740825 1.2794944e-38 328 254
0.010761959 0.68199998 -0.016740825 1.2794944e-38 329 254
0.011975267 0.68300003 -0.016765373 1.3162653e-38 330 254
0.013172794 0.68300003 -0.016765373 1.3162653e-38 331 254
0.01443344 0.68599999 -0.016839013 1.3163372e-38 332 254
0.015659019 0.68699998 -0.01686356 1.3347763e-38 333 254
0.01686356 0.68699998 -0.01686356 1.3256281e-38 334 254
0.018068098 0.68699998 -0.01686356 1.3256281e-38 335 254
0.019300694 0.68800002 -0.016888106 1.2889653e-38 336 254
0.020566599 0.69 -0.0169372 1.3074045e-38 337 254
0.021776399 0.69 -0.0169372 1.2983997e-38 338 254
0.023019511 0.69099998 -0.016961746 1.2523019e-38 339 254
0.024336265 0.69400001 -0.017035386 1.2800018e-38 340 254
0.025553079 0.69400001 -0.017035386 1.7778581e-38 341 254
0.026885614 0.69700003 -0.017109027 1.6593771e-38 342 254
0.028107686 0.69700003 -0.017109027 1.7792315e-38 343 254
-0.050320663 0.69999999 -0.018409999 9.9574938e-39 279 255
-0.048953064 0.69800001 -0.0183574 8.1920693e-39 280 255
-0.047729239 0.69800001 -0.0183574 8.8374387e-39 281 255
-0.046438783 0.69700003 -0.018331099 1.039969e-38 282 255
-0.045151837 0.69599998 -0.018304799 1.0307495e-38 283 255
-0.043805279 0.69400001 -0.0182522 1.0950693e-38 284 255
-0.042527102 0.69300002 -0.018225901 1.1042889e-38 285 255
-0.041192811 0.69099998 -0.0181733 1.1411303e-38 286 255
-0.0399234 0.69 -0.018146999 1.1411303e-38 287 255
-0.038713597 0.69 -0.018146999 1.1687533e-38 288 255
-0.037395094 0.68800002 -0.0180944 1.1687533e-38 289 255
-0.036136195 0.68699998 -0.018068098 1.1594268e-38 290 255
-0.03477912 0.68400002 -0.0179892 1.1225485e-38 291 255
-0.033530746 0.68300003 -0.017962901 1.1225841e-38 292 255
-0.032285877 0.68199998 -0.017936599 1.1686461e-38 293 255
-0.031090107 0.68199998 -0.017936599 1.1410953e-38 294 255
-0.029806666 0.68000001 -0.017883999 1.1318756e-38 295 255
-0.028614398 0.68000001 -0.017883999 1.1134011e-38 296 255
-0.027381808 0.67900002 -0.017857701 1.0673033e-38 297 255
-0.026191294 0.67900002 -0.017857701 1.0763068e-38 298 255
-0.025000781 0.67900002 -0.017857701 1.0393925e-38 299 255
-0.023810266 0.67900002 -0.017857701 1.0302806e-38 300 255
-0.022586439 0.67799997 -0.0178314 1.0302806e-38 301 255
-0.021397678 0.67799997 -0.0178314 1.0121286e-38 302 255
-0.020208918 0.67799997 -0.0178314 1.0121286e-38 303 255
-0.018964052 0.676 -0.017778801 1.0304601e-38 304 255
-0.017778801 0.676 -0.017778801 1.0120211e-38 305 255
-0.016593546 0.676 -0.017778801 1.0303526e-38 306 255
-0.015408293 0.676 -0.017778801 1.0395722e-38 307 255
-0.014223038 0.676 -0.017778801 1.0304595e-38 308 255
-0.013037786 0.676 -0.017778801 1.039715e-38 309 255
-0.011835 0.67500001 -0.0177525 1.0581894e-38 310 255
-0.0106515 0.67500001 -0.0177525 1.067409e-38 311 255
-0.0094679995 0.67500001 -0.0177525 1.1225813e-38 312 255
-0.0082844999 0.67500001 -0.0177525 1.1133619e-38 313 255
-0.0071010003 0.67500001 -0.0177525 1.1686067e-38 314 255
-0.0059174998 0.67500001 -0.0177525 1.1778261e-38 315 255
-0.0047339997 0.67500001 -0.0177525 1.2237439e-38 316 255
-0.0035505001 0.67500001 -0.0177525 1.2145244e-38 317 255
-0.0023669999 0.67500001 -0.0177525 1.2511869e-38 318 255
-0.0011834999 0.67500001 -0.0177525 1.2788093e-38 319 255
0 0.676 -0.017778801 1.2512586e-38 320 255
0.0011852533 0.676 -0.017778801 1.2697334e-38 321 255
0.0023705065 0.676 -0.017778801 1.2514381e-38 322 255
0.0035662798 0.67799997 -0.0178314 1.2422186e-38 323 255
0.0047620535 0.67900002 -0.017857701 1.2422189e-38 324 255
0.0059525664 0.67900002 -0.017857701 1.2422189e-38 325 255
0.0071535995 0.68000001 -0.017883999 1.2515832e-38 326 255
0.0083704125 0.68199998 -0.017936599 1.2700224e-38 327 255
0.009566186 0.68199998 -0.017936599 1.2701665e-38 328 255
0.010761959 0.68199998 -0.017936599 1.2793861e-38 329 255
0.011975267 0.68300003 -0.017962901 1.2977533e-38 330 255
0.01319208 0.68400002 -0.0179892 1.3161924e-38 331 255
0.01443344 0.68599999 -0.018041799 1.3070805e-38 332 255
0.015659019 0.68699998 -0.018068098 1.3439227e-38 333 255
0.01686356 0.68699998 -0.018068098 1.3071521e-38 334 255
0.018068098 0.68699998 -0.018068098 1.3071521e-38 335 255
0.019300694 0.68800002 -0.0180944 1.2981123e-38 336 255
0.020566599 0.69 -0.018146999 1.2981123e-38 337 255
0.021776399 0.69 -0.018146999 1.2983982e-38 338 255
0.023019511 0.69099998 -0.0181733 1.2246415e-38 339 255
0.024336265 0.69400001 -0.0182522 1.2891474e-38 340 255
0.025553079 0.69400001 -0.0182522 1.7869679e-38 341 255
0.026885614 0.69700003 -0.018331099 1.6776362e-38 342 255
0.028107686 0.69700003 -0.018331099 1.8251851e-38 343 255
-0.051547997 0.69999999 -0.019637333 1.4197774e-38 278 256
-0.050320663 0.69999999 -0.019637333 8.5738405e-39 279 256
-0.048953064 0.69800001 -0.019581227 8.4672171e-39 280 256
-0.047729239 0.69800001 -0.019581227 9.2047821e-39 281 256
-0.046372157 0.69599998 -0.019525118 1.0215662e-38 282 256
-0.045022093 0.69400001 -0.019469013 1.0215662e-38 283 256
-0.043742158 0.69300002 -0.01944096 1.0583353e-38 284 256
-0.042404365 0.69099998 -0.019384852 1.0583353e-38 285 256
-0.041133199 0.69 -0.019356798 1.0950693e-38 286 256
-0.0399234 0.69 -0.019356798 1.0950693e-38 287 256
-0.038601387 0.68800002 -0.019300694 1.1225851e-38 288 256
-0.037395094 0.68800002 -0.019300694 1.1133655e-38 289 256
-0.036136195 0.68699998 -0.019272638 1.0765952e-38 290 256
-0.034728274 0.68300003 -0.019160427 1.0397169e-38 291 256
-0.03348165 0.68199998 -0.019132372 1.021385e-38 292 256
-0.032285877 0.68199998 -0.019132372 1.0582634e-38 293 256
-0.030998932 0.68000001 -0.019076265 1.0949261e-38 294 256
-0.029806666 0.68000001 -0.019076265 1.0949261e-38 295 256
-0.028572321 0.67900002 -0.019048214 1.0948178e-38 296 256
-0.027381808 0.67900002 -0.019048214 1.0763428e-38 297 256
-0.026191294 0.67900002 -0.019048214 1.067087e-38 298 256
-0.025000781 0.67900002 -0.019048214 1.0393923e-38 299 256
-0.023775198 0.67799997 -0.019020159 9.9354654e-39 300 256
-0.022586439 0.67799997 -0.019020159 9.9354654e-39 301 256
-0.021397678 0.67799997 -0.019020159 9.7528748e-39 302 256
-0.020208918 0.67799997 -0.019020159 9.7528748e-39 303 256
-0.018935999 0.67500001 -0.018935999 9.936187e-39 304 256
-0.0177525 0.67500001 -0.018935999 9.936187e-39 305 256
-0.016593546 0.676 -0.018964052 9.6606791e-39 306 256
-0.015408293 0.676 -0.018964052 9.8450718e-39 307 256
-0.014202001 0.67500001 -0.018935999 1.0029813e-38 308 256
-0.0130185 0.67500001 -0.018935999 1.0306399e-38 309 256
-0.011835 0.67500001 -0.018935999 1.067481e-38 310 256
-0.0106515 0.67500001 -0.018935999 1.0767006e-38 311 256
-0.0094679995 0.67500001 -0.018935999 1.1042145e-38 312 256
-0.0082844999 0.67500001 -0.018935999 1.0949948e-38 313 256
-0.0070904801 0.67400002 -0.018907947 1.1225096e-38 314 256
-0.0059087332 0.67400002 -0.018907947 1.1317649e-38 315 256
-0.0047339997 0.67500001 -0.018935999 1.1685708e-38 316 256
-0.0035505001 0.67500001 -0.018935999 1.1685708e-38 317 256
-0.0023669999 0.67500001 -0.018935999 1.2236362e-38 318 256
-0.0011834999 0.67500001 -0.018935999 1.2328915e-38 319 256
0 0.676 -0.018964052 1.2328917e-38 320 256
0.0011852533 0.676 -0.018964052 1.2513668e-38 321 256
0.0023705065 0.676 -0.018964052 1.2421838e-38 322 256
0.0035662798 0.67799997 -0.019020159 1.2421838e-38 323 256
0.0047620535 0.67900002 -0.019048214 1.223817e-38 324 256
0.0059525664 0.67900002 -0.019048214 1.2330366e-38 325 256
0.0071535995 0.68000001 -0.019076265 1.2148138e-38 326 256
0.0083458666 0.68000001 -0.019076265 1.2425085e-38 327 256
0.009566186 0.68199998 -0.019132372 1.2517278e-38 328 256
0.01077774 0.68300003 -0.019160427 1.2701668e-38 329 256
0.011975267 0.68300003 -0.019160427 1.2793858e-38 330 256
0.01319208 0.68400002 -0.01918848 1.2978609e-38 331 256
0.01443344 0.68599999 -0.019244585 1.3070805e-38 332 256
0.015659019 0.68699998 -0.019272638 1.3163e-38 333 256
0.01686356 0.68699998 -0.019272638 1.2978972e-38 334 256
0.018068098 0.68699998 -0.019272638 1.2978972e-38 335 256
0.019300694 0.68800002 -0.019300694 1.2796735e-38 336 256
0.020566599 0.69 -0.019356798 1.2981126e-38 337 256
0.021776399 0.69 -0.019356798 1.2983626e-38 338 256
0.02308614 0.69300002 -0.01944096 1.2246059e-38 339 256
0.024336265 0.69400001 -0.019469013 1.3350297e-38 340 256
0.025553079 0.69400001 -0.019469013 1.8052275e-38 341 256
0.026847038 0.69599998 -0.019525118 1.6684169e-38 342 256
0.028067358 0.69599998 -0.019525118 1.8251495e-38 343 256
0.029287677 0.69599998 -0.019525118 1.7333151e-38 344 256
-0.051547997 0.69999999 -0.020864666 1.3460562e-38 278 257
-0.050320663 0.69999999 -0.020864666 8.0210198e-39 279 257
-0.048953064 0.69800001 -0.020805053 9.1118606e-39 280 257
-0.047592476 0.69599998 -0.020745439 9.3884475e-39 281 257
-0.046372157 0.69599998 -0.020745439 1.0031628e-38 282 257
-0.045022093 0.69400001 -0.020685827 1.0031628e-38 283 257
-0.043742158 0.69300002 -0.020656019 1.0398962e-38 284 257
-0.042404365 0.69099998 -0.020596405 1.0398962e-38 285 257
-0.041133199 0.69 -0.020566599 1.0581556e-38 286 257
-0.039807681 0.68800002 -0.020506985 1.0581556e-38 287 257
-0.038601387 0.68800002 -0.020506985 1.0490088e-38 288 257
-0.037340738 0.68699998 -0.020477179 1.0397891e-38 289 257
-0.035978399 0.68400002 -0.020387759 1.0029834e-38 290 257
-0.034728274 0.68300003 -0.020357953 9.8450844e-39 291 257
-0.03348165 0.68199998 -0.020328145 9.7525356e-39 292 257
-0.032191198 0.68000001 -0.020268533 9.9372856e-39 293 257
-0.030953348 0.67900002 -0.020238725 1.0304626e-38 294 257
-0.029762832 0.67900002 -0.020238725 1.0304626e-38 295 257
-0.028572321 0.67900002 -0.020238725 1.0396444e-38 296 257
-0.027381808 0.67900002 -0.020238725 1.0120217e-38 297 257
-0.026152719 0.67799997 -0.020208918 1.0303879e-38 298 257
-0.024963958 0.67799997 -0.020208918 1.0119487e-38 299 257
-0.023775198 0.67799997 -0.020208918 9.9358213e-39 300 257
-0.022586439 0.67799997 -0.020208918 9.8436257e-39 301 257
-0.021397678 0.67799997 -0.020208918 9.5677744e-39 302 257
-0.020208918 0.67799997 -0.020208918 9.5677744e-39 303 257
-0.018935999 0.67500001 -0.020119499 9.1089641e-39 304 257
-0.0177525 0.67500001 -0.020119499 9.1089641e-39 305 257
-0.016569 0.67500001 -0.020119499 9.0167685e-39 306 257
-0.0153855 0.67500001 -0.020119499 9.2015185e-39 307 257
-0.014202001 0.67500001 -0.020119499 9.8454375e-39 308 257
-0.0130185 0.67500001 -0.020119499 1.0214579e-38 309 257
-0.011817466 0.67400002 -0.020089693 1.0491145e-38 310 257
-0.01063572 0.67400002 -0.020089693 1.058334e-38 311 257
-0.0094539737 0.67400002 -0.020089693 1.0948879e-38 312 257
-0.0082722269 0.67400002 -0.020089693 1.0764488e-38 313 257
-0.0070904801 0.67400002 -0.020089693 1.0763418e-38 314 257
-0.0059087332 0.67400002 -0.020089693 1.0947449e-38 315 257
-0.0047339997 0.67500001 -0.020119499 1.1133266e-38 316 257
-0.0035505001 0.67500001 -0.020119499 1.1317659e-38 317 257
-0.0023669999 0.67500001 -0.020119499 1.186902e-38 318 257
-0.0011834999 0.67500001 -0.020119499 1.2053409e-38 319 257
0 0.676 -0.020149305 1.2053056e-38 320 257
0.0011852533 0.676 -0.020149305 1.2145251e-38 321 257
0.0023705065 0.676 -0.020149305 1.2237807e-38 322 257
0.0035662798 0.67799997 -0.020208918 1.2237807e-38 323 257
0.0047550397 0.67799997 -0.020208918 1.2238526e-38 324 257
0.0059525664 0.67900002 -0.020238725 1.2238526e-38 325 257
0.0071535995 0.68000001 -0.020268533 1.1965179e-38 326 257
0.0083458666 0.68000001 -0.020268533 1.2149572e-38 327 257
0.0095381327 0.68000001 -0.020268533 1.2333603e-38 328 257
0.01077774 0.68300003 -0.020357953 1.2518353e-38 329 257
0.011975267 0.68300003 -0.020357953 1.2701662e-38 330 257
0.01319208 0.68400002 -0.020387759 1.2793858e-38 331 257
0.01443344 0.68599999 -0.020447372 1.2978256e-38 332 257
0.015659019 0.68699998 -0.020477179 1.2978256e-38 333 257
0.01686356 0.68699998 -0.020477179 1.2703464e-38 334 257
0.018068098 0.68699998 -0.020477179 1.2703464e-38 335 257
0.019300694 0.68800002 -0.020506985 1.2520868e-38 336 257
0.020506985 0.68800002 -0.020506985 1.2705618e-38 337 257
0.021776399 0.69 -0.020566599 1.2708133e-38 338 257
0.02308614 0.69300002 -0.020656019 1.2247155e-38 339 257
0.024336265 0.69400001 -0.020685827 1.3628338e-38 340 257
0.025553079 0.69400001 -0.020685827 1.7961174e-38 341 257
0.026847038 0.69599998 -0.020745439 1.6593771e-38 342 257
0.028067358 0.69599998 -0.020745439 1.8068902e-38 343 257
0.029287677 0.69599998 -0.020745439 1.7058362e-38 344 257
-0.051547997 0.69999999 -0.022091998 1.3091058e-38 278 258
-0.050320663 0.69999999 -0.022091998 8.0202967e-39 279 258
-0.048953064 0.69800001 -0.02202888 9.9426975e-39 280 258
-0.047592476 0.69599998 -0.021965759 9.6661092e-39 281 258
-0.046372157 0.69599998 -0.021965759 9.7572048e-39 282 258
-0.045022093 0.69400001 -0.021902639 9.480978e-39 283 258
-0.043742158 0.69300002 -0.021871079 1.0030904e-38 284 258
-0.042404365 0.69099998 -0.021807959 1.0123099e-38 285 258
-0.041133199 0.69 -0.021776399 1.0213497e-38 286 258
-0.039807681 0.68800002 -0.021713281 1.0213497e-38 287 258
-0.038545277 0.68699998 -0.021681719 9.7543181e-39 288 258
-0.037177678 0.68400002 -0.02158704 9.7543181e-39 289 258
-0.035925802 0.68300003 -0.02155548 9.752523e-39 290 258
-0.034728274 0.68300003 -0.02155548 9.660326e-39 291 258
-0.033383466 0.68000001 -0.0214608 9.4752257e-39 292 258
-0.032191198 0.68000001 -0.0214608 9.6599757e-39 293 258
-0.030953348 0.67900002 -0.021429239 9.8447215e-39 294 258
-0.029762832 0.67900002 -0.021429239 9.9369171e-39 295 258
-0.028530238 0.67799997 -0.021397678 1.0028384e-38 296 258
-0.027341479 0.67799997 -0.021397678 9.936187e-39 297 258
-0.026152719 0.67799997 -0.021397678 1.0028017e-38 298 258
-0.024963958 0.67799997 -0.021397678 1.0028017e-38 299 258
-0.023775198 0.67799997 -0.021397678 9.752872e-39 300 258
-0.022586439 0.67799997 -0.021397678 9.6606763e-39 301 258
-0.021397678 0.67799997 -0.021397678 9.1086012e-39 302 258
-0.020149305 0.676 -0.021334561 8.9242099e-39 303 258
-0.018935999 0.67500001 -0.021303 8.5554428e-39 304 258
-0.0177525 0.67500001 -0.021303 8.5554428e-39 305 258
-0.016569 0.67500001 -0.021303 8.7384033e-39 306 258
-0.0153855 0.67500001 -0.021303 8.8309577e-39 307 258
-0.014202001 0.67500001 -0.021303 8.7427081e-39 308 258
-0.0130185 0.67500001 -0.021303 9.2958819e-39 309 258
-0.011817466 0.67400002 -0.021271439 1.0397888e-38 310 258
-0.01063572 0.67400002 -0.021271439 1.0490085e-38 311 258
-0.0094539737 0.67400002 -0.021271439 1.0764503e-38 312 258
-0.0082722269 0.67400002 -0.021271439 1.0395722e-38 313 258
-0.0070904801 0.67400002 -0.021271439 1.0117696e-38 314 258
-0.0059087332 0.67400002 -0.021271439 1.0486118e-38 315 258
-0.0047269869 0.67400002 -0.021271439 1.0581538e-38 316 258
-0.0035505001 0.67500001 -0.021303 1.0950321e-38 317 258
-0.0023669999 0.67500001 -0.021303 1.1592801e-38 318 258
-0.0011834999 0.67500001 -0.021303 1.1777551e-38 319 258
0 0.676 -0.021334561 1.2053412e-38 320 258
0.0011852533 0.676 -0.021334561 1.2145607e-38 321 258
0.0023705065 0.676 -0.021334561 1.2053775e-38 322 258
0.0035662798 0.67799997 -0.021397678 1.2145972e-38 323 258
0.0047550397 0.67799997 -0.021397678 1.2055208e-38 324 258
0.0059525664 0.67900002 -0.021429239 1.2055208e-38 325 258
0.0071535995 0.68000001 -0.0214608 1.2056646e-38 326 258
0.0083458666 0.68000001 -0.0214608 1.2148842e-38 327 258
0.0095381327 0.68000001 -0.0214608 1.2333237e-38 328 258
0.010761959 0.68199998 -0.021523919 1.2425433e-38 329 258
0.011975267 0.68300003 -0.02155548 1.2700946e-38 330 258
0.01319208 0.68400002 -0.02158704 1.2793142e-38 331 258
0.01443344 0.68599999 -0.021650158 1.2701665e-38 332 258
0.015659019 0.68699998 -0.021681719 1.2793861e-38 333 258
0.01686356 0.68699998 -0.021681719 1.2519422e-38 334 258
0.018068098 0.68699998 -0.021681719 1.2611618e-38 335 258
0.019300694 0.68800002 -0.021713281 1.2245357e-38 336 258
0.020506985 0.68800002 -0.021713281 1.2614138e-38 337 258
0.021807959 0.69099998 -0.021807959 1.270778e-38 338 258
0.02308614 0.69300002 -0.021871079 1.2615585e-38 339 258
0.024336265 0.69400001 -0.021902639 1.3537951e-38 340 258
0.025553079 0.69400001 -0.021902639 1.7778949e-38 341 258
0.026847038 0.69599998 -0.021965759 1.6501939e-38 342 258
0.027986705 0.69400001 -0.021902639 1.7884873e-38 343 258
0.029203519 0.69400001 -0.021902639 1.6965811e-38 344 258
-0.051400717 0.69800001 -0.023252707 1.364242e-38 278 259
-0.050176892 0.69800001 -0.023252707 8.3872688e-39 279 259
-0.048953064 0.69800001 -0.023252707 1.0496224e-38 280 259
-0.047592476 0.69599998 -0.023186078 9.9430506e-39 281 259
-0.046372157 0.69599998 -0.023186078 1.0124545e-38 282 259
-0.045022093 0.69400001 -0.023119451 9.9401541e-39 283 259
-0.043742158 0.69300002 -0.02308614 1.0030904e-38 284 259
-0.042404365 0.69099998 -0.023019511 9.8468725e-39 285 259
-0.041133199 0.69 -0.022986198 9.6624882e-39 286 259
-0.039807681 0.68800002 -0.022919573 9.3862615e-39 287 259
-0.038545277 0.68699998 -0.022886258 9.5699296e-39 288 259
-0.037177678 0.68400002 -0.022786319 9.477734e-39 289 259
-0.035925802 0.68300003 -0.022753006 9.2011499e-39 290 259
-0.034728274 0.68300003 -0.022753006 9.1089543e-39 291 259
-0.033383466 0.68000001 -0.022653066 9.2922666e-39 292 259
-0.032191198 0.68000001 -0.022653066 9.4766578e-39 293 259
-0.030953348 0.67900002 -0.022619752 9.5688548e-39 294 259
-0.029762832 0.67900002 -0.022619752 9.5688548e-39 295 259
-0.028530238 0.67799997 -0.022586439 9.4770137e-39 296 259
-0.027341479 0.67799997 -0.022586439 9.5692108e-39 297 259
-0.026152719 0.67799997 -0.022586439 9.477727e-39 298 259
-0.024963958 0.67799997 -0.022586439 9.477727e-39 299 259
-0.023775198 0.67799997 -0.022586439 9.7528748e-39 300 259
-0.022586439 0.67799997 -0.022586439 9.5681248e-39 301 259
-0.021397678 0.67799997 -0.022586439 9.199715e-39 302 259
-0.020149305 0.676 -0.022519812 8.9234882e-39 303 259
-0.018935999 0.67500001 -0.022486499 8.462894e-39 304 259
-0.0177525 0.67500001 -0.022486499 8.3706984e-39 305 259
-0.016569 0.67500001 -0.022486499 7.6360299e-39 306 259
-0.0153855 0.67500001 -0.022486499 8.0044536e-39 307 259
-0.014202001 0.67500001 -0.022486499 8.1909959e-39 308 259
-0.0130185 0.67500001 -0.022486499 8.651974e-39 309 259
-0.011817466 0.67400002 -0.022453187 9.6632197e-39 310 259
-0.01063572 0.67400002 -0.022453187 9.6632197e-39 311 259
-0.0094539737 0.67400002 -0.022453187 1.0212775e-38 312 259
-0.0082722269 0.67400002 -0.022453187 9.936187e-39 313 259
-0.0070904801 0.67400002 -0.022453187 9.9354682e-39 314 259
-0.0059087332 0.67400002 -0.022453187 1.0303892e-38 315 259
-0.0047269869 0.67400002 -0.022453187 1.0030535e-38 316 259
-0.0035505001 0.67500001 -0.022486499 1.0398959e-38 317 259
-0.0023669999 0.67500001 -0.022486499 1.1317659e-38 318 259
-0.0011834999 0.67500001 -0.022486499 1.150205e-38 319 259
0 0.676 -0.022519812 1.1777914e-38 320 259
0.0011852533 0.676 -0.022519812 1.1870109e-38 321 259
0.0023705065 0.676 -0.022519812 1.2053421e-38 322 259
0.0035662798 0.67799997 -0.022586439 1.2238173e-38 323 259
0.0047550397 0.67799997 -0.022586439 1.2054855e-38 324 259
0.0059525664 0.67900002 -0.022619752 1.2239245e-38 325 259
0.0071430802 0.67900002 -0.022619752 1.2056293e-38 326 259
0.0083335936 0.67900002 -0.022619752 1.2056293e-38 327 259
0.0095381327 0.68000001 -0.022653066 1.2240334e-38 328 259
0.010761959 0.68199998 -0.022719691 1.2332889e-38 329 259
0.011957732 0.68199998 -0.022719691 1.2333252e-38 330 259
0.01319208 0.68400002 -0.022786319 1.2425448e-38 331 259
0.01443344 0.68599999 -0.022852944 1.2518e-38 332 259
0.015659019 0.68699998 -0.022886258 1.2518e-38 333 259
0.01686356 0.68699998 -0.022886258 1.2243208e-38 334 259
0.018068098 0.68699998 -0.022886258 1.2335403e-38 335 259
0.019300694 0.68800002 -0.022919573 1.2245373e-38 336 259
0.020566599 0.69 -0.022986198 1.2522318e-38 337 259
0.021807959 0.69099998 -0.023019511 1.2341521e-38 338 259
0.02308614 0.69300002 -0.02308614 1.2525553e-38 339 259
0.024336265 0.69400001 -0.023119451 1.3814534e-38 340 259
0.025553079 0.69400001 -0.023119451 1.8055893e-38 341 259
0.026847038 0.69599998 -0.023186078 1.714479e-38 342 259
0.027986705 0.69400001 -0.023119451 1.8251498e-38 343 259
0.029203519 0.69400001 -0.023119451 1.7058009e-38 344 259
-0.051400717 0.69800001 -0.024476532 1.4564019e-38 278 260
-0.050176892 0.69800001 -0.024476532 9.4010634e-39 279 260
-0.048953064 0.69800001 -0.024476532 1.0588417e-38 280 260
-0.047592476 0.69599998 -0.0244064 1.0219633e-38 281 260
-0.046372157 0.69599998 -0.0244064 1.0124901e-38 282 260
-0.045022093 0.69400001 -0.024336265 1.0032347e-38 283 260
-0.043742158 0.69300002 -0.024301201 9.8472354e-39 284 260
-0.042404365 0.69099998 -0.024231065 9.6628441e-39 285 260
-0.041133199 0.69 -0.024195999 9.3869803e-39 286 260
-0.039807681 0.68800002 -0.024125867 9.2947847e-39 287 260
-0.038545277 0.68699998 -0.024090799 9.4766578e-39 288 260
-0.037177678 0.68400002 -0.0239856 9.3844622e-39 289 260
-0.035925802 0.68300003 -0.023950534 8.8341625e-39 290 260
-0.034728274 0.68300003 -0.023950534 8.7419668e-39 291 260
-0.033383466 0.68000001 -0.023845334 9.1093018e-39 292 260
-0.032191198 0.68000001 -0.023845334 9.2014974e-39 293 260
-0.030953348 0.67900002 -0.023810266 9.4773613e-39 294 260
-0.029762832 0.67900002 -0.023810266 9.4773613e-39 295 260
-0.028530238 0.67799997 -0.023775198 9.5681276e-39 296 260
-0.027341479 0.67799997 -0.023775198 9.5681276e-39 297 260
-0.026152719 0.67799997 -0.023775198 9.2022219e-39 298 260
-0.024963958 0.67799997 -0.023775198 9.2944175e-39 299 260
-0.023775198 0.67799997 -0.023775198 9.294063e-39 300 260
-0.022586439 0.67799997 -0.023775198 9.201866e-39 301 260
-0.021397678 0.67799997 -0.023775198 8.8334534e-39 302 260
-0.020149305 0.676 -0.023705067 8.7412578e-39 303 260
-0.018935999 0.67500001 -0.023669999 8.0069396e-39 304 260
-0.0177525 0.67500001 -0.023669999 7.7303513e-39 305 260
-0.016569 0.67500001 -0.023669999 7.6374494e-39 306 260
-0.015362706 0.67400002 -0.023634933 7.729645e-39 307 260
-0.01418096 0.67400002 -0.023634933 8.5572449e-39 308 260
-0.0130185 0.67500001 -0.023669999 9.0178643e-39 309 260
-0.011817466 0.67400002 -0.023634933 9.6624938e-39 310 260
-0.01063572 0.67400002 -0.023634933 9.7546894e-39 311 260
-0.0094539737 0.67400002 -0.023634933 9.9369143e-39 312 260
-0.0082722269 0.67400002 -0.023634933 9.752523e-39 313 260
-0.0070904801 0.67400002 -0.023634933 9.752872e-39 314 260
-0.0059087332 0.67400002 -0.023634933 9.845069e-39 315 260
-0.0047269869 0.67400002 -0.023634933 1.0214548e-38 316 260
-0.00354524 0.67400002 -0.023634933 1.0491494e-38 317 260
-0.0023669999 0.67500001 -0.023669999 1.1318366e-38 318 260
-0.0011834999 0.67500001 -0.023669999 1.1502755e-38 319 260
0 0.67500001 -0.023669999 1.1502759e-38 320 260
0.0011852533 0.676 -0.023705067 1.1594954e-38 321 260
0.0023705065 0.676 -0.023705067 1.1961226e-38 322 260
0.0035662798 0.67799997 -0.023775198 1.2053421e-38 323 260
0.0047550397 0.67799997 -0.023775198 1.1962309e-38 324 260
0.0059437994 0.67799997 -0.023775198 1.2054505e-38 325 260
0.0071430802 0.67900002 -0.023810266 1.2239239e-38 326 260
0.0083335936 0.67900002 -0.023810266 1.2239239e-38 327 260
0.0095381327 0.68000001 -0.023845334 1.2240674e-38 328 260
0.010761959 0.68199998 -0.023915464 1.2424705e-38 329 260
0.011957732 0.68199998 -0.023915464 1.2425435e-38 330 260
0.013172794 0.68300003 -0.023950534 1.2517631e-38 331 260
0.01443344 0.68599999 -0.024055731 1.2333959e-38 332 260
0.015636226 0.68599999 -0.024055731 1.2333959e-38 333 260
0.01686356 0.68699998 -0.024090799 1.2333959e-38 334 260
0.018068098 0.68699998 -0.024090799 1.251835e-38 335 260
0.019356798 0.69 -0.024195999 1.2427602e-38 336 260
0.020596405 0.69099998 -0.024231065 1.288858e-38 337 260
0.021807959 0.69099998 -0.024231065 1.2982222e-38 338 260
0.02308614 0.69300002 -0.024301201 1.3627591e-38 339 260
0.0244064 0.69599998 -0.0244064 1.381598e-38 340 260
0.025663542 0.69700003 -0.024441468 1.8426121e-38 341 260
0.026885614 0.69700003 -0.024441468 1.7699043e-38 342 260
0.028067358 0.69599998 -0.0244064 1.8252217e-38 343 260
0.029287677 0.69599998 -0.0244064 1.6874697e-38 344 260
-0.051621638 0.70099998 -0.025810819 1.4658735e-38 278 261
-0.050320663 0.69999999 -0.025773998 9.9563994e-39 279 261
-0.048882935 0.69700003 -0.025663542 1.0956477e-38 280 261
-0.047592476 0.69599998 -0.025626717 1.0864281e-38 281 261
-0.046372157 0.69599998 -0.025626717 1.0861019e-38 282 261
-0.045022093 0.69400001 -0.025553079 1.0307845e-38 283 261
-0.043742158 0.69300002 -0.02551626 9.8475857e-39 284 261
-0.042404365 0.69099998 -0.025442619 9.6631945e-39 285 261
-0.041133199 0.69 -0.025405798 9.5699296e-39 286 261
-0.039807681 0.68800002 -0.02533216 9.477734e-39 287 261
-0.038545277 0.68699998 -0.025295338 9.3855342e-39 288 261
-0.037177678 0.68400002 -0.025184879 9.2015031e-39 289 261
-0.035925802 0.68300003 -0.02514806 9.1093046e-39 290 261
-0.034677424 0.68199998 -0.025111238 9.1093046e-39 291 261
-0.033383466 0.68000001 -0.025037598 9.2926141e-39 292 261
-0.032191198 0.68000001 -0.025037598 9.3851684e-39 293 261
-0.030953348 0.67900002 -0.025000781 9.3848153e-39 294 261
-0.029762832 0.67900002 -0.025000781 9.2000653e-39 295 261
-0.028572321 0.67900002 -0.025000781 9.1089543e-39 296 261
-0.027381808 0.67900002 -0.025000781 9.3851811e-39 297 261
-0.026152719 0.67799997 -0.024963958 9.201866e-39 298 261
-0.024963958 0.67799997 -0.024963958 9.294063e-39 299 261
-0.023775198 0.67799997 -0.024963958 9.4777298e-39 300 261
-0.022586439 0.67799997 -0.024963958 9.4777298e-39 301 261
-0.021397678 0.67799997 -0.024963958 9.3858873e-39 302 261
-0.020149305 0.676 -0.024890319 9.2014974e-39 303 261
-0.018935999 0.67500001 -0.0248535 8.9252763e-39 304 261
-0.0177525 0.67500001 -0.0248535 8.6490495e-39 305 261
-0.016569 0.67500001 -0.0248535 8.1895329e-39 306 261
-0.015362706 0.67400002 -0.024816679 8.1895329e-39 307 261
-0.01418096 0.67400002 -0.024816679 8.3753703e-39 308 261
-0.012999214 0.67400002 -0.024816679 8.559763e-39 309 261
-0.011817466 0.67400002 -0.024816679 9.4788284e-39 310 261
-0.01063572 0.67400002 -0.024816679 9.3866328e-39 311 261
-0.0094539737 0.67400002 -0.024816679 9.7528916e-39 312 261
-0.0082722269 0.67400002 -0.024816679 9.5688605e-39 313 261
-0.0070904801 0.67400002 -0.024816679 9.3869677e-39 314 261
-0.0059087332 0.67400002 -0.024816679 9.7553901e-39 315 261
-0.0047269869 0.67400002 -0.024816679 1.021563e-38 316 261
-0.00354524 0.67400002 -0.024816679 1.0584412e-38 317 261
-0.0023669999 0.67500001 -0.0248535 1.1135062e-38 318 261
-0.0011834999 0.67500001 -0.0248535 1.1227258e-38 319 261
0 0.67500001 -0.0248535 1.1502769e-38 320 261
0.0011852533 0.676 -0.024890319 1.1502769e-38 321 261
0.0023705065 0.676 -0.024890319 1.177756e-38 322 261
0.0035662798 0.67799997 -0.024963958 1.1962312e-38 323 261
0.0047550397 0.67799997 -0.024963958 1.1779713e-38 324 261
0.0059437994 0.67799997 -0.024963958 1.1871908e-38 325 261
0.0071325595 0.67799997 -0.024963958 1.1872615e-38 326 261
0.0083335936 0.67900002 -0.025000781 1.2056646e-38 327 261
0.0095381327 0.68000001 -0.025037598 1.1965532e-38 328 261
0.0107304 0.68000001 -0.025037598 1.2057728e-38 329 261
0.011957732 0.68199998 -0.025111238 1.2057742e-38 330 261
0.013172794 0.68300003 -0.02514806 1.2057742e-38 331 261
0.01443344 0.68599999 -0.025258519 1.1965545e-38 332 261
0.015636226 0.68599999 -0.025258519 1.2057742e-38 333 261
0.01686356 0.68699998 -0.025295338 1.2150656e-38 334 261
0.018068098 0.68699998 -0.025295338 1.2335406e-38 335 261
0.019356798 0.69 -0.025405798 1.2244659e-38 336 261
0.020596405 0.69099998 -0.025442619 1.2797473e-38 337 261
0.021807959 0.69099998 -0.025442619 1.261705e-38 338 261
0.02308614 0.69300002 -0.02551626 1.3169865e-38 339 261
0.0244064 0.69599998 -0.025626717 1.4091141e-38 340 261
0.025663542 0.69700003 -0.025663542 1.916226e-38 341 261
0.026885614 0.69700003 -0.025663542 1.7976353e-38 342 261
0.028107686 0.69700003 -0.025663542 1.7976353e-38 343 261
0.02932976 0.69700003 -0.025663542 1.7057287e-38 344 261
-0.051621638 0.70099998 -0.027039904 1.5028241e-38 278 262
-0.050320663 0.69999999 -0.027001332 1.0418459e-38 279 262
-0.048882935 0.69700003 -0.026885614 1.1232703e-38 280 262
-0.047592476 0.69599998 -0.026847038 1.1232703e-38 281 262
-0.046372157 0.69599998 -0.026847038 1.0953214e-38 282 262
-0.045022093 0.69400001 -0.026769891 1.0400041e-38 283 262
-0.043742158 0.69300002 -0.02673132 9.6649951e-39 284 262
-0.042404365 0.69099998 -0.026654173 9.4802451e-39 285 262
-0.041133199 0.69 -0.026615599 9.3869775e-39 286 262
-0.039807681 0.68800002 -0.026538454 9.3869775e-39 287 262
-0.038545277 0.68699998 -0.026499879 9.2025863e-39 288 262
-0.037177678 0.68400002 -0.02638416 9.0185537e-39 289 262
-0.035925802 0.68300003 -0.026345588 9.0185537e-39 290 262
-0.034677424 0.68199998 -0.026307013 8.9263581e-39 291 262
-0.033383466 0.68000001 -0.026229866 9.3851782e-39 292 262
-0.032143861 0.67900002 -0.026191294 9.2011471e-39 293 262
-0.030953348 0.67900002 -0.026191294 9.2922638e-39 294 262
-0.029762832 0.67900002 -0.026191294 9.2000681e-39 295 262
-0.028530238 0.67799997 -0.026152719 9.1089543e-39 296 262
-0.027341479 0.67799997 -0.026152719 9.2011499e-39 297 262
-0.026152719 0.67799997 -0.026152719 9.201866e-39 298 262
-0.024963958 0.67799997 -0.026152719 9.294063e-39 299 262
-0.023775198 0.67799997 -0.026152719 9.4777298e-39 300 262
-0.022586439 0.67799997 -0.026152719 9.4777298e-39 301 262
-0.021397678 0.67799997 -0.026152719 9.2944175e-39 302 262
-0.020149305 0.676 -0.026075572 9.2944175e-39 303 262
-0.018935999 0.67500001 -0.026037 8.9260078e-39 304 262
-0.0177525 0.67500001 -0.026037 8.8334534e-39 305 262
-0.016569 0.67500001 -0.026037 8.0073053e-39 306 262
-0.015362706 0.67400002 -0.025998428 8.0073053e-39 307 262
-0.01418096 0.67400002 -0.025998428 8.6508754e-39 308 262
-0.012999214 0.67400002 -0.025998428 8.7430725e-39 309 262
-0.011817466 0.67400002 -0.025998428 9.3866272e-39 310 262
-0.01063572 0.67400002 -0.025998428 9.3866272e-39 311 262
-0.0094539737 0.67400002 -0.025998428 9.5695765e-39 312 262
-0.0082722269 0.67400002 -0.025998428 9.4773809e-39 313 262
-0.0070904801 0.67400002 -0.025998428 9.5706457e-39 314 262
-0.0059087332 0.67400002 -0.025998428 9.755037e-39 315 262
-0.0047269869 0.67400002 -0.025998428 1.0398942e-38 316 262
-0.00354524 0.67400002 -0.025998428 1.0491498e-38 317 262
-0.0023669999 0.67500001 -0.026037 1.0950671e-38 318 262
-0.0011834999 0.67500001 -0.026037 1.1227258e-38 319 262
0 0.67500001 -0.026037 1.1502053e-38 320 262
0.0011852533 0.676 -0.026075572 1.1594248e-38 321 262
0.0023705065 0.676 -0.026075572 1.177756e-38 322 262
0.0035557596 0.676 -0.026075572 1.177756e-38 323 262
0.0047550397 0.67799997 -0.026152719 1.1870832e-38 324 262
0.0059437994 0.67799997 -0.026152719 1.1963028e-38 325 262
0.0071325595 0.67799997 -0.026152719 1.1780788e-38 326 262
0.0083335936 0.67900002 -0.026191294 1.1872983e-38 327 262
0.0095381327 0.68000001 -0.026229866 1.1965176e-38 328 262
0.0107304 0.68000001 -0.026229866 1.187298e-38 329 262
0.011957732 0.68199998 -0.026307013 1.1965182e-38 330 262
0.013172794 0.68300003 -0.026345588 1.1965182e-38 331 262
0.01443344 0.68599999 -0.026461305 1.2148138e-38 332 262
0.015659019 0.68699998 -0.026499879 1.2332889e-38 333 262
0.01686356 0.68699998 -0.026499879 1.1966981e-38 334 262
0.0180944 0.68800002 -0.026538454 1.2243208e-38 335 262
0.019356798 0.69 -0.026615599 1.2244657e-38 336 262
0.020596405 0.69099998 -0.026654173 1.2705633e-38 337 262
0.021807959 0.69099998 -0.026654173 1.2707445e-38 338 262
0.02308614 0.69300002 -0.02673132 1.3168784e-38 339 262
0.0244064 0.69599998 -0.026847038 1.4185494e-38 340 262
0.025626717 0.69599998 -0.026847038 1.9532841e-38 341 262
0.026885614 0.69700003 -0.026885614 1.7977074e-38 342 262
0.028107686 0.69700003 -0.026885614 1.7977074e-38 343 262
0.02932976 0.69700003 -0.026885614 1.7241324e-38 344 262
-0.051621638 0.70099998 -0.028268991 1.6040595e-38 278 263
-0.050320663 0.69999999 -0.028228667 1.2076183e-38 279 263
-0.048953064 0.69800001 -0.028148014 1.1416736e-38 280 263
-0.047592476 0.69599998 -0.028067358 1.1692963e-38 281 263
-0.046238903 0.69400001 -0.027986705 1.113868e-38 282 263
-0.045022093 0.69400001 -0.027986705 1.0585507e-38 283 263
-0.043742158 0.69300002 -0.027946379 9.7571894e-39 284 263
-0.042404365 0.69099998 -0.027865725 9.4806011e-39 285 263
-0.041133199 0.69 -0.027825398 9.3869775e-39 286 263
-0.039807681 0.68800002 -0.027744746 9.3869775e-39 287 263
-0.038545277 0.68699998 -0.027704418 9.2940658e-39 288 263
-0.037177678 0.68400002 -0.027583439 9.2940658e-39 289 263
-0.035925802 0.68300003 -0.027543113 9.3851782e-39 290 263
-0.034677424 0.68199998 -0.027502786 9.1089515e-39 291 263
-0.033383466 0.68000001 -0.027422134 9.2922638e-39 292 263
-0.032143861 0.67900002 -0.027381808 9.2922638e-39 293 263
-0.030953348 0.67900002 -0.027381808 9.2915449e-39 294 263
-0.029718997 0.67799997 -0.027341479 9.2915449e-39 295 263
-0.028530238 0.67799997 -0.027341479 9.1089515e-39 296 263
-0.027341479 0.67799997 -0.027341479 9.2011471e-39 297 263
-0.026152719 0.67799997 -0.027341479 9.201866e-39 298 263
-0.024963958 0.67799997 -0.027341479 9.201866e-39 299 263
-0.023775198 0.67799997 -0.027341479 9.477727e-39 300 263
-0.022586439 0.67799997 -0.027341479 9.569924e-39 301 263
-0.021397678 0.67799997 -0.027341479 9.294063e-39 302 263
-0.020149305 0.676 -0.027260827 9.294063e-39 303 263
-0.018935999 0.67500001 -0.027220501 9.0178475e-39 304 263
-0.0177525 0.67500001 -0.027220501 8.9256518e-39 305 263
-0.016569 0.67500001 -0.027220501 8.282816e-39 306 263
-0.015362706 0.67400002 -0.027180174 8.282816e-39 307 263
-0.01418096 0.67400002 -0.027180174 8.467566e-39 308 263
-0.012999214 0.67400002 -0.027180174 8.8359898e-39 309 263
-0.011817466 0.67400002 -0.027180174 9.5713772e-39 310 263
-0.01063572 0.67400002 -0.027180174 9.5713772e-39 311 263
-0.0094539737 0.67400002 -0.027180174 9.7543237e-39 312 263
-0.0082722269 0.67400002 -0.027180174 9.6617693e-39 313 263
-0.0070904801 0.67400002 -0.027180174 9.5706429e-39 314 263
-0.0059087332 0.67400002 -0.027180174 9.7553929e-39 315 263
-0.0047269869 0.67400002 -0.027180174 1.0306393e-38 316 263
-0.00354524 0.67400002 -0.027180174 1.0491145e-38 317 263
-0.0023634934 0.67400002 -0.027180174 1.1041797e-38 318 263
-0.0011817467 0.67400002 -0.027180174 1.1226189e-38 319 263
0 0.67500001 -0.027220501 1.1409501e-38 320 263
0.0011852533 0.676 -0.027260827 1.1502055e-38 321 263
0.0023705065 0.676 -0.027260827 1.1593166e-38 322 263
0.0035557596 0.676 -0.027260827 1.1685721e-38 323 263
0.0047550397 0.67799997 -0.027341479 1.1503122e-38 324 263
0.0059437994 0.67799997 -0.027341479 1.1595317e-38 325 263
0.0071325595 0.67799997 -0.027341479 1.1504558e-38 326 263
0.0083335936 0.67900002 -0.027381808 1.1504558e-38 327 263
0.0095381327 0.68000001 -0.027422134 1.1688233e-38 328 263
0.0107304 0.68000001 -0.027422134 1.1780788e-38 329 263
0.011957732 0.68199998 -0.027502786 1.1871911e-38 330 263
0.013172794 0.68300003 -0.027543113 1.1871911e-38 331 263
0.01443344 0.68599999 -0.027664091 1.2055945e-38 332 263
0.015659019 0.68699998 -0.027704418 1.2240336e-38 333 263
0.016888106 0.68800002 -0.027744746 1.1966628e-38 334 263
0.0180944 0.68800002 -0.027744746 1.2242855e-38 335 263
0.019356798 0.69 -0.027825398 1.2427972e-38 336 263
0.020566599 0.69 -0.027825398 1.2796754e-38 337 263
0.021807959 0.69099998 -0.027865725 1.2799644e-38 338 263
0.02308614 0.69300002 -0.027946379 1.3352818e-38 339 263
0.024301201 0.69300002 -0.027946379 1.4648636e-38 340 263
0.025626717 0.69599998 -0.028067358 1.9535006e-38 341 263
0.026885614 0.69700003 -0.028107686 1.7793409e-38 342 263
0.028107686 0.69700003 -0.028107686 1.7608659e-38 343 263
-0.051547997 0.69999999 -0.029455997 1.6869277e-38 278 264
-0.050320663 0.69999999 -0.029455997 1.4103408e-38 279 264
-0.048953064 0.69800001 -0.029371841 1.2060669e-38 280 264
-0.047592476 0.69599998 -0.029287677 1.1876638e-38 281 264
-0.046238903 0.69400001 -0.029203519 1.1140129e-38 282 264
-0.045022093 0.69400001 -0.029203519 1.049476e-38 283 264
-0.043742158 0.69300002 -0.029161438 9.4820472e-39 284 264
-0.042404365 0.69099998 -0.029077278 9.3898502e-39 285 264
-0.041133199 0.69 -0.029035198 9.5717247e-39 286 264
-0.039807681 0.68800002 -0.028951041 9.4795291e-39 287 264
-0.038545277 0.68699998 -0.028908957 9.5699268e-39 288 264
-0.037177678 0.68400002 -0.02878272 9.4777298e-39 289 264
-0.035925802 0.68300003 -0.028740639 9.2011471e-39 290 264
-0.034677424 0.68199998 -0.02869856 9.1089515e-39 291 264
-0.033383466 0.68000001 -0.028614398 9.1078753e-39 292 264
-0.032143861 0.67900002 -0.028572321 9.2000709e-39 293 264
-0.030953348 0.67900002 -0.028572321 8.9242099e-39 294 264
-0.029718997 0.67799997 -0.028530238 8.9242099e-39 295 264
-0.028530238 0.67799997 -0.028530238 8.9249288e-39 296 264
-0.027341479 0.67799997 -0.028530238 9.10932e-39 297 264
-0.026152719 0.67799997 -0.028530238 9.0182006e-39 298 264
-0.024963958 0.67799997 -0.028530238 9.2022331e-39 299 264
-0.023775198 0.67799997 -0.028530238 9.2947819e-39 300 264
-0.022586439 0.67799997 -0.028530238 9.2025863e-39 301 264
-0.021397678 0.67799997 -0.028530238 9.2022331e-39 302 264
-0.020149305 0.676 -0.028446076 9.0182006e-39 303 264
-0.018935999 0.67500001 -0.028404001 8.7427081e-39 304 264
-0.0177525 0.67500001 -0.028404001 8.7427081e-39 305 264
-0.016569 0.67500001 -0.028404001 8.3750172e-39 306 264
-0.015362706 0.67400002 -0.02836192 8.4672142e-39 307 264
-0.01418096 0.67400002 -0.02836192 8.5601287e-39 308 264
-0.012999214 0.67400002 -0.02836192 8.8370744e-39 309 264
-0.011817466 0.67400002 -0.02836192 9.4806277e-39 310 264
-0.01063572 0.67400002 -0.02836192 9.6646588e-39 311 264
-0.0094539737 0.67400002 -0.02836192 1.0030548e-38 312 264
-0.0082722269 0.67400002 -0.02836192 1.0030548e-38 313 264
-0.0070904801 0.67400002 -0.02836192 1.0031257e-38 314 264
-0.0059087332 0.67400002 -0.02836192 1.0123452e-38 315 264
-0.0047269869 0.67400002 -0.02836192 1.0398594e-38 316 264
-0.00354524 0.67400002 -0.02836192 1.0398594e-38 317 264
-0.0023634934 0.67400002 -0.02836192 1.0949249e-38 318 264
-0.0011817467 0.67400002 -0.02836192 1.1041444e-38 319 264
0 0.67500001 -0.028404001 1.1316952e-38 320 264
0.0011852533 0.676 -0.028446076 1.1409507e-38 321 264
0.0023705065 0.676 -0.028446076 1.1409501e-38 322 264
0.0035557596 0.676 -0.028446076 1.1409501e-38 323 264
0.0047550397 0.67799997 -0.028530238 1.1410929e-38 324 264
0.0059437994 0.67799997 -0.028530238 1.1410929e-38 325 264
0.0071430802 0.67900002 -0.028572321 1.1319812e-38 326 264
0.0083335936 0.67900002 -0.028572321 1.1319812e-38 327 264
0.0095381327 0.68000001 -0.028614398 1.1412008e-38 328 264
0.0107304 0.68000001 -0.028614398 1.1504205e-38 329 264
0.011957732 0.68199998 -0.02869856 1.1688236e-38 330 264
0.01319208 0.68400002 -0.02878272 1.1780432e-38 331 264
0.014454478 0.68699998 -0.028908957 1.1872633e-38 332 264
0.015659019 0.68699998 -0.028908957 1.2057024e-38 333 264
0.016888106 0.68800002 -0.028951041 1.1874795e-38 334 264
0.0180944 0.68800002 -0.028951041 1.2151741e-38 335 264
0.019356798 0.69 -0.029035198 1.2520165e-38 336 264
0.020566599 0.69 -0.029035198 1.279711e-38 337 264
0.021807959 0.69099998 -0.029077278 1.298259e-38 338 264
0.02308614 0.69300002 -0.029161438 1.4273329e-38 339 264
0.024301201 0.69300002 -0.029161438 1.5021739e-38 340 264
0.025663542 0.69700003 -0.02932976 1.8986151e-38 341 264
0.026885614 0.69700003 -0.02932976 1.7426068e-38 342 264
-0.051547997 0.69999999 -0.030683333 1.7790157e-38 278 265
-0.050320663 0.69999999 -0.030683333 1.5577822e-38 279 265
-0.049093332 0.69999999 -0.030683333 1.2614925e-38 280 265
-0.047592476 0.69599998 -0.030507999 1.1969555e-38 281 265
-0.046238903 0.69400001 -0.030420333 1.1507833e-38 282 265
-0.045022093 0.69400001 -0.030420333 1.0862464e-38 283 265
-0.043742158 0.69300002 -0.0303765 1.0310011e-38 284 265
-0.042404365 0.69099998 -0.030288832 1.012562e-38 285 265
-0.041133199 0.69 -0.030244999 9.9401513e-39 286 265
-0.039807681 0.68800002 -0.030157333 9.6639231e-39 287 265
-0.038545277 0.68699998 -0.030113498 9.6621225e-39 288 265
-0.037177678 0.68400002 -0.029982001 9.5699268e-39 289 265
-0.035925802 0.68300003 -0.029938167 9.201866e-39 290 265
-0.034677424 0.68199998 -0.029894331 9.1096704e-39 291 265
-0.03348165 0.68199998 -0.029894331 8.9249232e-39 292 265
-0.032191198 0.68000001 -0.029806666 8.5564994e-39 293 265
-0.030953348 0.67900002 -0.029762832 8.8312912e-39 294 265
-0.029718997 0.67799997 -0.029718997 8.8312912e-39 295 265
-0.028530238 0.67799997 -0.029718997 8.9242099e-39 296 265
-0.027341479 0.67799997 -0.029718997 9.1086012e-39 297 265
-0.026152719 0.67799997 -0.029718997 9.0189209e-39 298 265
-0.024963958 0.67799997 -0.029718997 9.1111165e-39 299 265
-0.023775198 0.67799997 -0.029718997 9.1114724e-39 300 265
-0.022586439 0.67799997 -0.029718997 9.1114724e-39 301 265
-0.021397678 0.67799997 -0.029718997 9.2015185e-39 302 265
-0.020208918 0.67799997 -0.029718997 9.2015185e-39 303 265
-0.018964052 0.676 -0.029631332 8.7430753e-39 304 265
-0.0177525 0.67500001 -0.0295875 8.7430753e-39 305 265
-0.016569 0.67500001 -0.0295875 8.1005995e-39 306 265
-0.0153855 0.67500001 -0.0295875 8.1005995e-39 307 265
-0.01418096 0.67400002 -0.029543666 8.651974e-39 308 265
-0.012960639 0.67199999 -0.029455997 8.8363653e-39 309 265
-0.011782399 0.67199999 -0.029455997 9.7557853e-39 310 265
-0.01063572 0.67400002 -0.029543666 9.9401765e-39 311 265
-0.0094539737 0.67400002 -0.029543666 1.0215309e-38 312 265
-0.0082722269 0.67400002 -0.029543666 1.0031278e-38 313 265
-0.0070904801 0.67400002 -0.029543666 1.0214576e-38 314 265
-0.0059087332 0.67400002 -0.029543666 1.0214576e-38 315 265
-0.0047269869 0.67400002 -0.029543666 1.0673384e-38 316 265
-0.00354524 0.67400002 -0.029543666 1.0581188e-38 317 265
-0.0023634934 0.67400002 -0.029543666 1.0948528e-38 318 265
-0.0011817467 0.67400002 -0.029543666 1.1132561e-38 319 265
0 0.676 -0.029631332 1.1316589e-38 320 265
0.0011852533 0.676 -0.029631332 1.1408785e-38 321 265
0.0023705065 0.676 -0.029631332 1.1409138e-38 322 265
0.0035662798 0.67799997 -0.029718997 1.1409138e-38 323 265
0.0047550397 0.67799997 -0.029718997 1.1410207e-38 324 265
0.0059437994 0.67799997 -0.029718997 1.1410207e-38 325 265
0.0071430802 0.67900002 -0.029762832 1.1226892e-38 326 265
0.0083458666 0.68000001 -0.029806666 1.1226892e-38 327 265
0.0095381327 0.68000001 -0.029806666 1.1503122e-38 328 265
0.0107304 0.68000001 -0.029806666 1.1595317e-38 329 265
0.011957732 0.68199998 -0.029894331 1.1504202e-38 330 265
0.01319208 0.68400002 -0.029982001 1.1872983e-38 331 265
0.014454478 0.68699998 -0.030113498 1.1690037e-38 332 265
0.015659019 0.68699998 -0.030113498 1.1874429e-38 333 265
0.016888106 0.68800002 -0.030157333 1.2150662e-38 334 265
0.0180944 0.68800002 -0.030157333 1.2335053e-38 335 265
0.019384852 0.69099998 -0.030288832 1.2429404e-38 336 265
0.020596405 0.69099998 -0.030288832 1.2705631e-38 337 265
0.021871079 0.69300002 -0.0303765 1.2706726e-38 338 265
0.02308614 0.69300002 -0.0303765 1.5288204e-38 339 265
0.024441468 0.69700003 -0.030551834 1.5943341e-38 340 265
0.025663542 0.69700003 -0.030551834 1.8801406e-38 341 265
0.026924185 0.69800001 -0.030595668 1.6597387e-38 342 265
-0.050320663 0.69999999 -0.031910665 1.6500501e-38 279 266
-0.048953064 0.69800001 -0.031819493 1.3170266e-38 280 266
-0.047592476 0.69599998 -0.031728316 1.1879527e-38 281 266
-0.046372157 0.69599998 -0.031728316 1.1601115e-38 282 266
-0.045022093 0.69400001 -0.031637147 1.10483e-38 283 266
-0.043742158 0.69300002 -0.031591557 1.095358e-38 284 266
-0.042527102 0.69300002 -0.031591557 1.0585156e-38 285 266
-0.041192811 0.69099998 -0.031500384 1.0400394e-38 286 266
-0.039807681 0.68800002 -0.031363625 1.0216003e-38 287 266
-0.038545277 0.68699998 -0.031318039 1.0213847e-38 288 266
-0.037177678 0.68400002 -0.03118128 9.9376205e-39 289 266
-0.035925802 0.68300003 -0.031135695 9.5699128e-39 290 266
-0.034677424 0.68199998 -0.031090107 9.3851628e-39 291 266
-0.03348165 0.68199998 -0.031090107 9.0174593e-39 292 266
-0.032191198 0.68000001 -0.030998932 8.8330681e-39 293 266
-0.030998932 0.68000001 -0.030998932 8.2806328e-39 294 266
-0.029762832 0.67900002 -0.030953348 8.3731871e-39 295 266
-0.028530238 0.67799997 -0.030907756 8.1898889e-39 296 266
-0.027341479 0.67799997 -0.030907756 8.5583113e-39 297 266
-0.026152719 0.67799997 -0.030907756 8.8356086e-39 298 266
-0.024963958 0.67799997 -0.030907756 9.1118354e-39 299 266
-0.023775198 0.67799997 -0.030907756 9.6617693e-39 300 266
-0.022586439 0.67799997 -0.030907756 9.5695737e-39 301 266
-0.021397678 0.67799997 -0.030907756 9.2933596e-39 302 266
-0.020208918 0.67799997 -0.030907756 9.3859139e-39 303 266
-0.018964052 0.676 -0.030816587 9.1111319e-39 304 266
-0.0177525 0.67500001 -0.030771 9.2036863e-39 305 266
-0.016569 0.67500001 -0.030771 8.6526803e-39 306 266
-0.0153855 0.67500001 -0.030771 8.6526803e-39 307 266
-0.01418096 0.67400002 -0.030725412 8.1938728e-39 308 266
-0.012960639 0.67199999 -0.030634239 8.5622966e-39 309 266
-0.011782399 0.67199999 -0.030634239 9.2054982e-39 310 266
-0.01063572 0.67400002 -0.030725412 9.2976938e-39 311 266
-0.0094539737 0.67400002 -0.030725412 1.0032353e-38 312 266
-0.0082722269 0.67400002 -0.030725412 1.0032353e-38 313 266
-0.0070904801 0.67400002 -0.030725412 1.0490794e-38 314 266
-0.0059087332 0.67400002 -0.030725412 1.0398239e-38 315 266
-0.0047269869 0.67400002 -0.030725412 1.0581904e-38 316 266
-0.00354524 0.67400002 -0.030725412 1.0397873e-38 317 266
-0.0023669999 0.67500001 -0.030771 1.0857052e-38 318 266
-0.0011834999 0.67500001 -0.030771 1.0949249e-38 319 266
0 0.676 -0.030816587 1.1132561e-38 320 266
