# .PCD v.7 - Point Cloud Data file format
FIELDS x y z rgb imX imY
SIZE 4 4 4 4 4 4
TYPE F F F F F F
COUNT 1 1 1 1 1 1
WIDTH 831
HEIGHT 1
VIEWPOINT 0 0 0 1 0 0 0
POINTS 831
DATA ascii
0.0012238267 0.69800001 -0.035490975 1.6847266e-38 321 269
0.0024476533 0.69800001 -0.035490975 1.6939815e-38 322 269
0.0036714801 0.69800001 -0.035490975 1.7216403e-38 323 269
0.0048953067 0.69800001 -0.035490975 1.703416e-38 324 269
0.006119133 0.69800001 -0.035490975 1.703416e-38 325 269
0.00733244 0.69700003 -0.035440128 1.7124914e-38 326 269
0.0085545136 0.69700003 -0.035440128 1.6940163e-38 327 269
0.0097765867 0.69700003 -0.035440128 1.7029842e-38 328 269
0.01099866 0.69700003 -0.035440128 1.6753253e-38 329 269
0.012220734 0.69700003 -0.035440128 1.6938352e-38 330 269
0.013462093 0.69800001 -0.035490975 1.6753959e-38 331 269
0.01466488 0.69700003 -0.035440128 1.6661027e-38 332 269
0.015886955 0.69700003 -0.035440128 1.6661027e-38 333 269
0.017109027 0.69700003 -0.035440128 1.6568824e-38 334 269
0.018331099 0.69700003 -0.035440128 1.666138e-38 335 269
0.019553173 0.69700003 -0.035440128 1.6659225e-38 336 269
0.020775247 0.69700003 -0.035440128 1.6382638e-38 337 269
0.02199732 0.69700003 -0.035440128 1.6199676e-38 338 269
0.023252707 0.69800001 -0.035490975 1.6199676e-38 339 269
0.024476532 0.69800001 -0.035490975 1.6016358e-38 340 269
0.025773998 0.69999999 -0.035592664 1.6016358e-38 341 269
0.027001332 0.69999999 -0.035592664 1.5925607e-38 342 269
0.028268991 0.70099998 -0.035643511 1.5925607e-38 343 269
0.029498078 0.70099998 -0.035643511 1.5741219e-38 344 269
0.030814834 0.70300001 -0.035745207 1.5648663e-38 345 269
0.032093015 0.704 -0.035796054 1.5555754e-38 346 269
0.03332736 0.704 -0.035796054 1.5278808e-38 347 269
0.034758076 0.708 -0.03599944 1.3532189e-38 348 269
-0.03012928 0.71600002 -0.037661601 1.2341231e-38 296 270
-0.028873893 0.71600002 -0.037661601 1.2156481e-38 297 270
-0.02754136 0.71399999 -0.037556399 1.4268304e-38 298 270
-0.026252659 0.713 -0.037503798 1.4084273e-38 299 270
-0.024897331 0.70999998 -0.037345998 1.3900598e-38 300 270
-0.023652466 0.70999998 -0.037345998 1.3900598e-38 301 270
-0.022344479 0.708 -0.0372408 1.3717288e-38 302 270
-0.021103119 0.708 -0.0372408 1.390168e-38 303 270
-0.019833706 0.70700002 -0.037188202 1.4268307e-38 304 270
-0.018567799 0.70599997 -0.037135597 1.4360502e-38 305 270
-0.017280852 0.704 -0.037030395 1.4727843e-38 306 270
-0.016023712 0.70300001 -0.036977798 1.5096626e-38 307 270
-0.014749039 0.70099998 -0.036872596 1.5188455e-38 308 270
-0.013500666 0.69999999 -0.036819998 1.5188455e-38 309 270
-0.012273333 0.69999999 -0.036819998 1.5096976e-38 310 270
-0.011045999 0.69999999 -0.036819998 1.5281367e-38 311 270
-0.0098186666 0.69999999 -0.036819998 1.5652285e-38 312 270
-0.0085667865 0.69800001 -0.0367148 1.5836677e-38 313 270
-0.0073429602 0.69800001 -0.0367148 1.6753235e-38 314 270
-0.006119133 0.69800001 -0.0367148 1.6568844e-38 315 270
-0.0048953067 0.69800001 -0.0367148 1.6292276e-38 316 270
-0.0036714801 0.69800001 -0.0367148 1.6200079e-38 317 270
-0.0024476533 0.69800001 -0.0367148 1.592494e-38 318 270
-0.0012238267 0.69800001 -0.0367148 1.6201528e-38 319 270
0 0.69800001 -0.0367148 1.638592e-38 320 270
0.0012220733 0.69700003 -0.036662199 1.6846898e-38 321 270
0.0024441467 0.69700003 -0.036662199 1.6757216e-38 322 270
0.00366622 0.69700003 -0.036662199 1.6941967e-38 323 270
0.0048882933 0.69700003 -0.036662199 1.7033084e-38 324 270
0.0061103669 0.69700003 -0.036662199 1.6756497e-38 325 270
0.0073219193 0.69599998 -0.036609598 1.6847619e-38 326 270
0.0085422397 0.69599998 -0.036609598 1.6478838e-38 327 270
0.0097625591 0.69599998 -0.036609598 1.666143e-38 328 270
0.010982879 0.69599998 -0.036609598 1.6569235e-38 329 270
0.0122032 0.69599998 -0.036609598 1.6386623e-38 330 270
0.013442807 0.69700003 -0.036662199 1.6571013e-38 331 270
0.014643839 0.69599998 -0.036609598 1.6478796e-38 332 270
0.015864158 0.69599998 -0.036609598 1.6294405e-38 333 270
0.017109027 0.69700003 -0.036662199 1.647735e-38 334 270
0.018331099 0.69700003 -0.036662199 1.6201123e-38 335 270
0.019553173 0.69700003 -0.036662199 1.6474115e-38 336 270
0.020775247 0.69700003 -0.036662199 1.6289363e-38 337 270
0.02199732 0.69700003 -0.036662199 1.5831615e-38 338 270
0.023252707 0.69800001 -0.0367148 1.5831615e-38 339 270
0.024476532 0.69800001 -0.0367148 1.5832334e-38 340 270
0.025773998 0.69999999 -0.036819998 1.5924531e-38 341 270
0.027001332 0.69999999 -0.036819998 1.5649389e-38 342 270
0.028268991 0.70099998 -0.036872596 1.5649389e-38 343 270
0.029498078 0.70099998 -0.036872596 1.5740866e-38 344 270
0.030814834 0.70300001 -0.036977798 1.5648668e-38 345 270
0.032093015 0.704 -0.037030395 1.5556117e-38 346 270
0.03332736 0.704 -0.037030395 1.509514e-38 347 270
0.034561705 0.704 -0.037030395 1.4450534e-38 348 270
0.035796054 0.704 -0.037030395 1.5003707e-38 349 270
-0.031296998 0.71399999 -0.038808275 1.3460932e-38 295 271
-0.030045118 0.71399999 -0.038808275 1.178446e-38 296 271
-0.028793238 0.71399999 -0.038808275 1.2798614e-38 297 271
-0.02754136 0.71399999 -0.038808275 1.3901682e-38 298 271
-0.026179021 0.71100003 -0.038645219 1.3809487e-38 299 271
-0.024897331 0.70999998 -0.038590867 1.3808403e-38 300 271
-0.023585839 0.708 -0.038482159 1.3808403e-38 301 271
-0.022312919 0.70700002 -0.038427804 1.3624382e-38 302 271
-0.021073313 0.70700002 -0.038427804 1.3716938e-38 303 271
-0.019833706 0.70700002 -0.038427804 1.4083925e-38 304 271
-0.018567799 0.70599997 -0.038373452 1.4267957e-38 305 271
-0.017280852 0.704 -0.038264744 1.472749e-38 306 271
-0.016023712 0.70300001 -0.038210396 1.5096272e-38 307 271
-0.014727999 0.69999999 -0.038047329 1.5280651e-38 308 271
-0.013500666 0.69999999 -0.038047329 1.5464682e-38 309 271
-0.012238266 0.69800001 -0.037938625 1.5373913e-38 310 271
-0.01101444 0.69800001 -0.037938625 1.5466467e-38 311 271
-0.0097906133 0.69800001 -0.037938625 1.6111103e-38 312 271
-0.0085667865 0.69800001 -0.037938625 1.5927071e-38 313 271
-0.0073429602 0.69800001 -0.037938625 1.6476648e-38 314 271
-0.006119133 0.69800001 -0.037938625 1.6292616e-38 315 271
-0.0048953067 0.69800001 -0.037938625 1.6383026e-38 316 271
-0.0036714801 0.69800001 -0.037938625 1.6475222e-38 317 271
-0.0024476533 0.69800001 -0.037938625 1.6108964e-38 318 271
-0.0012238267 0.69800001 -0.037938625 1.6385191e-38 319 271
0 0.69700003 -0.037884273 1.629408e-38 320 271
0.0012220733 0.69700003 -0.037884273 1.6754699e-38 321 271
0.0024406398 0.69599998 -0.037829921 1.684797e-38 322 271
0.0036609597 0.69599998 -0.037829921 1.6940165e-38 323 271
0.0048812795 0.69599998 -0.037829921 1.6664658e-38 324 271
0.0061015999 0.69599998 -0.037829921 1.6479908e-38 325 271
0.0073219193 0.69599998 -0.037829921 1.6204047e-38 326 271
0.0085422397 0.69599998 -0.037829921 1.6111849e-38 327 271
0.0097625591 0.69599998 -0.037829921 1.6294799e-38 328 271
0.010982879 0.69599998 -0.037829921 1.6294799e-38 329 271
0.0122032 0.69599998 -0.037829921 1.6202951e-38 330 271
0.013423519 0.69599998 -0.037829921 1.6295146e-38 331 271
0.014643839 0.69599998 -0.037829921 1.6385897e-38 332 271
0.015864158 0.69599998 -0.037829921 1.6017473e-38 333 271
0.017084479 0.69599998 -0.037829921 1.6108222e-38 334 271
0.018331099 0.69700003 -0.037884273 1.5923472e-38 335 271
0.019553173 0.69700003 -0.037884273 1.6014577e-38 336 271
0.020775247 0.69700003 -0.037884273 1.5737991e-38 337 271
0.02199732 0.69700003 -0.037884273 1.5555754e-38 338 271
0.023252707 0.69800001 -0.037938625 1.54632e-38 339 271
0.024476532 0.69800001 -0.037938625 1.5463924e-38 340 271
0.025700359 0.69800001 -0.037938625 1.555612e-38 341 271
0.027001332 0.69999999 -0.038047329 1.537317e-38 342 271
0.028228667 0.69999999 -0.038047329 1.5465367e-38 343 271
0.029455997 0.69999999 -0.038047329 1.5465367e-38 344 271
0.030727165 0.70099998 -0.038101684 1.5280975e-38 345 271
0.032093015 0.704 -0.038264744 1.5280256e-38 346 271
0.03332736 0.704 -0.038264744 1.5095865e-38 347 271
0.034561705 0.704 -0.038264744 1.4912212e-38 348 271
0.035796054 0.704 -0.038264744 1.4635985e-38 349 271
0.037030395 0.704 -0.038264744 1.3722368e-38 350 271
-0.032640055 0.71600002 -0.040172372 1.5213001e-38 294 272
-0.031296998 0.71399999 -0.040060159 1.1525177e-38 295 272
-0.030045118 0.71399999 -0.040060159 1.1506792e-38 296 272
-0.028793238 0.71399999 -0.040060159 1.2797531e-38 297 272
-0.027502786 0.713 -0.040004052 1.3992449e-38 298 272
-0.026142199 0.70999998 -0.039835732 1.3899894e-38 299 272
-0.024827199 0.708 -0.039723519 1.3348871e-38 300 272
-0.023552528 0.70700002 -0.039667413 1.316448e-38 301 272
-0.022312919 0.70700002 -0.039667413 1.3714414e-38 302 272
-0.021073313 0.70700002 -0.039667413 1.3991e-38 303 272
-0.019805651 0.70599997 -0.039611302 1.4265436e-38 304 272
-0.018567799 0.70599997 -0.039611302 1.4450187e-38 305 272
-0.017280852 0.704 -0.039499093 1.4818962e-38 306 272
-0.016023712 0.70300001 -0.039442986 1.5464332e-38 307 272
-0.014727999 0.69999999 -0.039274666 1.5647632e-38 308 272
-0.013500666 0.69999999 -0.039274666 1.5739827e-38 309 272
-0.012238266 0.69800001 -0.039162453 1.5649424e-38 310 272
-0.01101444 0.69800001 -0.039162453 1.5926371e-38 311 272
-0.0097906133 0.69800001 -0.039162453 1.6385897e-38 312 272
-0.0085667865 0.69800001 -0.039162453 1.6293702e-38 313 272
-0.0073429602 0.69800001 -0.039162453 1.6476648e-38 314 272
-0.006119133 0.69800001 -0.039162453 1.6292616e-38 315 272
-0.0048882933 0.69700003 -0.039106347 1.6200064e-38 316 272
-0.00366622 0.69700003 -0.039106347 1.6568847e-38 317 272
-0.0024441467 0.69700003 -0.039106347 1.6293348e-38 318 272
-0.0012220733 0.69700003 -0.039106347 1.6109317e-38 319 272
0 0.69599998 -0.039050236 1.6108967e-38 320 272
0.0012168133 0.69400001 -0.038938027 1.601677e-38 321 272
0.0024336267 0.69400001 -0.038938027 1.5832373e-38 322 272
0.0036504399 0.69400001 -0.038938027 1.5740177e-38 323 272
0.0048672534 0.69400001 -0.038938027 1.5465033e-38 324 272
0.0061015999 0.69599998 -0.039050236 1.5649424e-38 325 272
0.0073008798 0.69400001 -0.038938027 1.5926739e-38 326 272
0.0085176928 0.69400001 -0.038938027 1.5926739e-38 327 272
0.0097345067 0.69400001 -0.038938027 1.6294793e-38 328 272
0.010982879 0.69599998 -0.039050236 1.6202598e-38 329 272
0.0122032 0.69599998 -0.039050236 1.6293699e-38 330 272
0.013423519 0.69599998 -0.039050236 1.5833079e-38 331 272
0.01460176 0.69400001 -0.038938027 1.5923474e-38 332 272
0.015818574 0.69400001 -0.038938027 1.5647246e-38 333 272
0.017084479 0.69599998 -0.039050236 1.6289366e-38 334 272
0.018304799 0.69599998 -0.039050236 1.6013139e-38 335 272
0.019525118 0.69599998 -0.039050236 1.592201e-38 336 272
0.020745439 0.69599998 -0.039050236 1.592201e-38 337 272
0.02199732 0.69700003 -0.039106347 1.5646868e-38 338 272
0.023252707 0.69800001 -0.039162453 1.5646868e-38 339 272
0.024476532 0.69800001 -0.039162453 1.5188413e-38 340 272
0.025700359 0.69800001 -0.039162453 1.5280609e-38 341 272
0.027001332 0.69999999 -0.039274666 1.5280975e-38 342 272
0.028228667 0.69999999 -0.039274666 1.537317e-38 343 272
0.029455997 0.69999999 -0.039274666 1.5373175e-38 344 272
0.030727165 0.70099998 -0.039330769 1.5373175e-38 345 272
0.032047424 0.70300001 -0.039442986 1.5280622e-38 346 272
0.033280019 0.70300001 -0.039442986 1.5004395e-38 347 272
0.034414422 0.70099998 -0.039330769 1.5003689e-38 348 272
0.035643511 0.70099998 -0.039330769 1.5003689e-38 349 272
0.036872596 0.70099998 -0.039330769 1.4270497e-38 350 272
-0.032640055 0.71600002 -0.041427758 1.2722271e-38 294 273
-0.031296998 0.71399999 -0.041312039 9.772371e-39 295 273
-0.030045118 0.71399999 -0.041312039 1.1965605e-38 296 273
-0.028752912 0.713 -0.041254178 1.2887563e-38 297 273
-0.027387066 0.70999998 -0.041080594 1.3349596e-38 298 273
-0.026142199 0.70999998 -0.041080594 1.3257042e-38 299 273
-0.024792133 0.70700002 -0.040907022 1.3256676e-38 300 273
-0.023519212 0.70599997 -0.040849157 1.3072285e-38 301 273
-0.022281358 0.70599997 -0.040849157 1.362294e-38 302 273
-0.021043506 0.70599997 -0.040849157 1.3715136e-38 303 273
-0.019749546 0.704 -0.040733438 1.3714783e-38 304 273
-0.018515198 0.704 -0.040733438 1.399173e-38 305 273
-0.017256306 0.70300001 -0.040675577 1.4268682e-38 306 273
-0.015978126 0.70099998 -0.040559858 1.4545269e-38 307 273
-0.014727999 0.69999999 -0.040502001 1.5095554e-38 308 273
-0.013500666 0.69999999 -0.040502001 1.5463976e-38 309 273
-0.012238266 0.69800001 -0.040386278 1.5558313e-38 310 273
-0.01101444 0.69800001 -0.040386278 1.5834541e-38 311 273
-0.0097906133 0.69800001 -0.040386278 1.6202232e-38 312 273
-0.0085545136 0.69700003 -0.040328421 1.6017841e-38 313 273
-0.00733244 0.69700003 -0.040328421 1.6017118e-38 314 273
-0.0061103669 0.69700003 -0.040328421 1.6017118e-38 315 273
-0.0048812795 0.69599998 -0.040270556 1.6016764e-38 316 273
-0.0036609597 0.69599998 -0.040270556 1.610932e-38 317 273
-0.0024336267 0.69400001 -0.040154841 1.5741622e-38 318 273
-0.0012168133 0.69400001 -0.040154841 1.5649427e-38 319 273
0 0.69400001 -0.040154841 1.5463613e-38 320 273
0.0012168133 0.69400001 -0.040154841 1.5463613e-38 321 273
0.0024336267 0.69400001 -0.040154841 1.5278869e-38 322 273
0.0036451798 0.69300002 -0.04009698 1.5094836e-38 323 273
0.00486024 0.69300002 -0.04009698 1.5094833e-38 324 273
0.0060840664 0.69400001 -0.040154841 1.5555811e-38 325 273
0.0072903596 0.69300002 -0.04009698 1.5375368e-38 326 273
0.0085054198 0.69300002 -0.04009698 1.5375368e-38 327 273
0.0097345067 0.69400001 -0.040154841 1.5559383e-38 328 273
0.01095132 0.69400001 -0.040154841 1.5467186e-38 329 273
0.012168133 0.69400001 -0.040154841 1.574051e-38 330 273
0.013384946 0.69400001 -0.040154841 1.5371726e-38 331 273
0.01460176 0.69400001 -0.040154841 1.5463205e-38 332 273
0.015818574 0.69400001 -0.040154841 1.5463205e-38 333 273
0.017035386 0.69400001 -0.040154841 1.5278108e-38 334 273
0.018304799 0.69599998 -0.040270556 1.5370303e-38 335 273
0.019525118 0.69599998 -0.040270556 1.5371007e-38 336 273
0.020745439 0.69599998 -0.040270556 1.5371007e-38 337 273
0.021965759 0.69599998 -0.040270556 1.5187695e-38 338 273
0.023219392 0.69700003 -0.040328421 1.5371726e-38 339 273
0.024441468 0.69700003 -0.040328421 1.5005464e-38 340 273
0.025700359 0.69800001 -0.040386278 1.5005464e-38 341 273
0.027001332 0.69999999 -0.040502001 1.5097309e-38 342 273
0.028228667 0.69999999 -0.040502001 1.5097309e-38 343 273
0.029455997 0.69999999 -0.040502001 1.5097677e-38 344 273
0.030727165 0.70099998 -0.040559858 1.4913644e-38 345 273
0.031956252 0.70099998 -0.040559858 1.5005114e-38 346 273
0.03318534 0.70099998 -0.040559858 1.5005114e-38 347 273
0.034414422 0.70099998 -0.040559858 1.5004758e-38 348 273
0.035643511 0.70099998 -0.040559858 1.4912562e-38 349 273
0.036872596 0.70099998 -0.040559858 1.4637112e-38 350 273
-0.032640055 0.71600002 -0.042683143 1.0321939e-38 294 274
-0.031296998 0.71399999 -0.042563915 9.1237548e-39 295 274
-0.030045118 0.71399999 -0.042563915 1.2516609e-38 296 274
-0.028752912 0.713 -0.042504307 1.3161979e-38 297 274
-0.027387066 0.70999998 -0.042325463 1.3255957e-38 298 274
-0.026068559 0.708 -0.042206239 1.3255957e-38 299 274
-0.024792133 0.70700002 -0.042146627 1.3438903e-38 300 274
-0.023519212 0.70599997 -0.042087011 1.3346708e-38 301 274
-0.022218239 0.704 -0.041967787 1.3530376e-38 302 274
-0.020983893 0.704 -0.041967787 1.3622572e-38 303 274
-0.019749546 0.704 -0.041967787 1.3805884e-38 304 274
-0.018488899 0.70300001 -0.041908171 1.3805884e-38 305 274
-0.017256306 0.70300001 -0.041908171 1.4357621e-38 306 274
-0.015955333 0.69999999 -0.041729331 1.4818241e-38 307 274
-0.014727999 0.69999999 -0.041729331 1.5185581e-38 308 274
-0.013462093 0.69800001 -0.041610107 1.5738755e-38 309 274
-0.012238266 0.69800001 -0.041610107 1.5742696e-38 310 274
-0.01101444 0.69800001 -0.041610107 1.5834891e-38 311 274
-0.0097765867 0.69700003 -0.041550495 1.6200067e-38 312 274
-0.0085545136 0.69700003 -0.041550495 1.6107871e-38 313 274
-0.00733244 0.69700003 -0.041550495 1.5922405e-38 314 274
-0.0061015999 0.69599998 -0.041490879 1.5738012e-38 315 274
-0.0048812795 0.69599998 -0.041490879 1.5829852e-38 316 274
-0.0036609597 0.69599998 -0.041490879 1.5922408e-38 317 274
-0.0024336267 0.69400001 -0.041371655 1.5830578e-38 318 274
-0.0012168133 0.69400001 -0.041371655 1.5553991e-38 319 274
0 0.69400001 -0.041371655 1.5645108e-38 320 274
0.0012168133 0.69400001 -0.041371655 1.5552912e-38 321 274
0.0024336267 0.69400001 -0.041371655 1.5187357e-38 322 274
0.0036451798 0.69300002 -0.041312039 1.5279552e-38 323 274
0.00486024 0.69300002 -0.041312039 1.5281352e-38 324 274
0.0060753003 0.69300002 -0.041312039 1.5650133e-38 325 274
0.0072903596 0.69300002 -0.041312039 1.5559364e-38 326 274
0.0085054198 0.69300002 -0.041312039 1.5374972e-38 327 274
0.0097204801 0.69300002 -0.041312039 1.5831276e-38 328 274
0.01095132 0.69400001 -0.041371655 1.5831276e-38 329 274
0.012168133 0.69400001 -0.041371655 1.5647246e-38 330 274
0.013384946 0.69400001 -0.041371655 1.5462496e-38 331 274
0.014580719 0.69300002 -0.041312039 1.5370288e-38 332 274
0.015795778 0.69300002 -0.041312039 1.5093341e-38 333 274
0.017035386 0.69400001 -0.041371655 1.5185176e-38 334 274
0.0182522 0.69400001 -0.041371655 1.5369208e-38 335 274
0.019469013 0.69400001 -0.041371655 1.5185539e-38 336 274
0.020685827 0.69400001 -0.041371655 1.5277735e-38 337 274
0.021965759 0.69599998 -0.041490879 1.5003666e-38 338 274
0.023186078 0.69599998 -0.041490879 1.5003666e-38 339 274
0.0244064 0.69599998 -0.041490879 1.4820348e-38 340 274
0.025663542 0.69700003 -0.041550495 1.4912903e-38 341 274
0.026924185 0.69800001 -0.041610107 1.5096941e-38 342 274
0.028228667 0.69999999 -0.041729331 1.5096941e-38 343 274
0.029455997 0.69999999 -0.041729331 1.5097312e-38 344 274
0.030683333 0.69999999 -0.041729331 1.5189509e-38 345 274
0.031956252 0.70099998 -0.041788943 1.5097677e-38 346 274
0.03318534 0.70099998 -0.041788943 1.4913644e-38 347 274
0.034414422 0.70099998 -0.041788943 1.5096956e-38 348 274
0.035643511 0.70099998 -0.041788943 1.5189153e-38 349 274
0.036872596 0.70099998 -0.041788943 1.4637109e-38 350 274
0.038101684 0.70099998 -0.041788943 1.7403337e-38 351 274
-0.03389544 0.71600002 -0.043938532 1.6965088e-38 293 275
-0.032640055 0.71600002 -0.043938532 9.2137826e-39 294 275
-0.031384666 0.71600002 -0.043938532 8.7528059e-39 295 275
-0.030045118 0.71399999 -0.043815799 1.2425843e-38 296 275
-0.028752912 0.713 -0.043754432 1.2979016e-38 297 275
-0.027425639 0.71100003 -0.043631699 1.3071566e-38 298 275
-0.026068559 0.708 -0.043447599 1.2979369e-38 299 275
-0.024686933 0.704 -0.043202132 1.316124e-38 300 275
-0.023452586 0.704 -0.043202132 1.316124e-38 301 275
-0.022218239 0.704 -0.043202132 1.3437823e-38 302 275
-0.020983893 0.704 -0.043202132 1.3437823e-38 303 275
-0.019721493 0.70300001 -0.043140765 1.3344558e-38 304 275
-0.018488899 0.70300001 -0.043140765 1.3344558e-38 305 275
-0.017182667 0.69999999 -0.042956665 1.389953e-38 306 275
-0.015955333 0.69999999 -0.042956665 1.3991727e-38 307 275
-0.014727999 0.69999999 -0.042956665 1.4634931e-38 308 275
-0.013462093 0.69800001 -0.042833932 1.5095551e-38 309 275
-0.012238266 0.69800001 -0.042833932 1.5280295e-38 310 275
-0.01099866 0.69700003 -0.042772565 1.5280295e-38 311 275
-0.0097765867 0.69700003 -0.042772565 1.5829505e-38 312 275
-0.0085422397 0.69599998 -0.042711195 1.5644755e-38 313 275
-0.0073219193 0.69599998 -0.042711195 1.5552912e-38 314 275
-0.0060840664 0.69400001 -0.042588469 1.5368881e-38 315 275
-0.0048672534 0.69400001 -0.042588469 1.5277048e-38 316 275
-0.0036504399 0.69400001 -0.042588469 1.5369603e-38 317 275
-0.0024336267 0.69400001 -0.042588469 1.5277054e-38 318 275
-0.00121506 0.69300002 -0.042527102 1.5277054e-38 319 275
0 0.69300002 -0.042527102 1.5093736e-38 320 275
0.00121506 0.69300002 -0.042527102 1.5185932e-38 321 275
0.00243012 0.69300002 -0.042527102 1.4911493e-38 322 275
0.0036451798 0.69300002 -0.042527102 1.5095884e-38 323 275
0.00486024 0.69300002 -0.042527102 1.5097326e-38 324 275
0.0060753003 0.69300002 -0.042527102 1.5097326e-38 325 275
0.0072903596 0.69300002 -0.042527102 1.5280975e-38 326 275
0.0085054198 0.69300002 -0.042527102 1.4727802e-38 327 275
0.0097204801 0.69300002 -0.042527102 1.4819285e-38 328 275
0.010935539 0.69300002 -0.042527102 1.5003316e-38 329 275
0.012168133 0.69400001 -0.042588469 1.5004042e-38 330 275
0.013384946 0.69400001 -0.042588469 1.4911846e-38 331 275
0.014580719 0.69300002 -0.042527102 1.5002227e-38 332 275
0.015795778 0.69300002 -0.042527102 1.4910031e-38 333 275
0.01701084 0.69300002 -0.042527102 1.4908597e-38 334 275
0.0182522 0.69400001 -0.042588469 1.5000792e-38 335 275
0.019469013 0.69400001 -0.042588469 1.481713e-38 336 275
0.020685827 0.69400001 -0.042588469 1.4909325e-38 337 275
0.021902639 0.69400001 -0.042588469 1.4635255e-38 338 275
0.023186078 0.69599998 -0.042711195 1.4451224e-38 339 275
0.0244064 0.69599998 -0.042711195 1.4544493e-38 340 275
0.025663542 0.69700003 -0.042772565 1.4544493e-38 341 275
0.026924185 0.69800001 -0.042833932 1.482072e-38 342 275
0.028148014 0.69800001 -0.042833932 1.4912915e-38 343 275
0.029455997 0.69999999 -0.042956665 1.4728897e-38 344 275
0.030683333 0.69999999 -0.042956665 1.4913647e-38 345 275
0.031956252 0.70099998 -0.043018032 1.4821095e-38 346 275
0.03318534 0.70099998 -0.043018032 1.4821095e-38 347 275
0.034512613 0.70300001 -0.043140765 1.4820742e-38 348 275
0.035745207 0.70300001 -0.043140765 1.4820742e-38 349 275
0.036977798 0.70300001 -0.043140765 1.4636393e-38 350 275
0.038373452 0.70599997 -0.043324865 1.6940924e-38 351 275
-0.035150826 0.71600002 -0.045193922 1.8532413e-38 292 276
-0.03389544 0.71600002 -0.045193922 1.5674709e-38 293 276
-0.032640055 0.71600002 -0.045193922 8.7492059e-39 294 276
-0.031384666 0.71600002 -0.045193922 8.9339559e-39 295 276
-0.030045118 0.71399999 -0.045067675 1.2608791e-38 296 276
-0.028752912 0.713 -0.045004558 1.2793184e-38 297 276
-0.027502786 0.713 -0.045004558 1.3069045e-38 298 276
-0.026068559 0.708 -0.044688959 1.2976849e-38 299 276
-0.024686933 0.704 -0.044436477 1.3250558e-38 300 276
-0.023452586 0.704 -0.044436477 1.3250558e-38 301 276
-0.02218668 0.70300001 -0.04437336 1.3251641e-38 302 276
-0.020954086 0.70300001 -0.04437336 1.3251641e-38 303 276
-0.019721493 0.70300001 -0.04437336 1.3251644e-38 304 276
-0.018488899 0.70300001 -0.04437336 1.3251644e-38 305 276
-0.017182667 0.69999999 -0.044183996 1.3806613e-38 306 276
-0.015909746 0.69800001 -0.04405776 1.4267591e-38 307 276
-0.01468592 0.69800001 -0.04405776 1.4633482e-38 308 276
-0.013462093 0.69800001 -0.04405776 1.4725679e-38 309 276
-0.012220734 0.69700003 -0.043994639 1.5277051e-38 310 276
-0.010982879 0.69599998 -0.043931518 1.5184856e-38 311 276
-0.0097625591 0.69599998 -0.043931518 1.5551121e-38 312 276
-0.0085422397 0.69599998 -0.043931518 1.5366729e-38 313 276
-0.0073008798 0.69400001 -0.043805279 1.5367432e-38 314 276
-0.0060840664 0.69400001 -0.043805279 1.5275236e-38 315 276
-0.0048672534 0.69400001 -0.043805279 1.5092637e-38 316 276
-0.0036504399 0.69400001 -0.043805279 1.5185192e-38 317 276
-0.00243012 0.69300002 -0.043742158 1.509229e-38 318 276
-0.00121506 0.69300002 -0.043742158 1.5276683e-38 319 276
0 0.69300002 -0.043742158 1.5001894e-38 320 276
0.00121506 0.69300002 -0.043742158 1.5094089e-38 321 276
0.00243012 0.69300002 -0.043742158 1.4909694e-38 322 276
0.0036451798 0.69300002 -0.043742158 1.5001891e-38 323 276
0.00486024 0.69300002 -0.043742158 1.5001538e-38 324 276
0.0060753003 0.69300002 -0.043742158 1.5001538e-38 325 276
0.0072903596 0.69300002 -0.043742158 1.4909325e-38 326 276
0.0085054198 0.69300002 -0.043742158 1.4540543e-38 327 276
0.0097204801 0.69300002 -0.043742158 1.4817483e-38 328 276
0.010935539 0.69300002 -0.043742158 1.4909678e-38 329 276
0.012150601 0.69300002 -0.043742158 1.49104e-38 330 276
0.013384946 0.69400001 -0.043805279 1.4817846e-38 331 276
0.014538639 0.69099998 -0.043615919 1.4817836e-38 332 276
0.015750192 0.69099998 -0.043615919 1.4633086e-38 333 276
0.01701084 0.69300002 -0.043742158 1.4633086e-38 334 276
0.0182522 0.69400001 -0.043805279 1.4725281e-38 335 276
0.019469013 0.69400001 -0.043805279 1.4632736e-38 336 276
0.020685827 0.69400001 -0.043805279 1.4632736e-38 337 276
0.021902639 0.69400001 -0.043805279 1.4449789e-38 338 276
0.023186078 0.69599998 -0.043931518 1.4541985e-38 339 276
0.0244064 0.69599998 -0.043931518 1.4635255e-38 340 276
0.025663542 0.69700003 -0.043994639 1.4635255e-38 341 276
0.026924185 0.69800001 -0.04405776 1.4543784e-38 342 276
0.028148014 0.69800001 -0.04405776 1.4820369e-38 343 276
0.029455997 0.69999999 -0.044183996 1.4820016e-38 344 276
0.030683333 0.69999999 -0.044183996 1.5004408e-38 345 276
0.031956252 0.70099998 -0.044247117 1.4728902e-38 346 276
0.03318534 0.70099998 -0.044247117 1.4728902e-38 347 276
0.034512613 0.70300001 -0.04437336 1.4728546e-38 348 276
0.035745207 0.70300001 -0.04437336 1.4728546e-38 349 276
0.037030395 0.704 -0.044436477 1.4729295e-38 350 276
0.038373452 0.70599997 -0.044562716 1.6573207e-38 351 276
0.039611302 0.70599997 -0.044562716 1.6125603e-38 352 276
-0.035150826 0.71600002 -0.046449307 1.7241674e-38 292 277
-0.03389544 0.71600002 -0.046449307 1.4476166e-38 293 277
-0.032640055 0.71600002 -0.046449307 8.6544922e-39 294 277
-0.031384666 0.71600002 -0.046449307 9.3920572e-39 295 277
-0.030045118 0.71399999 -0.046319555 1.2426199e-38 296 277
-0.028793238 0.71399999 -0.046319555 1.2426199e-38 297 277
-0.02754136 0.71399999 -0.046319555 1.2792101e-38 298 277
-0.02592128 0.704 -0.045670826 1.2515874e-38 299 277
-0.024686933 0.704 -0.045670826 1.2882135e-38 300 277
-0.023419274 0.70300001 -0.04560595 1.2974331e-38 301 277
-0.02218668 0.70300001 -0.04560595 1.3067246e-38 302 277
-0.020954086 0.70300001 -0.04560595 1.3067246e-38 303 277
-0.019637333 0.69999999 -0.04541133 1.28843e-38 304 277
-0.018409999 0.69999999 -0.04541133 1.2976496e-38 305 277
-0.017133573 0.69800001 -0.045281585 1.2792101e-38 306 277
-0.015909746 0.69800001 -0.045281585 1.3714417e-38 307 277
-0.01466488 0.69700003 -0.045216713 1.426577e-38 308 277
-0.013442807 0.69700003 -0.045216713 1.4358325e-38 309 277
-0.0122032 0.69599998 -0.045151837 1.4908978e-38 310 277
-0.010982879 0.69599998 -0.045151837 1.4908978e-38 311 277
-0.0097345067 0.69400001 -0.045022093 1.5091215e-38 312 277
-0.0085176928 0.69400001 -0.045022093 1.499902e-38 313 277
-0.0073008798 0.69400001 -0.045022093 1.4907527e-38 314 277
-0.0060753003 0.69300002 -0.044957221 1.4907527e-38 315 277
-0.00486024 0.69300002 -0.044957221 1.4908599e-38 316 277
-0.0036451798 0.69300002 -0.044957221 1.4908599e-38 317 277
-0.00243012 0.69300002 -0.044957221 1.4724578e-38 318 277
-0.00121506 0.69300002 -0.044957221 1.4632382e-38 319 277
0 0.69300002 -0.044957221 1.4725302e-38 320 277
0.00121506 0.69300002 -0.044957221 1.4541271e-38 321 277
0.00243012 0.69300002 -0.044957221 1.4814625e-38 322 277
0.0036451798 0.69300002 -0.044957221 1.490718e-38 323 277
0.00486024 0.69300002 -0.044957221 1.4632032e-38 324 277
0.0060753003 0.69300002 -0.044957221 1.4632032e-38 325 277
0.0072903596 0.69300002 -0.044957221 1.4631664e-38 326 277
0.0085054198 0.69300002 -0.044957221 1.4631664e-38 327 277
0.0096924258 0.69099998 -0.044827472 1.4632733e-38 328 277
0.01090398 0.69099998 -0.044827472 1.4632733e-38 329 277
0.012097999 0.69 -0.0447626 1.4633089e-38 330 277
0.0133078 0.69 -0.0447626 1.4633089e-38 331 277
0.014517599 0.69 -0.0447626 1.454089e-38 332 277
0.015750192 0.69099998 -0.044827472 1.454089e-38 333 277
0.016961746 0.69099998 -0.044827472 1.4357581e-38 334 277
0.018225901 0.69300002 -0.044957221 1.4265025e-38 335 277
0.019469013 0.69400001 -0.045022093 1.4263956e-38 336 277
0.020685827 0.69400001 -0.045022093 1.4356151e-38 337 277
0.021902639 0.69400001 -0.045022093 1.4173562e-38 338 277
0.023186078 0.69599998 -0.045151837 1.4357593e-38 339 277
0.0244064 0.69599998 -0.045151837 1.4359025e-38 340 277
0.025663542 0.69700003 -0.045216713 1.426683e-38 341 277
0.026885614 0.69700003 -0.045216713 1.4358672e-38 342 277
0.028148014 0.69800001 -0.045281585 1.4634899e-38 343 277
0.029371841 0.69800001 -0.045281585 1.4543789e-38 344 277
0.030683333 0.69999999 -0.04541133 1.4820016e-38 345 277
0.031910665 0.69999999 -0.04541133 1.4453036e-38 346 277
0.03318534 0.70099998 -0.045476202 1.436084e-38 347 277
0.034414422 0.70099998 -0.045476202 1.4453036e-38 348 277
0.035745207 0.70300001 -0.04560595 1.4729263e-38 349 277
0.037030395 0.704 -0.045670826 1.4822925e-38 350 277
0.038101684 0.70099998 -0.045476202 1.6298416e-38 351 277
0.039330769 0.70099998 -0.045476202 1.5294398e-38 352 277
0.040559858 0.70099998 -0.045476202 1.584757e-38 353 277
-0.035150826 0.71600002 -0.047704693 1.687145e-38 292 278
-0.03389544 0.71600002 -0.047704693 1.4013387e-38 293 278
-0.032640055 0.71600002 -0.047704693 9.7575999e-39 294 278
-0.031384666 0.71600002 -0.047704693 1.0402968e-38 295 278
-0.030045118 0.71399999 -0.047571439 1.2609155e-38 296 278
-0.028793238 0.71399999 -0.047571439 1.2332927e-38 297 278
-0.027387066 0.70999998 -0.047304932 1.2515874e-38 298 278
-0.026142199 0.70999998 -0.047304932 1.2331483e-38 299 278
-0.024686933 0.704 -0.046905171 1.2698823e-38 300 278
-0.023419274 0.70300001 -0.046838548 1.297505e-38 301 278
-0.022123558 0.70099998 -0.046705291 1.2792456e-38 302 278
-0.020894472 0.70099998 -0.046705291 1.2884654e-38 303 278
-0.019637333 0.69999999 -0.046638668 1.2792101e-38 304 278
-0.0183574 0.69800001 -0.046505414 1.2699905e-38 305 278
-0.017133573 0.69800001 -0.046505414 1.2789233e-38 306 278
-0.015909746 0.69800001 -0.046505414 1.3526799e-38 307 278
-0.01466488 0.69700003 -0.046438783 1.4266142e-38 308 278
-0.013442807 0.69700003 -0.046438783 1.4358337e-38 309 278
-0.0122032 0.69599998 -0.046372157 1.4817495e-38 310 278
-0.01095132 0.69400001 -0.046238903 1.47253e-38 311 278
-0.0097345067 0.69400001 -0.046238903 1.4907893e-38 312 278
-0.0085176928 0.69400001 -0.046238903 1.4723862e-38 313 278
-0.0072903596 0.69300002 -0.04617228 1.4631664e-38 314 278
-0.0060753003 0.69300002 -0.04617228 1.4539466e-38 315 278
-0.00486024 0.69300002 -0.04617228 1.454054e-38 316 278
-0.0036451798 0.69300002 -0.04617228 1.454054e-38 317 278
-0.00243012 0.69300002 -0.04617228 1.454019e-38 318 278
-0.00121506 0.69300002 -0.04617228 1.4356157e-38 319 278
0 0.69300002 -0.04617228 1.4355448e-38 320 278
0.00121506 0.69300002 -0.04617228 1.4355448e-38 321 278
0.00243012 0.69300002 -0.04617228 1.4446918e-38 322 278
0.0036451798 0.69300002 -0.04617228 1.4539113e-38 323 278
0.00486024 0.69300002 -0.04617228 1.4356154e-38 324 278
0.0060753003 0.69300002 -0.04617228 1.4356154e-38 325 278
0.0072903596 0.69300002 -0.04617228 1.4356505e-38 326 278
0.008480873 0.69099998 -0.046039023 1.4264309e-38 327 278
0.0096924258 0.69099998 -0.046039023 1.4264659e-38 328 278
0.010888199 0.69 -0.045972396 1.4356855e-38 329 278
0.012062933 0.68800002 -0.045839146 1.435686e-38 330 278
0.013269227 0.68800002 -0.045839146 1.4540893e-38 331 278
0.014517599 0.69 -0.045972396 1.4265031e-38 332 278
0.015727401 0.69 -0.045972396 1.4172476e-38 333 278
0.016961746 0.69099998 -0.046039023 1.4172476e-38 334 278
0.018225901 0.69300002 -0.04617228 1.4080281e-38 335 278
0.01944096 0.69300002 -0.04617228 1.4080283e-38 336 278
0.020656019 0.69300002 -0.04617228 1.4264675e-38 337 278
0.021902639 0.69400001 -0.046238903 1.3989886e-38 338 278
0.023119451 0.69400001 -0.046238903 1.4082083e-38 339 278
0.024336265 0.69400001 -0.046238903 1.4174631e-38 340 278
0.025626717 0.69599998 -0.046372157 1.4174631e-38 341 278
0.026847038 0.69599998 -0.046372157 1.4175e-38 342 278
0.028107686 0.69700003 -0.046438783 1.4267196e-38 343 278
0.029371841 0.69800001 -0.046505414 1.4176094e-38 344 278
0.030595668 0.69800001 -0.046505414 1.4268291e-38 345 278
0.031910665 0.69999999 -0.046638668 1.4360487e-38 346 278
0.03318534 0.70099998 -0.046705291 1.4360487e-38 347 278
0.034414422 0.70099998 -0.046705291 1.4453755e-38 348 278
0.035745207 0.70300001 -0.046838548 1.454595e-38 349 278
0.037030395 0.704 -0.046905171 1.4547415e-38 350 278
0.038101684 0.70099998 -0.046705291 1.6022903e-38 351 278
0.039330769 0.70099998 -0.046705291 1.4926675e-38 352 278
0.040849157 0.70599997 -0.047038425 1.4188751e-38 353 278
0.042206239 0.708 -0.047171678 1.1526246e-38 354 278
-0.036406212 0.71600002 -0.048960082 1.9729883e-38 291 279
-0.035150826 0.71600002 -0.048960082 1.6686336e-38 292 279
-0.03389544 0.71600002 -0.048960082 1.3551686e-38 293 279
-0.032640055 0.71600002 -0.048960082 1.141388e-38 294 279
-0.031384666 0.71600002 -0.048960082 1.1874858e-38 295 279
-0.03012928 0.71600002 -0.048960082 1.2426199e-38 296 279
-0.028631933 0.70999998 -0.048549797 1.1965221e-38 297 279
-0.027387066 0.70999998 -0.048549797 1.2515148e-38 298 279
-0.025994917 0.70599997 -0.048276275 1.2515148e-38 299 279
-0.024686933 0.704 -0.048139516 1.2606622e-38 300 279
-0.023352645 0.70099998 -0.047934376 1.2698818e-38 301 279
-0.022091998 0.69999999 -0.047865998 1.2791735e-38 302 279
-0.020864666 0.69999999 -0.047865998 1.2699539e-38 303 279
-0.019637333 0.69999999 -0.047865998 1.2974328e-38 304 279
-0.0183574 0.69800001 -0.047729239 1.2882133e-38 305 279
-0.017133573 0.69800001 -0.047729239 1.3064726e-38 306 279
-0.015909746 0.69800001 -0.047729239 1.36179e-38 307 279
-0.01466488 0.69700003 -0.047660861 1.4174294e-38 308 279
-0.013442807 0.69700003 -0.047660861 1.4266489e-38 309 279
-0.0122032 0.69599998 -0.047592476 1.4724931e-38 310 279
-0.01095132 0.69400001 -0.047455717 1.4632736e-38 311 279
-0.0097204801 0.69300002 -0.047387339 1.4815329e-38 312 279
-0.0085054198 0.69300002 -0.047387339 1.4723132e-38 313 279
-0.0072903596 0.69300002 -0.047387339 1.463022e-38 314 279
-0.0060753003 0.69300002 -0.047387339 1.4537666e-38 315 279
-0.00486024 0.69300002 -0.047387339 1.4262158e-38 316 279
-0.0036451798 0.69300002 -0.047387339 1.4354354e-38 317 279
-0.00243012 0.69300002 -0.047387339 1.4262155e-38 318 279
-0.00121506 0.69300002 -0.047387339 1.4354709e-38 319 279
0 0.69300002 -0.047387339 1.4445823e-38 320 279
0.00121506 0.69300002 -0.047387339 1.4630215e-38 321 279
0.00243012 0.69300002 -0.047387339 1.4355423e-38 322 279
0.0036451798 0.69300002 -0.047387339 1.4447977e-38 323 279
0.00486024 0.69300002 -0.047387339 1.4264662e-38 324 279
0.0060753003 0.69300002 -0.047387339 1.4264662e-38 325 279
0.0072693196 0.69099998 -0.047250576 1.4356132e-38 326 279
0.0084686 0.69 -0.047182199 1.4356132e-38 327 279
0.0096783992 0.69 -0.047182199 1.4356129e-38 328 279
0.010856641 0.68800002 -0.047045439 1.4356129e-38 329 279
0.012062933 0.68800002 -0.047045439 1.4172466e-38 330 279
0.013269227 0.68800002 -0.047045439 1.4264662e-38 331 279
0.014517599 0.69 -0.047182199 1.4172113e-38 332 279
0.015727401 0.69 -0.047182199 1.4172113e-38 333 279
0.016961746 0.69099998 -0.047250576 1.4080637e-38 334 279
0.0181733 0.69099998 -0.047250576 1.3896247e-38 335 279
0.01944096 0.69300002 -0.047387339 1.3987363e-38 336 279
0.020656019 0.69300002 -0.047387339 1.4172113e-38 337 279
0.021871079 0.69300002 -0.047387339 1.3898038e-38 338 279
0.023119451 0.69400001 -0.047455717 1.3990233e-38 339 279
0.024336265 0.69400001 -0.047455717 1.4082066e-38 340 279
0.025553079 0.69400001 -0.047455717 1.398987e-38 341 279
0.026847038 0.69599998 -0.047592476 1.408208e-38 342 279
0.028107686 0.69700003 -0.047660861 1.408208e-38 343 279
0.02932976 0.69700003 -0.047660861 1.4358675e-38 344 279
0.030595668 0.69800001 -0.047729239 1.4450871e-38 345 279
0.031910665 0.69999999 -0.047865998 1.4634899e-38 346 279
0.03318534 0.70099998 -0.047934376 1.4727455e-38 347 279
0.034414422 0.70099998 -0.047934376 1.436119e-38 348 279
0.035745207 0.70300001 -0.048071139 1.4453386e-38 349 279
0.037030395 0.704 -0.048139516 1.4362302e-38 350 279
0.038210396 0.70300001 -0.048071139 1.6114017e-38 351 279
0.039442986 0.70300001 -0.048071139 1.4743728e-38 352 279
0.040849157 0.70599997 -0.048276275 1.5389098e-38 353 279
0.042146627 0.70700002 -0.048344657 1.21763e-38 354 279
0.043386232 0.70700002 -0.048344657 1.2361051e-38 355 279
-0.036406212 0.71600002 -0.050215468 1.9729527e-38 291 280
-0.035150826 0.71600002 -0.050215468 1.659414e-38 292 280
-0.03389544 0.71600002 -0.050215468 1.2906316e-38 293 280
-0.032640055 0.71600002 -0.050215468 1.1232006e-38 294 280
-0.031384666 0.71600002 -0.050215468 1.1416398e-38 295 280
-0.028510952 0.70700002 -0.049584266 1.2147817e-38 297 280
-0.027232772 0.70599997 -0.04951413 1.2238931e-38 298 280
-0.025994917 0.70599997 -0.04951413 1.2238931e-38 299 280
-0.024651866 0.70300001 -0.049303733 1.1964142e-38 300 280
-0.023352645 0.70099998 -0.049163464 1.2056338e-38 301 280
-0.022091998 0.69999999 -0.049093332 1.2331495e-38 302 280
-0.020864666 0.69999999 -0.049093332 1.2147464e-38 303 280
-0.019637333 0.69999999 -0.049093332 1.2514444e-38 304 280
-0.0183574 0.69800001 -0.048953064 1.2514444e-38 305 280
-0.017133573 0.69800001 -0.048953064 1.3063657e-38 306 280
-0.015909746 0.69800001 -0.048953064 1.3616829e-38 307 280
-0.01466488 0.69700003 -0.048882935 1.3528224e-38 308 280
-0.013442807 0.69700003 -0.048882935 1.3620419e-38 309 280
-0.0122032 0.69599998 -0.048812799 1.4262902e-38 310 280
-0.01095132 0.69400001 -0.048672531 1.4262902e-38 311 280
-0.0097204801 0.69300002 -0.048602402 1.4354725e-38 312 280
-0.0085054198 0.69300002 -0.048602402 1.4078139e-38 313 280
-0.0072903596 0.69300002 -0.048602402 1.4078495e-38 314 280
-0.0060753003 0.69300002 -0.048602402 1.3893744e-38 315 280
-0.00486024 0.69300002 -0.048602402 1.4169612e-38 316 280
-0.0036451798 0.69300002 -0.048602402 1.4077415e-38 317 280
-0.00243012 0.69300002 -0.048602402 1.3894817e-38 318 280
-0.00121506 0.69300002 -0.048602402 1.3987013e-38 319 280
0 0.69300002 -0.048602402 1.4078846e-38 320 280
0.00121506 0.69300002 -0.048602402 1.4262877e-38 321 280
0.00243012 0.69300002 -0.048602402 1.4080281e-38 322 280
0.0036451798 0.69300002 -0.048602402 1.4172476e-38 323 280
0.00486024 0.69300002 -0.048602402 1.398952e-38 324 280
0.0060753003 0.69300002 -0.048602402 1.3896966e-38 325 280
0.0072693196 0.69099998 -0.04846213 1.3897319e-38 326 280
0.0084686 0.69 -0.048391998 1.3805123e-38 327 280
0.0096783992 0.69 -0.048391998 1.3896603e-38 328 280
0.010856641 0.68800002 -0.048251733 1.4080634e-38 329 280
0.012062933 0.68800002 -0.048251733 1.3804776e-38 330 280
0.013269227 0.68800002 -0.048251733 1.3804776e-38 331 280
0.014517599 0.69 -0.048391998 1.362111e-38 332 280
0.015727401 0.69 -0.048391998 1.362111e-38 333 280
0.016961746 0.69099998 -0.04846213 1.3712224e-38 334 280
0.0181733 0.69099998 -0.04846213 1.3712224e-38 335 280
0.01944096 0.69300002 -0.048602402 1.3621458e-38 336 280
0.020656019 0.69300002 -0.048602402 1.3897684e-38 337 280
0.021871079 0.69300002 -0.048602402 1.3897684e-38 338 280
0.023119451 0.69400001 -0.048672531 1.3897684e-38 339 280
0.024336265 0.69400001 -0.048672531 1.3623258e-38 340 280
0.025553079 0.69400001 -0.048672531 1.3623258e-38 341 280
0.026847038 0.69599998 -0.048812799 1.3622905e-38 342 280
0.028067358 0.69599998 -0.048812799 1.3806938e-38 343 280
0.02932976 0.69700003 -0.048882935 1.3532521e-38 344 280
0.030595668 0.69800001 -0.048953064 1.3625076e-38 345 280
0.031910665 0.69999999 -0.049093332 1.3901305e-38 346 280
0.03318534 0.70099998 -0.049163464 1.3808751e-38 347 280
0.034414422 0.70099998 -0.049163464 1.390203e-38 348 280
0.035796054 0.704 -0.049373865 1.4086061e-38 349 280
0.037030395 0.704 -0.049373865 1.3994965e-38 350 280
0.038264744 0.704 -0.049373865 1.5562292e-38 351 280
0.039611302 0.70599997 -0.04951413 1.5568817e-38 352 280
0.040849157 0.70599997 -0.04951413 1.7965903e-38 353 280
0.042087011 0.70599997 -0.04951413 1.5491759e-38 354 280
0.043324865 0.70599997 -0.04951413 1.5583955e-38 355 280
-0.036406212 0.71600002 -0.051470853 1.9729883e-38 291 281
-0.035150826 0.71600002 -0.051470853 1.650122e-38 292 281
-0.03389544 0.71600002 -0.051470853 1.2352415e-38 293 281
-0.032640055 0.71600002 -0.051470853 1.1048688e-38 294 281
-0.029750559 0.70700002 -0.050823875 1.1963422e-38 296 281
-0.028510952 0.70700002 -0.050823875 1.1963422e-38 297 281
-0.027271347 0.70700002 -0.050823875 1.1963422e-38 298 281
-0.02592128 0.704 -0.050608214 1.177903e-38 299 281
-0.024651866 0.70300001 -0.050536323 1.1595365e-38 300 281
-0.023352645 0.70099998 -0.050392549 1.1595365e-38 301 281
-0.022091998 0.69999999 -0.050320663 1.2053469e-38 302 281
-0.020864666 0.69999999 -0.050320663 1.2053469e-38 303 281
-0.019637333 0.69999999 -0.050320663 1.2422243e-38 304 281
-0.0183574 0.69800001 -0.050176892 1.2514798e-38 305 281
-0.017133573 0.69800001 -0.050176892 1.2972883e-38 306 281
-0.015886955 0.69700003 -0.050105009 1.2972883e-38 307 281
-0.01466488 0.69700003 -0.050105009 1.3616451e-38 308 281
-0.013423519 0.69599998 -0.050033119 1.3801201e-38 309 281
-0.0122032 0.69599998 -0.050033119 1.4168539e-38 310 281
-0.01095132 0.69400001 -0.049889345 1.4260736e-38 311 281
-0.0097345067 0.69400001 -0.049889345 1.4169612e-38 312 281
-0.0085054198 0.69300002 -0.049817458 1.3984861e-38 313 281
-0.0072903596 0.69300002 -0.049817458 1.3985214e-38 314 281
-0.0060753003 0.69300002 -0.049817458 1.3985214e-38 315 281
-0.00486024 0.69300002 -0.049817458 1.398557e-38 316 281
-0.0036451798 0.69300002 -0.049817458 1.4077765e-38 317 281
-0.00243012 0.69300002 -0.049817458 1.398665e-38 318 281
-0.00121506 0.69300002 -0.049817458 1.398665e-38 319 281
0 0.69300002 -0.049817458 1.3986647e-38 320 281
0.00121506 0.69300002 -0.049817458 1.3986647e-38 321 281
0.00243012 0.69300002 -0.049817458 1.3987369e-38 322 281
0.0036451798 0.69300002 -0.049817458 1.3987369e-38 323 281
0.00486024 0.69300002 -0.049817458 1.3895896e-38 324 281
0.0060753003 0.69300002 -0.049817458 1.3803701e-38 325 281
0.0072693196 0.69099998 -0.049673684 1.3804057e-38 326 281
0.0084686 0.69 -0.049601797 1.3711502e-38 327 281
0.0096783992 0.69 -0.049601797 1.3711855e-38 328 281
0.010856641 0.68800002 -0.049458027 1.3711855e-38 329 281
0.012062933 0.68800002 -0.049458027 1.3710782e-38 330 281
0.013269227 0.68800002 -0.049458027 1.3710782e-38 331 281
0.014517599 0.69 -0.049601797 1.3710785e-38 332 281
0.015727401 0.69 -0.049601797 1.3894817e-38 333 281
0.016961746 0.69099998 -0.049673684 1.3619661e-38 334 281
0.0181733 0.69099998 -0.049673684 1.3711858e-38 335 281
0.01944096 0.69300002 -0.049817458 1.371293e-38 336 281
0.020685827 0.69400001 -0.049889345 1.3897321e-38 337 281
0.021902639 0.69400001 -0.049889345 1.3713653e-38 338 281
0.023119451 0.69400001 -0.049889345 1.3621458e-38 339 281
0.024336265 0.69400001 -0.049889345 1.3713303e-38 340 281
0.025553079 0.69400001 -0.049889345 1.3897334e-38 341 281
0.026769891 0.69400001 -0.049889345 1.353071e-38 342 281
0.027986705 0.69400001 -0.049889345 1.3622905e-38 343 281
0.02932976 0.69700003 -0.050105009 1.3531072e-38 344 281
0.030595668 0.69800001 -0.050176892 1.3715824e-38 345 281
0.031819493 0.69800001 -0.050176892 1.3715468e-38 346 281
0.03318534 0.70099998 -0.050392549 1.3992053e-38 347 281
0.034414422 0.70099998 -0.050392549 1.3809107e-38 348 281
0.035745207 0.70300001 -0.050536323 1.3901303e-38 349 281
0.037030395 0.704 -0.050608214 1.3992446e-38 350 281
0.038264744 0.704 -0.050608214 1.5652326e-38 351 281
0.039611302 0.70599997 -0.050751984 1.5571688e-38 352 281
0.040849157 0.70599997 -0.050751984 2.0550252e-38 353 281
0.042087011 0.70599997 -0.050751984 1.8991593e-38 354 281
0.043324865 0.70599997 -0.050751984 1.8530974e-38 355 281
-0.035150826 0.71600002 -0.052726239 1.6777081e-38 292 282
-0.03389544 0.71600002 -0.052726239 1.2444245e-38 293 282
-0.032640055 0.71600002 -0.052726239 1.1324553e-38 294 282
-0.030946331 0.70599997 -0.051989835 1.1324553e-38 295 282
-0.029750559 0.70700002 -0.05206348 1.2056338e-38 296 282
-0.028510952 0.70700002 -0.05206348 1.1964142e-38 297 282
-0.027232772 0.70599997 -0.051989835 1.1871226e-38 298 282
-0.02592128 0.704 -0.051842559 1.1686476e-38 299 282
-0.024651866 0.70300001 -0.051768921 1.1501744e-38 300 282
-0.023352645 0.70099998 -0.051621638 1.1317353e-38 301 282
-0.022091998 0.69999999 -0.051547997 1.1041135e-38 302 282
-0.020864666 0.69999999 -0.051547997 1.1409558e-38 303 282
-0.019581227 0.69800001 -0.051400717 1.1870876e-38 304 282
-0.0183574 0.69800001 -0.051400717 1.2055268e-38 305 282
-0.017109027 0.69700003 -0.051327083 1.2972881e-38 306 282
-0.015886955 0.69700003 -0.051327083 1.3065435e-38 307 282
-0.01466488 0.69700003 -0.051327083 1.3157628e-38 308 282
-0.013423519 0.69599998 -0.051253434 1.3249823e-38 309 282
-0.0122032 0.69599998 -0.051253434 1.3617886e-38 310 282
-0.01095132 0.69400001 -0.051106159 1.3617886e-38 311 282
-0.0097345067 0.69400001 -0.051106159 1.3710432e-38 312 282
-0.0085054198 0.69300002 -0.051032521 1.3618236e-38 313 282
-0.0072903596 0.69300002 -0.051032521 1.3618589e-38 314 282
-0.0060753003 0.69300002 -0.051032521 1.3710785e-38 315 282
-0.00486024 0.69300002 -0.051032521 1.3710782e-38 316 282
-0.0036451798 0.69300002 -0.051032521 1.3618586e-38 317 282
-0.00243012 0.69300002 -0.051032521 1.3893744e-38 318 282
-0.00121506 0.69300002 -0.051032521 1.39863e-38 319 282
0 0.69300002 -0.051032521 1.3710432e-38 320 282
0.00121506 0.69300002 -0.051032521 1.3894464e-38 321 282
0.00243012 0.69300002 -0.051032521 1.343636e-38 322 282
0.0036451798 0.69300002 -0.051032521 1.3528556e-38 323 282
0.00486024 0.69300002 -0.051032521 1.3529275e-38 324 282
0.0060577663 0.69099998 -0.050885238 1.3345244e-38 325 282
0.0072693196 0.69099998 -0.050885238 1.3527837e-38 326 282
0.008480873 0.69099998 -0.050885238 1.3527837e-38 327 282
0.0096783992 0.69 -0.050811596 1.3343444e-38 328 282
0.010888199 0.69 -0.050811596 1.3251249e-38 329 282
0.012097999 0.69 -0.050811596 1.3433492e-38 330 282
0.0133078 0.69 -0.050811596 1.3525687e-38 331 282
0.014517599 0.69 -0.050811596 1.315835e-38 332 282
0.015750192 0.69099998 -0.050885238 1.3250545e-38 333 282
0.01701084 0.69300002 -0.051032521 1.3251251e-38 334 282
0.018225901 0.69300002 -0.051032521 1.3435643e-38 335 282
0.019469013 0.69400001 -0.051106159 1.3435996e-38 336 282
0.020685827 0.69400001 -0.051106159 1.3528193e-38 337 282
0.021902639 0.69400001 -0.051106159 1.3528559e-38 338 282
0.023119451 0.69400001 -0.051106159 1.3436363e-38 339 282
0.024336265 0.69400001 -0.051106159 1.3528559e-38 340 282
0.025553079 0.69400001 -0.051106159 1.3620754e-38 341 282
0.026769891 0.69400001 -0.051106159 1.3346318e-38 342 282
0.027986705 0.69400001 -0.051106159 1.3438514e-38 343 282
0.02932976 0.69700003 -0.051327083 1.3255211e-38 344 282
0.030551834 0.69700003 -0.051327083 1.3347407e-38 345 282
0.031819493 0.69800001 -0.051400717 1.3348133e-38 346 282
0.033137999 0.69999999 -0.051547997 1.3348133e-38 347 282
0.034414422 0.70099998 -0.051621638 1.353289e-38 348 282
0.035745207 0.70300001 -0.051768921 1.3625086e-38 349 282
0.037030395 0.704 -0.051842559 1.3716938e-38 350 282
0.038264744 0.704 -0.051842559 1.5376099e-38 351 282
0.039611302 0.70599997 -0.051989835 1.5114303e-38 352 282
0.040849157 0.70599997 -0.051989835 1.9631889e-38 353 282
0.042087011 0.70599997 -0.051989835 1.8715007e-38 354 282
0.043324865 0.70599997 -0.051989835 1.8346224e-38 355 282
-0.032184184 0.70599997 -0.053227689 1.1323835e-38 294 283
-0.030946331 0.70599997 -0.053227689 1.1416032e-38 295 283
-0.029708479 0.70599997 -0.053227689 1.1873741e-38 296 283
-0.028470624 0.70599997 -0.053227689 1.168935e-38 297 283
-0.027155625 0.704 -0.053076904 1.2054889e-38 298 283
-0.02592128 0.704 -0.053076904 1.1686466e-38 299 283
-0.024651866 0.70300001 -0.053001512 1.1501016e-38 300 283
-0.023319334 0.69999999 -0.052775331 1.1224787e-38 301 283
-0.022091998 0.69999999 -0.052775331 1.094786e-38 302 283
-0.020864666 0.69999999 -0.052775331 1.1132251e-38 303 283
-0.019581227 0.69800001 -0.052624546 1.1686126e-38 304 283
-0.0183574 0.69800001 -0.052624546 1.2055268e-38 305 283
-0.017109027 0.69700003 -0.052549154 1.279064e-38 306 283
-0.015886955 0.69700003 -0.052549154 1.279064e-38 307 283
-0.01466488 0.69700003 -0.052549154 1.3065783e-38 308 283
-0.013423519 0.69599998 -0.052473757 1.3157978e-38 309 283
-0.0122032 0.69599998 -0.052473757 1.3434211e-38 310 283
-0.01095132 0.69400001 -0.052322973 1.3434211e-38 311 283
-0.0097204801 0.69300002 -0.05224758 1.3618236e-38 312 283
