# .PCD v.7 - Point Cloud Data file format
FIELDS x y z rgb imX imY
SIZE 4 4 4 4 4 4
TYPE F F F F F F
COUNT 1 1 1 1 1 1
WIDTH 832
HEIGHT 1
VIEWPOINT 0 0 0 1 0 0 0
POINTS 832
DATA ascii
-0.0086281532 0.70300001 0.0098607466 1.3994892e-38 313 232
-0.0073745195 0.70099998 0.0098326923 1.252841e-38 314 232
-0.0061454331 0.70099998 0.0098326923 1.1883042e-38 315 232
-0.0049093333 0.69999999 0.0098186666 1.0137456e-38 316 232
-0.0036714801 0.69800001 0.0097906133 9.7686716e-39 317 232
-0.0024476533 0.69800001 0.0097906133 1.0776712e-38 318 232
-0.0012220733 0.69700003 0.0097765867 1.1514278e-38 319 232
0 0.69700003 0.0097765867 1.3809442e-38 320 232
0.0012238267 0.69800001 0.0097906133 1.408603e-38 321 232
0.0024476533 0.69800001 0.0097906133 1.4635608e-38 322 232
0.0036714801 0.69800001 0.0097906133 1.4359023e-38 323 232
0.0049163462 0.70099998 0.0098326923 1.4357944e-38 324 232
0.0061980332 0.70700002 0.0099168532 1.4173913e-38 325 232
0.0074376399 0.70700002 0.0099168532 1.3807288e-38 326 232
0.008677247 0.70700002 0.0099168532 1.353106e-38 327 232
0.0099308798 0.708 0.0099308798 1.3346318e-38 328 232
0.01117224 0.708 0.0099308798 1.3161568e-38 329 232
0.0124136 0.708 0.0099308798 1.2792804e-38 330 232
0.013635674 0.70700002 0.0099168532 1.2792804e-38 331 232
0.01487528 0.70700002 0.0099168532 1.1325259e-38 332 232
-0.023552528 0.70700002 0.008677247 1.6660968e-38 301 233
-0.022281358 0.70599997 0.0086649731 1.6753546e-38 302 233
-0.021043506 0.70599997 0.0086649731 1.730672e-38 303 233
-0.019805651 0.70599997 0.0086649731 1.694156e-38 304 233
-0.018567799 0.70599997 0.0086649731 1.7309982e-38 305 233
-0.017329946 0.70599997 0.0086649731 1.7034118e-38 306 233
-0.016046507 0.704 0.0086404262 1.6941923e-38 307 233
-0.014812159 0.704 0.0086404262 1.7218119e-38 308 233
-0.013577812 0.704 0.0086404262 1.7033727e-38 309 233
-0.012343466 0.704 0.0086404262 1.6664558e-38 310 233
-0.01109334 0.70300001 0.0086281532 1.5373836e-38 311 233
-0.0098326923 0.70099998 0.0086036054 1.4358982e-38 312 233
-0.0086036054 0.70099998 0.0086036054 1.4635565e-38 313 233
-0.0073639993 0.69999999 0.0085913334 1.2980732e-38 314 233
-0.0061366665 0.69999999 0.0085913334 1.1690372e-38 315 233
-0.0049093333 0.69999999 0.0085913334 1.0402164e-38 316 233
-0.0036714801 0.69800001 0.0085667865 1.0770582e-38 317 233
-0.0024476533 0.69800001 0.0085667865 1.2702747e-38 318 233
-0.0012220733 0.69700003 0.0085545136 1.3808736e-38 319 233
0 0.69700003 0.0085545136 1.4729969e-38 320 233
0.0012220733 0.69700003 0.0085545136 1.5006916e-38 321 233
0.0024406398 0.69599998 0.0085422397 1.4635608e-38 322 233
0.0036451798 0.69300002 0.0085054198 1.4266827e-38 323 233
0.00486024 0.69300002 0.0085054198 1.4082789e-38 324 233
0.0061629666 0.70300001 0.0086281532 1.4082789e-38 325 233
0.0074060797 0.704 0.0086404262 1.3989514e-38 326 233
0.008677247 0.70700002 0.008677247 1.3897319e-38 327 233
0.0099308798 0.708 0.008689519 1.352854e-38 328 233
0.01117224 0.708 0.008689519 1.3436343e-38 329 233
0.0124136 0.708 0.008689519 1.3251965e-38 330 233
0.013635674 0.70700002 0.008677247 1.3251965e-38 331 233
0.01487528 0.70700002 0.008677247 1.2333999e-38 332 233
-0.028510952 0.70700002 0.0074376399 1.5928494e-38 297 234
-0.027271347 0.70700002 0.0074376399 1.6478739e-38 298 234
-0.02603174 0.70700002 0.0074376399 1.6294348e-38 299 234
-0.024792133 0.70700002 0.0074376399 1.6660609e-38 300 234
-0.023519212 0.70599997 0.0074271196 1.6752803e-38 301 234
-0.022281358 0.70599997 0.0074271196 1.6844282e-38 302 234
-0.021043506 0.70599997 0.0074271196 1.7212704e-38 303 234
-0.019805651 0.70599997 0.0074271196 1.6754995e-38 304 234
-0.018515198 0.704 0.0074060797 1.6939386e-38 305 234
-0.017280852 0.704 0.0074060797 1.7122354e-38 306 234
-0.016023712 0.70300001 0.0073955595 1.7582973e-38 307 234
-0.014791119 0.70300001 0.0073955595 1.7127373e-38 308 234
-0.013558527 0.70300001 0.0073955595 1.7127373e-38 309 234
-0.012290866 0.70099998 0.0073745195 1.7309223e-38 310 234
-0.011045999 0.69999999 0.0073639993 1.6295429e-38 311 234
-0.0098186666 0.69999999 0.0073639993 1.6383672e-38 312 234
-0.0085667865 0.69800001 0.0073429602 1.5922697e-38 313 234
-0.0073429602 0.69800001 0.0073429602 1.4083476e-38 314 234
-0.006119133 0.69800001 0.0073429602 1.353031e-38 315 234
-0.0048953067 0.69800001 0.0073429602 1.4177498e-38 316 234
-0.00366622 0.69700003 0.00733244 1.5283846e-38 317 234
-0.0024441467 0.69700003 0.00733244 1.5740878e-38 318 234
-0.0012203199 0.69599998 0.0073219193 1.5003313e-38 319 234
0 0.69599998 0.0073219193 1.5651537e-38 320 234
0.0012220733 0.69700003 0.00733244 1.5098363e-38 321 234
0.0024406398 0.69599998 0.0073219193 1.4727435e-38 322 234
0.0036451798 0.69300002 0.0072903596 1.4174261e-38 323 234
0.00486024 0.69300002 0.0072903596 1.398952e-38 324 234
0.0061015999 0.69599998 0.0073219193 1.4081716e-38 325 234
0.0073219193 0.69599998 0.0073219193 1.3896968e-38 326 234
0.0085422397 0.69599998 0.0073219193 1.3804773e-38 327 234
0.0099168532 0.70700002 0.0074376399 1.3528556e-38 328 234
0.011156459 0.70700002 0.0074376399 1.343636e-38 329 234
0.012396066 0.70700002 0.0074376399 1.3161218e-38 330 234
0.013654959 0.708 0.0074481601 1.2977185e-38 331 234
0.01487528 0.70700002 0.0074376399 1.2424028e-38 332 234
0.016114887 0.70700002 0.0074376399 1.2516224e-38 333 234
-0.030990168 0.70700002 0.0061980332 1.4549177e-38 295 235
-0.029750559 0.70700002 0.0061980332 1.611213e-38 296 235
-0.028470624 0.70599997 0.0061892662 1.6019934e-38 297 235
-0.027232772 0.70599997 0.0061892662 1.6478732e-38 298 235
-0.025994917 0.70599997 0.0061892662 1.6386538e-38 299 235
-0.024757065 0.70599997 0.0061892662 1.6752445e-38 300 235
-0.023419274 0.70300001 0.0061629666 1.6752445e-38 301 235
-0.02218668 0.70300001 0.0061629666 1.6568786e-38 302 235
-0.020983893 0.704 0.0061717331 1.6845373e-38 303 235
-0.019749546 0.704 0.0061717331 1.666173e-38 304 235
-0.018488899 0.70300001 0.0061629666 1.6937957e-38 305 235
-0.017256306 0.70300001 0.0061629666 1.6846853e-38 306 235
-0.015955333 0.69999999 0.0061366665 1.71238e-38 307 235
-0.014727999 0.69999999 0.0061366665 1.7034471e-38 308 235
-0.013500666 0.69999999 0.0061366665 1.6942276e-38 309 235
-0.012273333 0.69999999 0.0061366665 1.72174e-38 310 235
-0.01101444 0.69800001 0.006119133 1.6848616e-38 311 235
-0.0097906133 0.69800001 0.006119133 1.6662429e-38 312 235
-0.0085545136 0.69700003 0.0061103669 1.6662429e-38 313 235
-0.00733244 0.69700003 0.0061103669 1.5649722e-38 314 235
-0.0061103669 0.69700003 0.0061103669 1.5372777e-38 315 235
-0.0048882933 0.69700003 0.0061103669 1.5467146e-38 316 235
-0.00366622 0.69700003 0.0061103669 1.5835928e-38 317 235
-0.0024441467 0.69700003 0.0061103669 1.5465003e-38 318 235
-0.0012203199 0.69599998 0.0061015999 1.5188057e-38 319 235
0 0.69599998 0.0061015999 1.5373152e-38 320 235
0.0012220733 0.69700003 0.0061103669 1.5280957e-38 321 235
0.0024406398 0.69599998 0.0061015999 1.5003647e-38 322 235
0.0036504399 0.69400001 0.0060840664 1.472706e-38 323 235
0.00486024 0.69300002 0.0060753003 1.445048e-38 324 235
0.0060753003 0.69300002 0.0060753003 1.4265728e-38 325 235
0.0072903596 0.69300002 0.0060753003 1.38966e-38 326 235
0.0085054198 0.69300002 0.0060753003 1.3804404e-38 327 235
0.0097204801 0.69300002 0.0060753003 1.3712577e-38 328 235
0.01095132 0.69400001 0.0060840664 1.3528546e-38 329 235
0.012238266 0.69800001 0.006119133 1.334416e-38 330 235
0.013635674 0.70700002 0.0061980332 1.3251965e-38 331 235
0.01487528 0.70700002 0.0061980332 1.2793157e-38 332 235
0.016092092 0.70599997 0.0061892662 1.2793157e-38 333 235
0.017329946 0.70599997 0.0061892662 1.1783346e-38 334 235
0.018567799 0.70599997 0.0061892662 1.1875542e-38 335 235
-0.030946331 0.70599997 0.0049514128 1.5560067e-38 295 236
-0.029708479 0.70599997 0.0049514128 1.6387988e-38 296 236
-0.028470624 0.70599997 0.0049514128 1.6295792e-38 297 236
-0.027232772 0.70599997 0.0049514128 1.6662762e-38 298 236
-0.02592128 0.704 0.0049373866 1.6662762e-38 299 236
-0.024686933 0.704 0.0049373866 1.6661327e-38 300 236
-0.023419274 0.70300001 0.0049303733 1.6569132e-38 301 236
-0.022123558 0.70099998 0.0049163462 1.6568774e-38 302 236
-0.020894472 0.70099998 0.0049163462 1.6660968e-38 303 236
-0.019665385 0.70099998 0.0049163462 1.6477317e-38 304 236
-0.018436298 0.70099998 0.0049163462 1.6846098e-38 305 236
-0.017182667 0.69999999 0.0049093333 1.6661374e-38 306 236
-0.015909746 0.69800001 0.0048953067 1.7030155e-38 307 236
-0.01468592 0.69800001 0.0048953067 1.6756459e-38 308 236
-0.013462093 0.69800001 0.0048953067 1.6756459e-38 309 236
-0.012220734 0.69700003 0.0048882933 1.6940111e-38 310 236
-0.01099866 0.69700003 0.0048882933 1.6940111e-38 311 236
-0.0097765867 0.69700003 0.0048882933 1.6664597e-38 312 236
-0.0085422397 0.69599998 0.0048812795 1.6756793e-38 313 236
-0.0073219193 0.69599998 0.0048812795 1.6753193e-38 314 236
-0.0061015999 0.69599998 0.0048812795 1.6660997e-38 315 236
-0.0048812795 0.69599998 0.0048812795 1.6111779e-38 316 236
-0.0036609597 0.69599998 0.0048812795 1.5742638e-38 317 236
-0.0024406398 0.69599998 0.0048812795 1.5556467e-38 318 236
-0.0012168133 0.69400001 0.0048672534 1.5556467e-38 319 236
0 0.69400001 0.0048672534 1.5373521e-38 320 236
0.0012203199 0.69599998 0.0048812795 1.5373521e-38 321 236
0.0024406398 0.69599998 0.0048812795 1.5005096e-38 322 236
0.0036451798 0.69300002 0.00486024 1.4820704e-38 323 236
0.00486024 0.69300002 0.00486024 1.4635943e-38 324 236
0.0060577663 0.69099998 0.0048462129 1.4174965e-38 325 236
0.0072693196 0.69099998 0.0048462129 1.4263568e-38 326 236
0.0085054198 0.69300002 0.00486024 1.4078816e-38 327 236
0.0097204801 0.69300002 0.00486024 1.3712211e-38 328 236
0.01095132 0.69400001 0.0048672534 1.3619656e-38 329 236
0.012168133 0.69400001 0.0048672534 1.334416e-38 330 236
0.013577812 0.704 0.0049373866 1.334416e-38 331 236
0.014812159 0.704 0.0049373866 1.2885706e-38 332 236
0.016092092 0.70599997 0.0049514128 1.2885706e-38 333 236
0.017329946 0.70599997 0.0049514128 1.2427265e-38 334 236
0.018567799 0.70599997 0.0049514128 1.233507e-38 335 236
0.019833706 0.70700002 0.0049584266 1.1051193e-38 336 236
-0.033422034 0.70599997 0.0037135598 1.4727846e-38 293 237
-0.032184184 0.70599997 0.0037135598 1.6202177e-38 294 237
-0.030946331 0.70599997 0.0037135598 1.6478404e-38 295 237
-0.029624319 0.704 0.0037030398 1.6480887e-38 296 237
-0.028389972 0.704 0.0037030398 1.6480887e-38 297 237
-0.027155625 0.704 0.0037030398 1.703118e-38 298 237
-0.02592128 0.704 0.0037030398 1.6846791e-38 299 237
-0.024651866 0.70300001 0.0036977797 1.6846791e-38 300 237
-0.023319334 0.69999999 0.0036819996 1.6754238e-38 301 237
-0.022091998 0.69999999 0.0036819996 1.6478376e-38 302 237
-0.020805053 0.69800001 0.0036714801 1.6478376e-38 303 237
-0.019581227 0.69800001 0.0036714801 1.6294723e-38 304 237
-0.018331099 0.69700003 0.00366622 1.6294723e-38 305 237
-0.017109027 0.69700003 0.00366622 1.6294022e-38 306 237
-0.015864158 0.69599998 0.0036609597 1.6570251e-38 307 237
-0.014643839 0.69599998 0.0036609597 1.6386585e-38 308 237
-0.013423519 0.69599998 0.0036609597 1.6386585e-38 309 237
-0.0122032 0.69599998 0.0036609597 1.6571683e-38 310 237
-0.010982879 0.69599998 0.0036609597 1.6755714e-38 311 237
-0.0097625591 0.69599998 0.0036609597 1.6848265e-38 312 237
-0.0085176928 0.69400001 0.0036504399 1.6755711e-38 313 237
-0.0073008798 0.69400001 0.0036504399 1.65706e-38 314 237
-0.0060840664 0.69400001 0.0036504399 1.6662797e-38 315 237
-0.0048672534 0.69400001 0.0036504399 1.6202543e-38 316 237
-0.0036504399 0.69400001 0.0036504399 1.5741566e-38 317 237
-0.0024336267 0.69400001 0.0036504399 1.555647e-38 318 237
-0.00121506 0.69300002 0.0036451798 1.555647e-38 319 237
0 0.69300002 0.0036451798 1.509766e-38 320 237
0.00121506 0.69300002 0.0036451798 1.4821073e-38 321 237
0.00243012 0.69300002 0.0036451798 1.491075e-38 322 237
0.0036346598 0.69099998 0.0036346598 1.4818555e-38 323 237
0.0048462129 0.69099998 0.0036346598 1.4635593e-38 324 237
0.0060577663 0.69099998 0.0036346598 1.4358647e-38 325 237
0.0072693196 0.69099998 0.0036346598 1.4263568e-38 326 237
0.008480873 0.69099998 0.0036346598 1.4078816e-38 327 237
0.0096924258 0.69099998 0.0036346598 1.371076e-38 328 237
0.010935539 0.69300002 0.0036451798 1.371076e-38 329 237
0.012150601 0.69300002 0.0036451798 1.334415e-38 330 237
0.01336566 0.69300002 0.0036451798 1.334415e-38 331 237
0.014791119 0.70300001 0.0036977797 1.2884987e-38 332 237
0.016046507 0.704 0.0037030398 1.2977183e-38 333 237
0.017280852 0.704 0.0037030398 1.24269e-38 334 237
0.018515198 0.704 0.0037030398 1.24269e-38 335 237
0.019833706 0.70700002 0.0037188199 1.187626e-38 336 237
0.021103119 0.708 0.00372408 1.206101e-38 337 237
-0.034659892 0.70599997 0.0024757064 1.5649427e-38 292 238
-0.033422034 0.70599997 0.0024757064 1.5004057e-38 293 238
-0.032184184 0.70599997 0.0024757064 1.6295427e-38 294 238
-0.030946331 0.70599997 0.0024757064 1.666385e-38 295 238
-0.029624319 0.704 0.0024686933 1.6848953e-38 296 238
-0.028389972 0.704 0.0024686933 1.6848953e-38 297 238
-0.027117053 0.70300001 0.0024651866 1.70319e-38 298 238
-0.025884461 0.70300001 0.0024651866 1.6939344e-38 299 238
-0.024581732 0.70099998 0.0024581731 1.6847151e-38 300 238
-0.023319334 0.69999999 0.0024546667 1.6847151e-38 301 238
-0.02202888 0.69800001 0.0024476533 1.6478736e-38 302 238
-0.020775247 0.69700003 0.0024441467 1.6478736e-38 303 238
-0.019525118 0.69599998 0.0024406398 1.6111045e-38 304 238
-0.018304799 0.69599998 0.0024406398 1.5927014e-38 305 238
-0.017035386 0.69400001 0.0024336267 1.6110698e-38 306 238
-0.015818574 0.69400001 0.0024336267 1.6295089e-38 307 238
-0.01460176 0.69400001 0.0024336267 1.6018875e-38 308 238
-0.013384946 0.69400001 0.0024336267 1.611107e-38 309 238
-0.012168133 0.69400001 0.0024336267 1.6111796e-38 310 238
-0.01095132 0.69400001 0.0024336267 1.6296187e-38 311 238
-0.0097204801 0.69300002 0.00243012 1.638803e-38 312 238
-0.0085054198 0.69300002 0.00243012 1.638803e-38 313 238
-0.0072903596 0.69300002 0.00243012 1.6296185e-38 314 238
-0.0060753003 0.69300002 0.00243012 1.6296185e-38 315 238
-0.00486024 0.69300002 0.00243012 1.620254e-38 316 238
-0.0036451798 0.69300002 0.00243012 1.5834118e-38 317 238
-0.00243012 0.69300002 0.00243012 1.5649019e-38 318 238
-0.0012115532 0.69099998 0.0024231065 1.5556823e-38 319 238
0 0.69 0.0024195998 1.5188057e-38 320 238
0.0012097999 0.69 0.0024195998 1.4727438e-38 321 238
0.0024231065 0.69099998 0.0024231065 1.4541972e-38 322 238
0.0036346598 0.69099998 0.0024231065 1.4726003e-38 323 238
0.0048391996 0.69 0.0024195998 1.4542688e-38 324 238
0.0060489997 0.69 0.0024195998 1.4174266e-38 325 238
0.0072587994 0.69 0.0024195998 1.3895873e-38 326 238
0.008480873 0.69099998 0.0024231065 1.3619646e-38 327 238
0.0096924258 0.69099998 0.0024231065 1.3434896e-38 328 238
0.010935539 0.69300002 0.00243012 1.3527091e-38 329 238
0.012150601 0.69300002 0.00243012 1.3068287e-38 330 238
0.01336566 0.69300002 0.00243012 1.3252318e-38 331 238
0.01466488 0.69700003 0.0024441467 1.3251614e-38 332 238
0.015978126 0.70099998 0.0024581731 1.3251614e-38 333 238
0.017207211 0.70099998 0.0024581731 1.2610568e-38 334 238
0.018488899 0.70300001 0.0024651866 1.2518012e-38 335 238
0.019721493 0.70300001 0.0024651866 1.1969164e-38 336 238
0.020954086 0.70300001 0.0024651866 1.1784413e-38 337 238
0.02218668 0.70300001 0.0024651866 1.188279e-38 338 238
-0.035897743 0.70599997 0.0012378532 1.4005454e-38 291 239
-0.034659892 0.70599997 0.0012378532 1.4914367e-38 292 239
-0.033422034 0.70599997 0.0012378532 1.4914367e-38 293 239
-0.032184184 0.70599997 0.0012378532 1.6293626e-38 294 239
-0.030946331 0.70599997 0.0012378532 1.6846798e-38 295 239
-0.029624319 0.704 0.0012343467 1.7032263e-38 296 239
-0.028389972 0.704 0.0012343467 1.7124459e-38 297 239
-0.027117053 0.70300001 0.0012325933 1.6940443e-38 298 239
-0.025773998 0.69999999 0.0012273333 1.6940443e-38 299 239
-0.024546666 0.69999999 0.0012273333 1.6389437e-38 300 239
-0.023252707 0.69800001 0.0012238267 1.6297241e-38 301 239
-0.02202888 0.69800001 0.0012238267 1.6295442e-38 302 239
-0.020745439 0.69599998 0.0012203199 1.6387638e-38 303 239
-0.019525118 0.69599998 0.0012203199 1.6020647e-38 304 239
-0.018304799 0.69599998 0.0012203199 1.5744421e-38 305 239
-0.017035386 0.69400001 0.0012168133 1.5744774e-38 306 239
-0.015818574 0.69400001 0.0012168133 1.5652578e-38 307 239
-0.01460176 0.69400001 0.0012168133 1.5835534e-38 308 239
-0.013384946 0.69400001 0.0012168133 1.5835534e-38 309 239
-0.012150601 0.69300002 0.00121506 1.6109623e-38 310 239
-0.010935539 0.69300002 0.00121506 1.6109623e-38 311 239
-0.0097204801 0.69300002 0.00121506 1.6386585e-38 312 239
-0.0085054198 0.69300002 0.00121506 1.6386585e-38 313 239
-0.0072903596 0.69300002 0.00121506 1.6203636e-38 314 239
-0.0060753003 0.69300002 0.00121506 1.6203636e-38 315 239
-0.00486024 0.69300002 0.00121506 1.601924e-38 316 239
-0.0036346598 0.69099998 0.0012115532 1.5743014e-38 317 239
-0.0024231065 0.69099998 0.0012115532 1.565154e-38 318 239
-0.0012097999 0.69 0.0012097999 1.5282759e-38 319 239
0 0.68800002 0.0012062934 1.4915054e-38 320 239
0.0012062934 0.68800002 0.0012062934 1.417713e-38 321 239
0.0024125867 0.68800002 0.0012062934 1.4543394e-38 322 239
0.0036293997 0.69 0.0012097999 1.463559e-38 323 239
0.0048391996 0.69 0.0012097999 1.4544842e-38 324 239
0.0060489997 0.69 0.0012097999 1.4175701e-38 325 239
0.0072587994 0.69 0.0012097999 1.3894803e-38 326 239
0.0084686 0.69 0.0012097999 1.3710053e-38 327 239
0.0096924258 0.69099998 0.0012115532 1.3249431e-38 328 239
0.01090398 0.69099998 0.0012115532 1.3433824e-38 329 239
0.012115533 0.69099998 0.0012115532 1.3159403e-38 330 239
0.01336566 0.69300002 0.00121506 1.3251599e-38 331 239
0.014580719 0.69300002 0.00121506 1.3068652e-38 332 239
0.015886955 0.69700003 0.0012220733 1.3068652e-38 333 239
0.017133573 0.69800001 0.0012238267 1.2609842e-38 334 239
0.018409999 0.69999999 0.0012273333 1.2517646e-38 335 239
0.019637333 0.69999999 0.0012273333 1.2059561e-38 336 239
0.020864666 0.69999999 0.0012273333 1.1137606e-38 337 239
0.022123558 0.70099998 0.0012290865 9.856285e-39 338 239
-0.038373452 0.70599997 -0 1.7700857e-38 289 240
-0.037135597 0.70599997 -0 1.5020996e-38 290 240
-0.035897743 0.70599997 -0 1.1425008e-38 291 240
-0.034561705 0.704 -0 1.5096918e-38 292 240
-0.03332736 0.704 -0 1.5742288e-38 293 240
-0.032184184 0.70599997 -0 1.6202525e-38 294 240
-0.030858666 0.704 -0 1.6663503e-38 295 240
-0.029624319 0.704 -0 1.68486e-38 296 240
-0.028349647 0.70300001 -0 1.7217023e-38 297 240
-0.027039904 0.70099998 -0 1.7124477e-38 298 240
-0.025773998 0.69999999 -0 1.7216672e-38 299 240
-0.024546666 0.69999999 -0 1.6575623e-38 300 240
-0.023252707 0.69800001 -0 1.6114645e-38 301 240
-0.02199732 0.69700003 -0 1.6389413e-38 302 240
-0.020685827 0.69400001 -0 1.6112828e-38 303 240
-0.019469013 0.69400001 -0 1.6021348e-38 304 240
-0.018225901 0.69300002 -0 1.6021348e-38 305 240
-0.01701084 0.69300002 -0 1.5929154e-38 306 240
-0.015795778 0.69300002 -0 1.583696e-38 307 240
-0.014580719 0.69300002 -0 1.5743342e-38 308 240
-0.01336566 0.69300002 -0 1.5651145e-38 309 240
-0.012150601 0.69300002 -0 1.5741938e-38 310 240
-0.01090398 0.69099998 -0 1.5741938e-38 311 240
-0.0096924258 0.69099998 -0 1.5650483e-38 312 240
-0.008480873 0.69099998 -0 1.5650483e-38 313 240
-0.0072693196 0.69099998 -0 1.574196e-38 314 240
-0.0060489997 0.69 -0 1.6018188e-38 315 240
-0.0048391996 0.69 -0 1.5742663e-38 316 240
-0.0036293997 0.69 -0 1.5650468e-38 317 240
-0.0024195998 0.69 -0 1.5100165e-38 318 240
-0.0012062934 0.68800002 -0 1.4823218e-38 319 240
0 0.68699998 -0 1.4637392e-38 320 240
0.0012045399 0.68699998 -0 1.4268249e-38 321 240
0.0024125867 0.68800002 -0 1.4265734e-38 322 240
0.0036188802 0.68800002 -0 1.4726353e-38 323 240
0.0048391996 0.69 -0 1.3992754e-38 324 240
0.0060489997 0.69 -0 1.3071158e-38 325 240
0.0072587994 0.69 -0 1.3251599e-38 326 240
0.0084686 0.69 -0 1.2883177e-38 327 240
0.0096924258 0.69099998 -0 1.279027e-38 328 240
0.01090398 0.69099998 -0 1.3066857e-38 329 240
0.012115533 0.69099998 -0 1.3067934e-38 330 240
0.01336566 0.69300002 -0 1.3251965e-38 331 240
0.014580719 0.69300002 -0 1.3069006e-38 332 240
0.015818574 0.69400001 -0 1.3069006e-38 333 240
0.017084479 0.69599998 -0 1.2793145e-38 334 240
0.0183574 0.69800001 -0 1.2793145e-38 335 240
0.019581227 0.69800001 -0 1.2424394e-38 336 240
0.020805053 0.69800001 -0 1.2332199e-38 337 240
0.022091998 0.69999999 -0 1.0404022e-38 338 240
0.023319334 0.69999999 -0 1.0311826e-38 339 240
-0.038373452 0.70599997 -0.0012378532 1.5580708e-38 289 241
-0.037135597 0.70599997 -0.0012378532 1.4186894e-38 290 241
-0.035897743 0.70599997 -0.0012378532 1.2250787e-38 291 241
-0.034561705 0.704 -0.0012343467 1.5374559e-38 292 241
-0.03332736 0.704 -0.0012343467 1.5374559e-38 293 241
-0.032093015 0.704 -0.0012343467 1.6109596e-38 294 241
-0.030814834 0.70300001 -0.0012325933 1.6662403e-38 295 241
-0.029582238 0.70300001 -0.0012325933 1.7125177e-38 296 241
-0.028268991 0.70099998 -0.0012290865 1.7586516e-38 297 241
-0.027001332 0.69999999 -0.0012273333 1.6851837e-38 298 241
-0.025773998 0.69999999 -0.0012273333 1.675964e-38 299 241
-0.024476532 0.69800001 -0.0012238267 1.6666726e-38 300 241
-0.023219392 0.69700003 -0.0012220733 1.6574171e-38 301 241
-0.021871079 0.69300002 -0.00121506 1.6298651e-38 302 241
-0.020656019 0.69300002 -0.00121506 1.6206095e-38 303 241
-0.01944096 0.69300002 -0.00121506 1.611426e-38 304 241
-0.018225901 0.69300002 -0.00121506 1.6022065e-38 305 241
-0.016961746 0.69099998 -0.0012115532 1.57462e-38 306 241
-0.015750192 0.69099998 -0.0012115532 1.5469618e-38 307 241
-0.014538639 0.69099998 -0.0012115532 1.5742974e-38 308 241
-0.013327086 0.69099998 -0.0012115532 1.546603e-38 309 241
-0.012115533 0.69099998 -0.0012115532 1.5464607e-38 310 241
-0.01090398 0.69099998 -0.0012115532 1.5556802e-38 311 241
-0.0096783992 0.69 -0.0012097999 1.5649019e-38 312 241
-0.0084686 0.69 -0.0012097999 1.5556823e-38 313 241
-0.0072587994 0.69 -0.0012097999 1.5740881e-38 314 241
-0.0060314666 0.68800002 -0.0012062934 1.5648685e-38 315 241
-0.0048251734 0.68800002 -0.0012062934 1.5280609e-38 316 241
-0.0036188802 0.68800002 -0.0012062934 1.4358294e-38 317 241
-0.0024125867 0.68800002 -0.0012062934 1.3898741e-38 318 241
-0.0012062934 0.68800002 -0.0012062934 1.3898741e-38 319 241
0 0.68699998 -0.0012045399 1.4172814e-38 320 241
0.0012045399 0.68699998 -0.0012045399 1.3988423e-38 321 241
0.0024125867 0.68800002 -0.0012062934 1.3710044e-38 322 241
0.0036188802 0.68800002 -0.0012062934 1.3710044e-38 323 241
0.0048391996 0.69 -0.0012097999 1.3249787e-38 324 241
0.0060489997 0.69 -0.0012097999 1.2696616e-38 325 241
0.0072587994 0.69 -0.0012097999 1.2696983e-38 326 241
0.0084686 0.69 -0.0012097999 1.2696983e-38 327 241
0.0096783992 0.69 -0.0012097999 1.2514034e-38 328 241
0.01090398 0.69099998 -0.0012115532 1.260623e-38 329 241
0.012115533 0.69099998 -0.0012115532 1.2883524e-38 330 241
0.013327086 0.69099998 -0.0012115532 1.3067555e-38 331 241
0.014580719 0.69300002 -0.00121506 1.2976441e-38 332 241
0.015795778 0.69300002 -0.00121506 1.3252668e-38 333 241
0.017035386 0.69400001 -0.0012168133 1.2793858e-38 334 241
0.0182522 0.69400001 -0.0012168133 1.2701662e-38 335 241
0.019525118 0.69599998 -0.0012203199 1.2242857e-38 336 241
0.020745439 0.69599998 -0.0012203199 1.2242857e-38 337 241
0.021965759 0.69599998 -0.0012203199 1.1875895e-38 338 241
0.023219392 0.69700003 -0.0012220733 1.1230526e-38 339 241
0.024441468 0.69700003 -0.0012220733 9.3056251e-39 340 241
-0.039667413 0.70700002 -0.0024792133 1.7146577e-38 288 242
-0.038427804 0.70700002 -0.0024792133 1.327436e-38 289 242
-0.037135597 0.70599997 -0.0024757064 1.3998519e-38 290 242
-0.035897743 0.70599997 -0.0024757064 1.3445345e-38 291 242
-0.034561705 0.704 -0.0024686933 1.5558942e-38 292 242
-0.03332736 0.704 -0.0024686933 1.574333e-38 293 242
-0.032093015 0.704 -0.0024686933 1.5835172e-38 294 242
-0.030814834 0.70300001 -0.0024651866 1.6480541e-38 295 242
-0.029498078 0.70099998 -0.0024581731 1.6759286e-38 296 242
-0.028228667 0.69999999 -0.0024546667 1.6944036e-38 297 242
-0.027001332 0.69999999 -0.0024546667 1.6944383e-38 298 242
-0.025700359 0.69800001 -0.0024476533 1.6944383e-38 299 242
-0.024476532 0.69800001 -0.0024476533 1.6942934e-38 300 242
-0.023119451 0.69400001 -0.0024336267 1.6758903e-38 301 242
-0.021871079 0.69300002 -0.00243012 1.6574872e-38 302 242
-0.020656019 0.69300002 -0.00243012 1.6390484e-38 303 242
-0.01944096 0.69300002 -0.00243012 1.6022424e-38 304 242
-0.018225901 0.69300002 -0.00243012 1.5929871e-38 305 242
-0.016961746 0.69099998 -0.0024231065 1.5654006e-38 306 242
-0.015750192 0.69099998 -0.0024231065 1.5285588e-38 307 242
-0.014538639 0.69099998 -0.0024231065 1.5374915e-38 308 242
-0.013327086 0.69099998 -0.0024231065 1.5190165e-38 309 242
-0.012115533 0.69099998 -0.0024231065 1.5096548e-38 310 242
-0.010888199 0.69 -0.0024195998 1.5188746e-38 311 242
-0.0096503468 0.68800002 -0.0024125867 1.5372076e-38 312 242
-0.0084440531 0.68800002 -0.0024125867 1.5464272e-38 313 242
-0.0072377604 0.68800002 -0.0024125867 1.5280622e-38 314 242
-0.0060226996 0.68699998 -0.0024090798 1.5280622e-38 315 242
-0.0048181596 0.68699998 -0.0024090798 1.4912547e-38 316 242
-0.0036136196 0.68699998 -0.0024090798 1.4082785e-38 317 242
-0.0024090798 0.68699998 -0.0024090798 1.3805829e-38 318 242
-0.0012045399 0.68699998 -0.0024090798 1.3529242e-38 319 242
0 0.68699998 -0.0024090798 1.3805123e-38 320 242
0.0012045399 0.68699998 -0.0024090798 1.3251949e-38 321 242
0.0024090798 0.68699998 -0.0024090798 1.2236721e-38 322 242
0.0036136196 0.68699998 -0.0024090798 1.2144527e-38 323 242
0.0048251734 0.68800002 -0.0024125867 1.1226892e-38 324 242
0.0060314666 0.68800002 -0.0024125867 1.1134697e-38 325 242
0.0072377604 0.68800002 -0.0024125867 1.09514e-38 326 242
0.0084440531 0.68800002 -0.0024125867 1.1227626e-38 327 242
0.0096503468 0.68800002 -0.0024125867 1.1597122e-38 328 242
0.010888199 0.69 -0.0024195998 1.1597122e-38 329 242
0.012115533 0.69099998 -0.0024231065 1.2423636e-38 330 242
0.013327086 0.69099998 -0.0024231065 1.2608029e-38 331 242
0.014580719 0.69300002 -0.00243012 1.2883542e-38 332 242
0.015795778 0.69300002 -0.00243012 1.3067934e-38 333 242
0.01701084 0.69300002 -0.00243012 1.2885337e-38 334 242
0.0182522 0.69400001 -0.0024336267 1.2977533e-38 335 242
0.019469013 0.69400001 -0.0024336267 1.2518721e-38 336 242
0.020685827 0.69400001 -0.0024336267 1.2242136e-38 337 242
0.021902639 0.69400001 -0.0024336267 1.1782628e-38 338 242
0.023219392 0.69700003 -0.0024441467 1.1597878e-38 339 242
0.024476532 0.69800001 -0.0024476533 1.0218927e-38 340 242
0.025700359 0.69800001 -0.0024476533 9.7579489e-39 341 242
-0.040849157 0.70599997 -0.0037135598 1.7886688e-38 287 243
-0.039611302 0.70599997 -0.0037135598 1.5948004e-38 288 243
-0.038427804 0.70700002 -0.0037188199 1.0785049e-38 289 243
-0.037135597 0.70599997 -0.0037135598 1.4178202e-38 290 243
-0.035897743 0.70599997 -0.0037135598 1.4731376e-38 291 243
-0.034561705 0.704 -0.0037030398 1.5558942e-38 292 243
-0.033280019 0.70300001 -0.0036977797 1.5651136e-38 293 243
-0.032047424 0.70300001 -0.0036977797 1.592772e-38 294 243
-0.030683333 0.69999999 -0.0036819996 1.6480893e-38 295 243
-0.029455997 0.69999999 -0.0036819996 1.657562e-38 296 243
-0.028148014 0.69800001 -0.0036714801 1.6852566e-38 297 243
-0.026924185 0.69800001 -0.0036714801 1.6854001e-38 298 243
-0.025700359 0.69800001 -0.0036714801 1.666997e-38 299 243
-0.024441468 0.69700003 -0.00366622 1.6852185e-38 300 243
-0.02308614 0.69300002 -0.0036451798 1.6759988e-38 301 243
-0.021871079 0.69300002 -0.0036451798 1.6299724e-38 302 243
-0.020656019 0.69300002 -0.0036451798 1.5746559e-38 303 243
-0.01944096 0.69300002 -0.0036451798 1.5654006e-38 304 243
-0.018225901 0.69300002 -0.0036451798 1.5561453e-38 305 243
-0.016961746 0.69099998 -0.0036346598 1.5560377e-38 306 243
-0.015750192 0.69099998 -0.0036346598 1.5283794e-38 307 243
-0.014538639 0.69099998 -0.0036346598 1.509833e-38 308 243
-0.013327086 0.69099998 -0.0036346598 1.4729553e-38 309 243
-0.012097999 0.69 -0.0036293997 1.4819594e-38 310 243
-0.010856641 0.68800002 -0.0036188802 1.4819594e-38 311 243
-0.0096503468 0.68800002 -0.0036188802 1.4911448e-38 312 243
-0.0084317802 0.68699998 -0.0036136196 1.5004003e-38 313 243
-0.0072272392 0.68699998 -0.0036136196 1.5095859e-38 314 243
-0.0060226996 0.68699998 -0.0036136196 1.5095859e-38 315 243
-0.0048181596 0.68699998 -0.0036136196 1.4637036e-38 316 243
-0.00360836 0.68599999 -0.00360836 1.4268252e-38 317 243
-0.0024055731 0.68599999 -0.00360836 1.399202e-38 318 243
-0.0012027866 0.68599999 -0.00360836 1.3622877e-38 319 243
0 0.68699998 -0.0036136196 1.3805108e-38 320 243
0.0012045399 0.68699998 -0.0036136196 1.3067545e-38 321 243
0.0024090798 0.68699998 -0.0036136196 1.1867944e-38 322 243
0.0036136196 0.68699998 -0.0036136196 1.1591362e-38 323 243
0.0048251734 0.68800002 -0.0036188802 1.021385e-38 324 243
0.0060226996 0.68699998 -0.0036136196 1.0306046e-38 325 243
0.0072272392 0.68699998 -0.0036136196 1.0673751e-38 326 243
0.0084440531 0.68800002 -0.0036188802 1.0950696e-38 327 243
0.0096503468 0.68800002 -0.0036188802 1.1687883e-38 328 243
0.010856641 0.68800002 -0.0036188802 1.1780079e-38 329 243
0.012097999 0.69 -0.0036293997 1.2330369e-38 330 243
0.0133078 0.69 -0.0036293997 1.2422564e-38 331 243
0.014538639 0.69099998 -0.0036346598 1.2422935e-38 332 243
0.015750192 0.69099998 -0.0036346598 1.2883555e-38 333 243
0.01701084 0.69300002 -0.0036451798 1.2609845e-38 334 243
0.0182522 0.69400001 -0.0036504399 1.2794238e-38 335 243
0.019469013 0.69400001 -0.0036504399 1.2610564e-38 336 243
0.020685827 0.69400001 -0.0036504399 1.2334337e-38 337 243
0.021902639 0.69400001 -0.0036504399 1.196664e-38 338 243
0.023186078 0.69599998 -0.0036609597 1.196664e-38 339 243
0.0244064 0.69599998 -0.0036609597 1.1416356e-38 340 243
0.025626717 0.69599998 -0.0036609597 9.4802479e-39 341 243
-0.040849157 0.70599997 -0.0049514128 1.6780699e-38 287 244
-0.039611302 0.70599997 -0.0049514128 1.4841271e-38 288 244
-0.038373452 0.70599997 -0.0049514128 1.023149e-38 289 244
-0.037135597 0.70599997 -0.0049514128 1.4729914e-38 290 244
-0.035796054 0.704 -0.0049373866 1.5282729e-38 291 244
-0.034561705 0.704 -0.0049373866 1.5650419e-38 292 244
-0.033280019 0.70300001 -0.0049303733 1.6019196e-38 293 244
-0.031956252 0.70099998 -0.0049163462 1.5928795e-38 294 244
-0.030595668 0.69800001 -0.0048953067 1.6481607e-38 295 244
-0.02932976 0.69700003 -0.0048882933 1.6483774e-38 296 244
-0.028107686 0.69700003 -0.0048882933 1.6760721e-38 297 244
-0.026885614 0.69700003 -0.0048882933 1.6853638e-38 298 244
-0.025553079 0.69400001 -0.0048672534 1.6853638e-38 299 244
-0.024336265 0.69400001 -0.0048672534 1.676144e-38 300 244
-0.02308614 0.69300002 -0.00486024 1.6669244e-38 301 244
-0.021807959 0.69099998 -0.0048462129 1.5747641e-38 302 244
-0.020596405 0.69099998 -0.0048462129 1.473314e-38 303 244
-0.019384852 0.69099998 -0.0048462129 1.5192676e-38 304 244
-0.0181733 0.69099998 -0.0048462129 1.54689e-38 305 244
-0.016961746 0.69099998 -0.0048462129 1.5375631e-38 306 244
-0.015727401 0.69 -0.0048391996 1.5099406e-38 307 244
-0.014517599 0.69 -0.0048391996 1.4822464e-38 308 244
-0.0133078 0.69 -0.0048391996 1.4454046e-38 309 244
-0.012062933 0.68800002 -0.0048251734 1.47274e-38 310 244
-0.010840859 0.68699998 -0.0048181596 1.4634847e-38 311 244
-0.0096363192 0.68699998 -0.0048181596 1.4725619e-38 312 244
-0.0084195063 0.68599999 -0.0048111463 1.5002205e-38 313 244
-0.0072167199 0.68599999 -0.0048111463 1.4635593e-38 314 244
-0.0060139326 0.68599999 -0.0048111463 1.4727788e-38 315 244
-0.0048111463 0.68599999 -0.0048111463 1.4452641e-38 316 244
-0.00360836 0.68599999 -0.0048111463 1.4176054e-38 317 244
-0.0024055731 0.68599999 -0.0048111463 1.4083132e-38 318 244
-0.0012027866 0.68599999 -0.0048111463 1.371471e-38 319 244
0 0.68599999 -0.0048111463 1.3713981e-38 320 244
0.0012045399 0.68699998 -0.0048181596 1.3345563e-38 321 244
0.0024090798 0.68699998 -0.0048181596 1.3157587e-38 322 244
0.0036136196 0.68699998 -0.0048181596 1.2327839e-38 323 244
0.0048181596 0.68699998 -0.0048181596 1.0763781e-38 324 244
0.0060226996 0.68699998 -0.0048181596 1.0948531e-38 325 244
0.0072272392 0.68699998 -0.0048181596 1.0765586e-38 326 244
0.0084440531 0.68800002 -0.0048251734 1.1226204e-38 327 244
0.0096503468 0.68800002 -0.0048251734 1.1688236e-38 328 244
0.010856641 0.68800002 -0.0048251734 1.1688236e-38 329 244
0.012062933 0.68800002 -0.0048251734 1.2054858e-38 330 244
0.013269227 0.68800002 -0.0048251734 1.2238889e-38 331 244
0.014517599 0.69 -0.0048391996 1.2147788e-38 332 244
0.015750192 0.69099998 -0.0048462129 1.251693e-38 333 244
0.016961746 0.69099998 -0.0048462129 1.2335056e-38 334 244
0.018225901 0.69300002 -0.00486024 1.2519449e-38 335 244
0.01944096 0.69300002 -0.00486024 1.2519451e-38 336 244
0.020656019 0.69300002 -0.00486024 1.2426897e-38 337 244
0.021902639 0.69400001 -0.0048672534 1.1967006e-38 338 244
0.023119451 0.69400001 -0.0048672534 1.1967006e-38 339 244
0.0244064 0.69599998 -0.0048812795 1.1507833e-38 340 244
0.025663542 0.69700003 -0.0048882933 1.0770268e-38 341 244
0.026924185 0.69800001 -0.0048953067 8.6562957e-39 342 244
-0.042087011 0.70599997 -0.0061892662 1.8070719e-38 286 245
-0.040849157 0.70599997 -0.0061892662 1.5027903e-38 287 245
-0.039611302 0.70599997 -0.0061892662 1.3915702e-38 288 245
-0.038373452 0.70599997 -0.0061892662 1.1057638e-38 289 245
-0.037135597 0.70599997 -0.0061892662 1.5007219e-38 290 245
-0.035796054 0.704 -0.0061717331 1.5191969e-38 291 245
-0.034512613 0.70300001 -0.0061629666 1.5651139e-38 292 245
-0.033280019 0.70300001 -0.0061629666 1.583589e-38 293 245
-0.031819493 0.69800001 -0.006119133 1.5930237e-38 294 245
-0.030551834 0.69700003 -0.0061103669 1.6391215e-38 295 245
-0.029287677 0.69599998 -0.0061015999 1.6208632e-38 296 245
-0.027986705 0.69400001 -0.0060840664 1.6393024e-38 297 245
-0.026769891 0.69400001 -0.0060840664 1.6485944e-38 298 245
-0.025553079 0.69400001 -0.0060840664 1.6485944e-38 299 245
-0.024301201 0.69300002 -0.0060753003 1.6485967e-38 300 245
-0.023019511 0.69099998 -0.0060577663 1.6301575e-38 301 245
-0.021807959 0.69099998 -0.0060577663 1.5195581e-38 302 245
-0.020596405 0.69099998 -0.0060577663 1.3904844e-38 303 245
-0.019384852 0.69099998 -0.0060577663 1.4732432e-38 304 245
-0.018146999 0.69 -0.0060489997 1.4916824e-38 305 245
-0.0169372 0.69 -0.0060489997 1.5099054e-38 306 245
-0.015681813 0.68800002 -0.0060314666 1.4822107e-38 307 245
-0.014475521 0.68800002 -0.0060314666 1.4546958e-38 308 245
-0.013269227 0.68800002 -0.0060314666 1.4362211e-38 309 245
-0.012045399 0.68699998 -0.0060226996 1.4451535e-38 310 245
-0.010840859 0.68699998 -0.0060226996 1.4451535e-38 311 245
-0.0096222926 0.68599999 -0.0060139326 1.4358997e-38 312 245
-0.0084195063 0.68599999 -0.0060139326 1.4358997e-38 313 245
-0.0072167199 0.68599999 -0.0060139326 1.4267533e-38 314 245
-0.0060139326 0.68599999 -0.0060139326 1.4267533e-38 315 245
-0.0048111463 0.68599999 -0.0060139326 1.4543394e-38 316 245
-0.00360836 0.68599999 -0.0060139326 1.4358644e-38 317 245
-0.0024055731 0.68599999 -0.0060139326 1.3990218e-38 318 245
-0.0012027866 0.68599999 -0.0060139326 1.3805826e-38 319 245
0 0.68599999 -0.0060139326 1.3621069e-38 320 245
0.0012027866 0.68599999 -0.0060139326 1.3436681e-38 321 245
0.0024090798 0.68699998 -0.0060226996 1.343417e-38 322 245
0.0036136196 0.68699998 -0.0060226996 1.278881e-38 323 245
0.0048181596 0.68699998 -0.0060226996 1.1500243e-38 324 245
0.0060226996 0.68699998 -0.0060226996 1.1500243e-38 325 245
0.0072272392 0.68699998 -0.0060226996 1.1132544e-38 326 245
0.0084317802 0.68699998 -0.0060226996 1.1777914e-38 327 245
0.0096363192 0.68699998 -0.0060226996 1.2146681e-38 328 245
0.010840859 0.68699998 -0.0060226996 1.2238876e-38 329 245
0.012062933 0.68800002 -0.0060314666 1.2423268e-38 330 245
0.013269227 0.68800002 -0.0060314666 1.2607299e-38 331 245
0.014517599 0.69 -0.0060489997 1.2516199e-38 332 245
0.015727401 0.69 -0.0060489997 1.2700949e-38 333 245
0.016961746 0.69099998 -0.0060577663 1.2335775e-38 334 245
0.0181733 0.69099998 -0.0060577663 1.2427972e-38 335 245
0.019384852 0.69099998 -0.0060577663 1.2519814e-38 336 245
0.020656019 0.69300002 -0.0060753003 1.2427619e-38 337 245
0.021871079 0.69300002 -0.0060753003 1.2151402e-38 338 245
0.023119451 0.69400001 -0.0060840664 1.1967009e-38 339 245
0.024336265 0.69400001 -0.0060840664 1.1508555e-38 340 245
0.025663542 0.69700003 -0.0061103669 1.1508555e-38 341 245
0.026924185 0.69800001 -0.006119133 9.6661092e-39 342 245
0.028148014 0.69800001 -0.006119133 8.559763e-39 343 245
0.029455997 0.69999999 -0.0061366665 1.3456969e-38 344 245
-0.042087011 0.70599997 -0.0074271196 1.8162183e-38 286 246
-0.040849157 0.70599997 -0.0074271196 1.2999228e-38 287 246
-0.039611302 0.70599997 -0.0074271196 1.3081976e-38 288 246
-0.038373452 0.70599997 -0.0074271196 1.2251857e-38 289 246
-0.037030395 0.704 -0.0074060797 1.5282719e-38 290 246
-0.035796054 0.704 -0.0074060797 1.5374915e-38 291 246
-0.034414422 0.70099998 -0.0073745195 1.5743689e-38 292 246
-0.033137999 0.69999999 -0.0073639993 1.6204302e-38 293 246
-0.031819493 0.69800001 -0.0073429602 1.5931665e-38 294 246
-0.030507999 0.69599998 -0.0073219193 1.6023859e-38 295 246
-0.029287677 0.69599998 -0.0073219193 1.629937e-38 296 246
-0.027986705 0.69400001 -0.0073008798 1.6483761e-38 297 246
-0.026769891 0.69400001 -0.0073008798 1.6209338e-38 298 246
-0.02551626 0.69300002 -0.0072903596 1.6301533e-38 299 246
-0.024301201 0.69300002 -0.0072903596 1.620973e-38 300 246
-0.023019511 0.69099998 -0.0072693196 1.6025339e-38 301 246
-0.021776399 0.69 -0.0072587994 1.4735692e-38 302 246
-0.020566599 0.69 -0.0072587994 1.3905931e-38 303 246
-0.019356798 0.69 -0.0072587994 1.4731357e-38 304 246
-0.018146999 0.69 -0.0072587994 1.4731357e-38 305 246
-0.016888106 0.68800002 -0.0072377604 1.463736e-38 306 246
-0.015659019 0.68699998 -0.0072272392 1.4361134e-38 307 246
-0.014454478 0.68699998 -0.0072272392 1.4543729e-38 308 246
-0.013249939 0.68699998 -0.0072272392 1.4451535e-38 309 246
-0.012027865 0.68599999 -0.0072167199 1.4266788e-38 310 246
-0.010825079 0.68599999 -0.0072167199 1.4174594e-38 311 246
-0.0095942402 0.68400002 -0.0071956799 1.4266788e-38 312 246
-0.0083949603 0.68400002 -0.0071956799 1.4358983e-38 313 246
-0.0071956799 0.68400002 -0.0071956799 1.445118e-38 314 246
-0.0059964 0.68400002 -0.0071956799 1.445118e-38 315 246
-0.0047971201 0.68400002 -0.0071956799 1.43597e-38 316 246
-0.00359784 0.68400002 -0.0071956799 1.4083476e-38 317 246
-0.0023985601 0.68400002 -0.0071956799 1.389837e-38 318 246
-0.00119928 0.68400002 -0.0071956799 1.3529234e-38 319 246
0 0.68599999 -0.0072167199 1.3894424e-38 320 246
0.0012027866 0.68599999 -0.0072167199 1.3802229e-38 321 246
0.0024055731 0.68599999 -0.0072167199 1.3250858e-38 322 246
0.00360836 0.68599999 -0.0072167199 1.3250858e-38 323 246
0.0048111463 0.68599999 -0.0072167199 1.2882441e-38 324 246
0.0060139326 0.68599999 -0.0072167199 1.2606216e-38 325 246
0.0072167199 0.68599999 -0.0072167199 1.2053768e-38 326 246
0.0084195063 0.68599999 -0.0072167199 1.2238156e-38 327 246
0.0096363192 0.68699998 -0.0072272392 1.2422903e-38 328 246
0.010840859 0.68699998 -0.0072272392 1.2515097e-38 329 246
0.012045399 0.68699998 -0.0072272392 1.2332144e-38 330 246
0.013249939 0.68699998 -0.0072272392 1.2609087e-38 331 246
0.014475521 0.68800002 -0.0072377604 1.2333959e-38 332 246
0.015727401 0.69 -0.0072587994 1.251835e-38 333 246
0.0169372 0.69 -0.0072587994 1.2335769e-38 334 246
0.0181733 0.69099998 -0.0072693196 1.2520521e-38 335 246
0.019384852 0.69099998 -0.0072693196 1.2244306e-38 336 246
0.020596405 0.69099998 -0.0072693196 1.2336502e-38 337 246
0.021871079 0.69300002 -0.0072903596 1.187626e-38 338 246
0.02308614 0.69300002 -0.0072903596 1.1784062e-38 339 246
0.024336265 0.69400001 -0.0073008798 1.123341e-38 340 246
0.025700359 0.69800001 -0.0073429602 1.123341e-38 341 246
0.026924185 0.69800001 -0.0073429602 1.0862116e-38 342 246
0.028228667 0.69999999 -0.0073639993 9.5713772e-39 343 246
0.029455997 0.69999999 -0.0073639993 1.1887824e-38 344 246
0.030727165 0.70099998 -0.0073745195 1.6681999e-38 345 246
-0.042087011 0.70599997 -0.0086649731 1.7151609e-38 286 247
-0.040849157 0.70599997 -0.0086649731 1.0329131e-38 287 247
-0.039611302 0.70599997 -0.0086649731 1.3074042e-38 288 247
-0.038264744 0.704 -0.0086404262 1.3903802e-38 289 247
-0.037030395 0.704 -0.0086404262 1.5099767e-38 290 247
-0.035745207 0.70300001 -0.0086281532 1.5192322e-38 291 247
-0.034365334 0.69999999 -0.0085913334 1.54689e-38 292 247
-0.033043321 0.69800001 -0.0085667865 1.5745843e-38 293 247
-0.03177391 0.69700003 -0.0085545136 1.5562896e-38 294 247
-0.030507999 0.69599998 -0.0085422397 1.5747289e-38 295 247
-0.029203519 0.69400001 -0.0085176928 1.5839137e-38 296 247
-0.027986705 0.69400001 -0.0085176928 1.6115364e-38 297 247
-0.026769891 0.69400001 -0.0085176928 1.5749458e-38 298 247
-0.02551626 0.69300002 -0.0085054198 1.5657263e-38 299 247
-0.024301201 0.69300002 -0.0085054198 1.5749105e-38 300 247
-0.022986198 0.69 -0.0084686 1.5379964e-38 301 247
-0.021713281 0.68800002 -0.0084440531 1.4826074e-38 302 247
-0.020506985 0.68800002 -0.0084440531 1.3996312e-38 303 247
-0.019300694 0.68800002 -0.0084440531 1.4271471e-38 304 247
-0.018068098 0.68699998 -0.0084317802 1.4087438e-38 305 247
-0.01686356 0.68699998 -0.0084317802 1.4361148e-38 306 247
-0.015659019 0.68699998 -0.0084317802 1.4268953e-38 307 247
-0.014454478 0.68699998 -0.0084317802 1.4358982e-38 308 247
-0.013249939 0.68699998 -0.0084317802 1.4266788e-38 309 247
-0.012027865 0.68599999 -0.0084195063 1.4083117e-38 310 247
-0.01079352 0.68400002 -0.0083949603 1.4083117e-38 311 247
-0.0095942402 0.68400002 -0.0083949603 1.408312e-38 312 247
-0.0083949603 0.68400002 -0.0083949603 1.4175315e-38 313 247
-0.0071956799 0.68400002 -0.0083949603 1.4083485e-38 314 247
-0.0059964 0.68400002 -0.0083949603 1.399129e-38 315 247
-0.0047971201 0.68400002 -0.0083949603 1.3899097e-38 316 247
-0.00359784 0.68400002 -0.0083949603 1.3530316e-38 317 247
-0.0023985601 0.68400002 -0.0083949603 1.3528158e-38 318 247
-0.00119928 0.68400002 -0.0083949603 1.3435964e-38 319 247
0 0.68599999 -0.0084195063 1.3343769e-38 320 247
0.0012027866 0.68599999 -0.0084195063 1.3251575e-38 321 247
0.0024055731 0.68599999 -0.0084195063 1.3067904e-38 322 247
0.00360836 0.68599999 -0.0084195063 1.297571e-38 323 247
0.0048111463 0.68599999 -0.0084195063 1.2882798e-38 324 247
0.0060139326 0.68599999 -0.0084195063 1.2698051e-38 325 247
0.0072167199 0.68599999 -0.0084195063 1.2605498e-38 326 247
0.0084195063 0.68599999 -0.0084195063 1.2605498e-38 327 247
0.0096222926 0.68599999 -0.0084195063 1.2514021e-38 328 247
0.010825079 0.68599999 -0.0084195063 1.2514021e-38 329 247
0.012027865 0.68599999 -0.0084195063 1.2331438e-38 330 247
0.013249939 0.68699998 -0.0084317802 1.2608385e-38 331 247
0.014454478 0.68699998 -0.0084317802 1.2425085e-38 332 247
0.015681813 0.68800002 -0.0084440531 1.2701312e-38 333 247
0.0169372 0.69 -0.0084686 1.2335775e-38 334 247
0.0181733 0.69099998 -0.008480873 1.2427972e-38 335 247
0.019384852 0.69099998 -0.008480873 1.2244669e-38 336 247
0.020596405 0.69099998 -0.008480873 1.2060638e-38 337 247
0.021871079 0.69300002 -0.0085054198 1.1968445e-38 338 247
0.02308614 0.69300002 -0.0085054198 1.187589e-38 339 247
0.024336265 0.69400001 -0.0085176928 1.1417791e-38 340 247
0.025700359 0.69800001 -0.0085667865 1.1325237e-38 341 247
0.026924185 0.69800001 -0.0085667865 1.077172e-38 342 247
0.028228667 0.69999999 -0.0085913334 9.2962294e-39 343 247
0.029498078 0.70099998 -0.0086036054 1.0501298e-38 344 247
0.030727165 0.70099998 -0.0086036054 1.511108e-38 345 247
0.031956252 0.70099998 -0.0086036054 1.72424e-38 346 247
-0.043324865 0.70599997 -0.0099028256 1.770266e-38 285 248
-0.042087011 0.70599997 -0.0099028256 1.6320031e-38 286 248
-0.040733438 0.704 -0.0098747732 9.0365758e-39 287 248
-0.039499093 0.704 -0.0098747732 1.3993104e-38 288 248
-0.038264744 0.704 -0.0098747732 1.4638474e-38 289 248
-0.036977798 0.70300001 -0.0098607466 1.4914659e-38 290 248
-0.035643511 0.70099998 -0.0098326923 1.5099406e-38 291 248
-0.034365334 0.69999999 -0.0098186666 1.5376347e-38 292 248
-0.03299598 0.69700003 -0.0097765867 1.5560736e-38 293 248
-0.03177391 0.69700003 -0.0097765867 1.5561096e-38 294 248
-0.030507999 0.69599998 -0.0097625591 1.5653291e-38 295 248
-0.029203519 0.69400001 -0.0097345067 1.5286682e-38 296 248
-0.027986705 0.69400001 -0.0097345067 1.5562909e-38 297 248
-0.026769891 0.69400001 -0.0097345067 1.5104089e-38 298 248
-0.02551626 0.69300002 -0.0097204801 1.4827143e-38 299 248
-0.024231065 0.69099998 -0.0096924258 1.473458e-38 300 248
-0.022986198 0.69 -0.0096783992 1.4273604e-38 301 248
-0.021713281 0.68800002 -0.0096503468 1.4455122e-38 302 248
-0.020506985 0.68800002 -0.0096503468 1.4086704e-38 303 248
-0.019272638 0.68699998 -0.0096363192 1.4362211e-38 304 248
-0.018068098 0.68699998 -0.0096363192 1.4177822e-38 305 248
-0.016839013 0.68599999 -0.0096222926 1.445297e-38 306 248
-0.015636226 0.68599999 -0.0096222926 1.4176387e-38 307 248
-0.01443344 0.68599999 -0.0096222926 1.4267505e-38 308 248
-0.01319208 0.68400002 -0.0095942402 1.4175311e-38 309 248
-0.0119928 0.68400002 -0.0095942402 1.4082758e-38 310 248
-0.01079352 0.68400002 -0.0095942402 1.4082758e-38 311 248
-0.0095802136 0.68300003 -0.0095802136 1.3991281e-38 312 248
-0.0083826864 0.68300003 -0.0095802136 1.3991281e-38 313 248
-0.0071851597 0.68300003 -0.0095802136 1.3898728e-38 314 248
-0.0059876335 0.68300003 -0.0095802136 1.3529951e-38 315 248
-0.0047901068 0.68300003 -0.0095802136 1.3712546e-38 316 248
-0.0035925799 0.68300003 -0.0095802136 1.3528158e-38 317 248
-0.0023950534 0.68300003 -0.0095802136 1.3435246e-38 318 248
-0.0011975267 0.68300003 -0.0095802136 1.3250499e-38 319 248
0 0.68400002 -0.0095942402 1.3250499e-38 320 248
0.00119928 0.68400002 -0.0095942402 1.3342693e-38 321 248
0.0024055731 0.68599999 -0.0096222926 1.3067545e-38 322 248
0.00360836 0.68599999 -0.0096222926 1.2883157e-38 323 248
0.0048111463 0.68599999 -0.0096222926 1.2789887e-38 324 248
0.0060139326 0.68599999 -0.0096222926 1.2605139e-38 325 248
0.0071956799 0.68400002 -0.0095942402 1.2512586e-38 326 248
0.0083949603 0.68400002 -0.0095942402 1.2605139e-38 327 248
0.0096222926 0.68599999 -0.0096222926 1.2512586e-38 328 248
0.010825079 0.68599999 -0.0096222926 1.2604781e-38 329 248
0.012027865 0.68599999 -0.0096222926 1.2421835e-38 330 248
0.013230653 0.68599999 -0.0096222926 1.2514031e-38 331 248
0.014454478 0.68699998 -0.0096363192 1.2422933e-38 332 248
0.015681813 0.68800002 -0.0096503468 1.2883911e-38 333 248
0.016888106 0.68800002 -0.0096503468 1.2149953e-38 334 248
0.018146999 0.69 -0.0096783992 1.2334703e-38 335 248
0.019356798 0.69 -0.0096783992 1.2335067e-38 336 248
0.020596405 0.69099998 -0.0096924258 1.2335067e-38 337 248
0.021871079 0.69300002 -0.0097204801 1.1785493e-38 338 248
0.02308614 0.69300002 -0.0097204801 1.1878048e-38 339 248
0.0244064 0.69599998 -0.0097625591 1.1601468e-38 340 248
0.025700359 0.69800001 -0.0097906133 1.1417435e-38 341 248
0.027001332 0.69999999 -0.0098186666 1.1139426e-38 342 248
0.028228667 0.69999999 -0.0098186666 1.021711e-38 343 248
0.029455997 0.69999999 -0.0098186666 8.9339714e-39 344 248
0.030727165 0.70099998 -0.0098326923 1.3451557e-38 345 248
0.031956252 0.70099998 -0.0098326923 1.72406e-38 346 248
0.03318534 0.70099998 -0.0098326923 1.7517545e-38 347 248
-0.043324865 0.70599997 -0.011140679 1.7333873e-38 285 249
-0.042087011 0.70599997 -0.011140679 1.6224574e-38 286 249
-0.040733438 0.704 -0.011109119 9.033315e-39 287 249
-0.039499093 0.704 -0.011109119 1.390054e-38 288 249
-0.038210396 0.70300001 -0.01109334 1.473066e-38 289 249
-0.036872596 0.70099998 -0.011061779 1.4915026e-38 290 249
-0.035592664 0.69999999 -0.011045999 1.4915026e-38 291 249
-0.034267146 0.69800001 -0.01101444 1.5100123e-38 292 249
-0.03299598 0.69700003 -0.01099866 1.528487e-38 293 249
