# .PCD v.7 - Point Cloud Data file format
FIELDS x y z rgb imX imY
SIZE 4 4 4 4 4 4
TYPE F F F F F F
COUNT 1 1 1 1 1 1
WIDTH 832
HEIGHT 1
VIEWPOINT 0 0 0 1 0 0 0
POINTS 832
DATA ascii
-0.012238266 0.69800001 -0.039162453 1.5373919e-38 310 272
-0.01101444 0.69800001 -0.039162453 1.5834538e-38 311 272
-0.0097906133 0.69800001 -0.039162453 1.6110755e-38 312 272
-0.0085667865 0.69800001 -0.039162453 1.5926724e-38 313 272
-0.0073429602 0.69800001 -0.039162453 1.6293346e-38 314 272
-0.006119133 0.69800001 -0.039162453 1.6109315e-38 315 272
-0.0048953067 0.69800001 -0.039162453 1.620043e-38 316 272
-0.0036714801 0.69800001 -0.039162453 1.6385181e-38 317 272
-0.0024441467 0.69700003 -0.039106347 1.5926368e-38 318 272
-0.0012220733 0.69700003 -0.039106347 1.5834172e-38 319 272
0 0.69599998 -0.039050236 1.610933e-38 320 272
0.0012203199 0.69599998 -0.039050236 1.5924937e-38 321 272
0.0024336267 0.69400001 -0.038938027 1.5832023e-38 322 272
0.0036504399 0.69400001 -0.038938027 1.5832023e-38 323 272
0.0048672534 0.69400001 -0.038938027 1.5557231e-38 324 272
0.0060840664 0.69400001 -0.038938027 1.5557231e-38 325 272
0.0073008798 0.69400001 -0.038938027 1.5833819e-38 326 272
0.0085176928 0.69400001 -0.038938027 1.5926374e-38 327 272
0.0097345067 0.69400001 -0.038938027 1.6202951e-38 328 272
0.01095132 0.69400001 -0.038938027 1.6202951e-38 329 272
0.012168133 0.69400001 -0.038938027 1.6110384e-38 330 272
0.013384946 0.69400001 -0.038938027 1.6018188e-38 331 272
0.01460176 0.69400001 -0.038938027 1.620077e-38 332 272
0.015818574 0.69400001 -0.038938027 1.5923825e-38 333 272
0.017035386 0.69400001 -0.038938027 1.6106051e-38 334 272
0.018304799 0.69599998 -0.039050236 1.592166e-38 335 272
0.019525118 0.69599998 -0.039050236 1.5921657e-38 336 272
0.020745439 0.69599998 -0.039050236 1.5921657e-38 337 272
0.02199732 0.69700003 -0.039106347 1.5646871e-38 338 272
0.023252707 0.69800001 -0.039162453 1.5646871e-38 339 272
0.024476532 0.69800001 -0.039162453 1.5371726e-38 340 272
0.025700359 0.69800001 -0.039162453 1.5463921e-38 341 272
0.027001332 0.69999999 -0.039274666 1.5372807e-38 342 272
0.028268991 0.70099998 -0.039330769 1.5465003e-38 343 272
0.029498078 0.70099998 -0.039330769 1.5282055e-38 344 272
0.030727165 0.70099998 -0.039330769 1.5097663e-38 345 272
0.032047424 0.70300001 -0.039442986 1.5280978e-38 346 272
0.033280019 0.70300001 -0.039442986 1.5004392e-38 347 272
0.034414422 0.70099998 -0.039330769 1.5004054e-38 348 272
0.035643511 0.70099998 -0.039330769 1.5004054e-38 349 272
0.036872596 0.70099998 -0.039330769 1.4180105e-38 350 272
-0.032640055 0.71600002 -0.041427758 1.3091058e-38 294 273
-0.031296998 0.71399999 -0.041312039 1.0140796e-38 295 273
-0.030045118 0.71399999 -0.041312039 1.2242912e-38 296 273
-0.028631933 0.70999998 -0.041080594 1.3073031e-38 297 273
-0.027309919 0.708 -0.040964879 1.353327e-38 298 273
-0.026068559 0.708 -0.040964879 1.3441073e-38 299 273
-0.024757065 0.70599997 -0.040849157 1.371478e-38 300 273
-0.023452586 0.704 -0.040733438 1.3438553e-38 301 273
-0.022218239 0.704 -0.040733438 1.3622587e-38 302 273
-0.020983893 0.704 -0.040733438 1.3714783e-38 303 273
-0.019749546 0.704 -0.040733438 1.3531117e-38 304 273
-0.018488899 0.70300001 -0.040675577 1.3807344e-38 305 273
-0.017256306 0.70300001 -0.040675577 1.4359805e-38 306 273
-0.015978126 0.70099998 -0.040559858 1.4636393e-38 307 273
-0.014727999 0.69999999 -0.040502001 1.4911891e-38 308 273
-0.013500666 0.69999999 -0.040502001 1.5188118e-38 309 273
-0.012238266 0.69800001 -0.040386278 1.5374284e-38 310 273
-0.01099866 0.69700003 -0.040328421 1.5650873e-38 311 273
-0.0097765867 0.69700003 -0.040328421 1.6293351e-38 312 273
-0.0085422397 0.69599998 -0.040270556 1.6293351e-38 313 273
-0.0073219193 0.69599998 -0.040270556 1.6110039e-38 314 273
-0.0061015999 0.69599998 -0.040270556 1.6017485e-38 315 273
-0.0048812795 0.69599998 -0.040270556 1.5741622e-38 316 273
-0.0036609597 0.69599998 -0.040270556 1.5833819e-38 317 273
-0.0024336267 0.69400001 -0.040154841 1.5926737e-38 318 273
-0.0012168133 0.69400001 -0.040154841 1.5742345e-38 319 273
0 0.69400001 -0.040154841 1.5464329e-38 320 273
0.0012168133 0.69400001 -0.040154841 1.5464329e-38 321 273
0.0024336267 0.69400001 -0.040154841 1.5187396e-38 322 273
0.0036504399 0.69400001 -0.040154841 1.5187396e-38 323 273
0.0048672534 0.69400001 -0.040154841 1.5187752e-38 324 273
0.0060840664 0.69400001 -0.040154841 1.5463979e-38 325 273
0.0073008798 0.69400001 -0.040154841 1.5465764e-38 326 273
0.0085176928 0.69400001 -0.040154841 1.555796e-38 327 273
0.0097345067 0.69400001 -0.040154841 1.5742693e-38 328 273
0.01095132 0.69400001 -0.040154841 1.5742693e-38 329 273
0.012168133 0.69400001 -0.040154841 1.5741607e-38 330 273
0.013384946 0.69400001 -0.040154841 1.5557216e-38 331 273
0.01460176 0.69400001 -0.040154841 1.5555066e-38 332 273
0.015818574 0.69400001 -0.040154841 1.5186285e-38 333 273
0.017035386 0.69400001 -0.040154841 1.5095158e-38 334 273
0.018304799 0.69599998 -0.040270556 1.5095158e-38 335 273
0.019525118 0.69599998 -0.040270556 1.5370651e-38 336 273
0.020745439 0.69599998 -0.040270556 1.5463205e-38 337 273
0.021965759 0.69599998 -0.040270556 1.5187695e-38 338 273
0.023186078 0.69599998 -0.040270556 1.5371726e-38 339 273
0.024441468 0.69700003 -0.040328421 1.5005464e-38 340 273
0.025700359 0.69800001 -0.040386278 1.4913268e-38 341 273
0.027001332 0.69999999 -0.040502001 1.5096588e-38 342 273
0.028228667 0.69999999 -0.040502001 1.5373175e-38 343 273
0.029455997 0.69999999 -0.040502001 1.509803e-38 344 273
0.030727165 0.70099998 -0.040559858 1.4913997e-38 345 273
0.032047424 0.70300001 -0.040675577 1.5005111e-38 346 273
0.033280019 0.70300001 -0.040675577 1.5005111e-38 347 273
0.034414422 0.70099998 -0.040559858 1.4912938e-38 348 273
0.035643511 0.70099998 -0.040559858 1.5189525e-38 349 273
0.036872596 0.70099998 -0.040559858 1.4638562e-38 350 273
-0.03389544 0.71600002 -0.042683143 1.8162915e-38 293 274
-0.032640055 0.71600002 -0.042683143 1.0230825e-38 294 274
-0.031253166 0.713 -0.042504307 9.3088677e-39 295 274
-0.030003037 0.713 -0.042504307 1.2516256e-38 296 274
-0.028631933 0.70999998 -0.042325463 1.3161626e-38 297 274
-0.027309919 0.708 -0.042206239 1.3622587e-38 298 274
-0.02603174 0.70700002 -0.042146627 1.3714783e-38 299 274
-0.024757065 0.70599997 -0.042087011 1.3622584e-38 300 274
-0.023452586 0.704 -0.041967787 1.3438553e-38 301 274
-0.022218239 0.704 -0.041967787 1.36215e-38 302 274
-0.020983893 0.704 -0.041967787 1.3805531e-38 303 274
-0.019749546 0.704 -0.041967787 1.3621865e-38 304 274
-0.018488899 0.70300001 -0.041908171 1.3714061e-38 305 274
-0.017256306 0.70300001 -0.041908171 1.4265073e-38 306 274
-0.015955333 0.69999999 -0.041729331 1.4817888e-38 307 274
-0.014727999 0.69999999 -0.041729331 1.5184149e-38 308 274
-0.013462093 0.69800001 -0.041610107 1.5645488e-38 309 274
-0.012238266 0.69800001 -0.041610107 1.5649073e-38 310 274
-0.01099866 0.69700003 -0.041550495 1.592602e-38 311 274
-0.0097625591 0.69599998 -0.041490879 1.620043e-38 312 274
-0.0085422397 0.69599998 -0.041490879 1.6108234e-38 313 274
-0.0073219193 0.69599998 -0.041490879 1.6014601e-38 314 274
-0.0061015999 0.69599998 -0.041490879 1.5830208e-38 315 274
-0.0048812795 0.69599998 -0.041490879 1.5829858e-38 316 274
-0.0036504399 0.69400001 -0.041371655 1.5922055e-38 317 274
-0.0024336267 0.69400001 -0.041371655 1.5922774e-38 318 274
-0.0012168133 0.69400001 -0.041371655 1.5646187e-38 319 274
0 0.69400001 -0.041371655 1.5554344e-38 320 274
0.0012168133 0.69400001 -0.041371655 1.5185203e-38 321 274
0.0024336267 0.69400001 -0.041371655 1.5186638e-38 322 274
0.0036504399 0.69400001 -0.041371655 1.5462865e-38 323 274
0.00486024 0.69300002 -0.041312039 1.5372824e-38 324 274
0.0060753003 0.69300002 -0.041312039 1.546502e-38 325 274
0.0073008798 0.69400001 -0.041371655 1.5558285e-38 326 274
0.0085176928 0.69400001 -0.041371655 1.5282058e-38 327 274
0.0097345067 0.69400001 -0.041371655 1.5831276e-38 328 274
0.01095132 0.69400001 -0.041371655 1.5831276e-38 329 274
0.012168133 0.69400001 -0.041371655 1.5647613e-38 330 274
0.013384946 0.69400001 -0.041371655 1.5463221e-38 331 274
0.01460176 0.69400001 -0.041371655 1.5370303e-38 332 274
0.015818574 0.69400001 -0.041371655 1.4909325e-38 333 274
0.017035386 0.69400001 -0.041371655 1.5002227e-38 334 274
0.0182522 0.69400001 -0.041371655 1.5002227e-38 335 274
0.019469013 0.69400001 -0.041371655 1.500258e-38 336 274
0.020685827 0.69400001 -0.041371655 1.5186611e-38 337 274
0.021902639 0.69400001 -0.041371655 1.5278811e-38 338 274
0.023186078 0.69599998 -0.041490879 1.5278811e-38 339 274
0.0244064 0.69599998 -0.041490879 1.5095859e-38 340 274
0.025700359 0.69800001 -0.041610107 1.5003663e-38 341 274
0.026924185 0.69800001 -0.041610107 1.5188057e-38 342 274
0.028228667 0.69999999 -0.041729331 1.5280253e-38 343 274
0.029455997 0.69999999 -0.041729331 1.5280975e-38 344 274
0.030727165 0.70099998 -0.041788943 1.5280975e-38 345 274
0.031956252 0.70099998 -0.041788943 1.5005111e-38 346 274
0.033280019 0.70300001 -0.041908171 1.5005111e-38 347 274
0.034414422 0.70099998 -0.041788943 1.4913291e-38 348 274
0.035643511 0.70099998 -0.041788943 1.5189878e-38 349 274
0.036872596 0.70099998 -0.041788943 1.4730029e-38 350 274
0.038101684 0.70099998 -0.041788943 1.7495898e-38 351 274
-0.033800758 0.71399999 -0.043815799 1.7056563e-38 293 275
-0.032548878 0.71399999 -0.043815799 9.3960257e-39 294 275
-0.031253166 0.713 -0.043754432 9.3960257e-39 295 275
-0.030003037 0.713 -0.043754432 1.2517691e-38 296 275
-0.028631933 0.70999998 -0.043570329 1.2978311e-38 297 275
-0.027309919 0.708 -0.043447599 1.334636e-38 298 275
-0.025994917 0.70599997 -0.043324865 1.334636e-38 299 275
-0.024686933 0.704 -0.043202132 1.3530026e-38 300 275
-0.023452586 0.704 -0.043202132 1.343747e-38 301 275
-0.02218668 0.70300001 -0.043140765 1.343747e-38 302 275
-0.020954086 0.70300001 -0.043140765 1.343747e-38 303 275
-0.019721493 0.70300001 -0.043140765 1.3436401e-38 304 275
-0.018488899 0.70300001 -0.043140765 1.3528596e-38 305 275
-0.017207211 0.70099998 -0.043018032 1.3990647e-38 306 275
-0.015955333 0.69999999 -0.042956665 1.4175039e-38 307 275
-0.01468592 0.69800001 -0.042833932 1.4451256e-38 308 275
-0.013462093 0.69800001 -0.042833932 1.4820039e-38 309 275
-0.012220734 0.69700003 -0.042772565 1.5281017e-38 310 275
-0.01099866 0.69700003 -0.042772565 1.5281017e-38 311 275
-0.0097625591 0.69599998 -0.042711195 1.5830222e-38 312 275
-0.0085422397 0.69599998 -0.042711195 1.5553994e-38 313 275
-0.0073008798 0.69400001 -0.042588469 1.5461796e-38 314 275
-0.0060840664 0.69400001 -0.042588469 1.5277404e-38 315 275
-0.0048672534 0.69400001 -0.042588469 1.5368528e-38 316 275
-0.0036504399 0.69400001 -0.042588469 1.5644755e-38 317 275
-0.00243012 0.69300002 -0.042527102 1.5369247e-38 318 275
-0.00121506 0.69300002 -0.042527102 1.5369247e-38 319 275
0 0.69300002 -0.042527102 1.5277401e-38 320 275
0.00121506 0.69300002 -0.042527102 1.5369597e-38 321 275
0.00243012 0.69300002 -0.042527102 1.4911849e-38 322 275
0.0036451798 0.69300002 -0.042527102 1.509624e-38 323 275
0.00486024 0.69300002 -0.042527102 1.4821814e-38 324 275
0.0060753003 0.69300002 -0.042527102 1.4821814e-38 325 275
0.0072903596 0.69300002 -0.042527102 1.5097307e-38 326 275
0.0085054198 0.69300002 -0.042527102 1.4636689e-38 327 275
0.0097204801 0.69300002 -0.042527102 1.5094437e-38 328 275
0.010935539 0.69300002 -0.042527102 1.5186991e-38 329 275
0.012150601 0.69300002 -0.042527102 1.5003691e-38 330 275
0.01336566 0.69300002 -0.042527102 1.4911496e-38 331 275
0.014580719 0.69300002 -0.042527102 1.5002597e-38 332 275
0.015795778 0.69300002 -0.042527102 1.49104e-38 333 275
0.01701084 0.69300002 -0.042527102 1.4634884e-38 334 275
0.0182522 0.69400001 -0.042588469 1.4634884e-38 335 275
0.019469013 0.69400001 -0.042588469 1.4726003e-38 336 275
0.020685827 0.69400001 -0.042588469 1.4818199e-38 337 275
0.021902639 0.69400001 -0.042588469 1.4726729e-38 338 275
0.023186078 0.69599998 -0.042711195 1.4726729e-38 339 275
0.0244064 0.69599998 -0.042711195 1.4635608e-38 340 275
0.025663542 0.69700003 -0.042772565 1.4727805e-38 341 275
0.026885614 0.69700003 -0.042772565 1.4819998e-38 342 275
0.028148014 0.69800001 -0.042833932 1.5004748e-38 343 275
0.029455997 0.69999999 -0.042956665 1.4912918e-38 344 275
0.030683333 0.69999999 -0.042956665 1.5005114e-38 345 275
0.031956252 0.70099998 -0.043018032 1.5004761e-38 346 275
0.03318534 0.70099998 -0.043018032 1.4912565e-38 347 275
0.034512613 0.70300001 -0.043140765 1.4820745e-38 348 275
0.035745207 0.70300001 -0.043140765 1.5096973e-38 349 275
0.036977798 0.70300001 -0.043140765 1.4545998e-38 350 275
0.038264744 0.704 -0.043202132 1.6758333e-38 351 275
-0.033800758 0.71399999 -0.045067675 1.5949866e-38 293 276
-0.032548878 0.71399999 -0.045067675 9.0243691e-39 294 276
-0.031296998 0.71399999 -0.045067675 9.6697385e-39 295 276
-0.030045118 0.71399999 -0.045067675 1.2700638e-38 296 276
-0.02855128 0.708 -0.044688959 1.2976865e-38 297 276
-0.027271347 0.70700002 -0.044625837 1.3161962e-38 298 276
-0.02592128 0.704 -0.044436477 1.3069766e-38 299 276
-0.024686933 0.704 -0.044436477 1.3343837e-38 300 276
-0.023419274 0.70300001 -0.04437336 1.3251641e-38 301 276
-0.02218668 0.70300001 -0.04437336 1.325236e-38 302 276
-0.020954086 0.70300001 -0.04437336 1.3344555e-38 303 276
-0.019721493 0.70300001 -0.04437336 1.3252007e-38 304 276
-0.018436298 0.70099998 -0.044247117 1.3344202e-38 305 276
-0.017182667 0.69999999 -0.044183996 1.3439275e-38 306 276
-0.015955333 0.69999999 -0.044183996 1.353147e-38 307 276
-0.01468592 0.69800001 -0.04405776 1.4449461e-38 308 276
-0.013462093 0.69800001 -0.04405776 1.4633494e-38 309 276
-0.012220734 0.69700003 -0.043994639 1.5368894e-38 310 276
-0.010982879 0.69599998 -0.043931518 1.5368894e-38 311 276
-0.0097345067 0.69400001 -0.043805279 1.5551474e-38 312 276
-0.0085176928 0.69400001 -0.043805279 1.5459277e-38 313 276
-0.0073008798 0.69400001 -0.043805279 1.5184117e-38 314 276
-0.0060840664 0.69400001 -0.043805279 1.5184117e-38 315 276
-0.0048672534 0.69400001 -0.043805279 1.509264e-38 316 276
-0.0036451798 0.69300002 -0.043742158 1.5277033e-38 317 276
-0.00243012 0.69300002 -0.043742158 1.5184483e-38 318 276
-0.00121506 0.69300002 -0.043742158 1.5184483e-38 319 276
0 0.69300002 -0.043742158 1.4910047e-38 320 276
0.00121506 0.69300002 -0.043742158 1.5186635e-38 321 276
0.00243012 0.69300002 -0.043742158 1.4727455e-38 322 276
0.0036451798 0.69300002 -0.043742158 1.4727455e-38 323 276
0.00486024 0.69300002 -0.043742158 1.4726746e-38 324 276
0.0060753003 0.69300002 -0.043742158 1.4726746e-38 325 276
0.0072903596 0.69300002 -0.043742158 1.5001526e-38 326 276
0.0085054198 0.69300002 -0.043742158 1.4632385e-38 327 276
0.0097204801 0.69300002 -0.043742158 1.4816776e-38 328 276
0.010935539 0.69300002 -0.043742158 1.5001526e-38 329 276
0.012150601 0.69300002 -0.043742158 1.4726381e-38 330 276
0.01336566 0.69300002 -0.043742158 1.4726381e-38 331 276
0.014580719 0.69300002 -0.043742158 1.4725297e-38 332 276
0.015795778 0.69300002 -0.043742158 1.4541266e-38 333 276
0.01701084 0.69300002 -0.043742158 1.4726003e-38 334 276
0.0182522 0.69400001 -0.043805279 1.4541972e-38 335 276
0.019469013 0.69400001 -0.043805279 1.4541969e-38 336 276
0.020685827 0.69400001 -0.043805279 1.4541969e-38 337 276
0.021902639 0.69400001 -0.043805279 1.4541619e-38 338 276
0.023186078 0.69599998 -0.043931518 1.472565e-38 339 276
0.0244064 0.69599998 -0.043931518 1.4451221e-38 340 276
0.025663542 0.69700003 -0.043994639 1.4451221e-38 341 276
0.026885614 0.69700003 -0.043994639 1.4727449e-38 342 276
0.028148014 0.69800001 -0.04405776 1.4912199e-38 343 276
0.029455997 0.69999999 -0.044183996 1.4820016e-38 344 276
0.030683333 0.69999999 -0.044183996 1.4912212e-38 345 276
0.031956252 0.70099998 -0.044247117 1.4912215e-38 346 276
0.03318534 0.70099998 -0.044247117 1.4820019e-38 347 276
0.034414422 0.70099998 -0.044247117 1.4728549e-38 348 276
0.035643511 0.70099998 -0.044247117 1.4820745e-38 349 276
0.037030395 0.704 -0.044436477 1.4637465e-38 350 276
0.038264744 0.704 -0.044436477 1.6296986e-38 351 276
-0.033753417 0.713 -0.046254687 1.5027187e-38 293 277
-0.032503292 0.713 -0.046254687 8.9300057e-39 294 277
-0.031253166 0.713 -0.046254687 9.5753751e-39 295 277
-0.029876797 0.70999998 -0.046060063 1.2150334e-38 296 277
-0.02855128 0.708 -0.045930319 1.2426562e-38 297 277
-0.027271347 0.70700002 -0.045865446 1.279354e-38 298 277
-0.02592128 0.704 -0.045670826 1.2608788e-38 299 277
-0.024686933 0.704 -0.045670826 1.2882498e-38 300 277
-0.023419274 0.70300001 -0.04560595 1.2975053e-38 301 277
-0.022123558 0.70099998 -0.045476202 1.3159445e-38 302 277
-0.020894472 0.70099998 -0.045476202 1.3159445e-38 303 277
-0.019665385 0.70099998 -0.045476202 1.297578e-38 304 277
-0.018409999 0.69999999 -0.04541133 1.3159811e-38 305 277
-0.017182667 0.69999999 -0.04541133 1.3160896e-38 306 277
-0.015909746 0.69800001 -0.045281585 1.3437122e-38 307 277
-0.01468592 0.69800001 -0.045281585 1.3989209e-38 308 277
-0.013442807 0.69700003 -0.045216713 1.417324e-38 309 277
-0.012220734 0.69700003 -0.045216713 1.4999388e-38 310 277
-0.010982879 0.69599998 -0.045151837 1.4999388e-38 311 277
-0.0097345067 0.69400001 -0.045022093 1.4999373e-38 312 277
-0.0085176928 0.69400001 -0.045022093 1.5091568e-38 313 277
-0.0073008798 0.69400001 -0.045022093 1.5000079e-38 314 277
-0.0060753003 0.69300002 -0.044957221 1.5000079e-38 315 277
-0.00486024 0.69300002 -0.044957221 1.4817127e-38 316 277
-0.0036451798 0.69300002 -0.044957221 1.4724931e-38 317 277
-0.00243012 0.69300002 -0.044957221 1.4907896e-38 318 277
-0.00121506 0.69300002 -0.044957221 1.4907896e-38 319 277
0 0.69300002 -0.044957221 1.4725302e-38 320 277
0.00121506 0.69300002 -0.044957221 1.4725302e-38 321 277
0.00243012 0.69300002 -0.044957221 1.4448717e-38 322 277
0.0036451798 0.69300002 -0.044957221 1.4541271e-38 323 277
0.00486024 0.69300002 -0.044957221 1.4540562e-38 324 277
0.0060753003 0.69300002 -0.044957221 1.4448367e-38 325 277
0.0072903596 0.69300002 -0.044957221 1.444872e-38 326 277
0.0085054198 0.69300002 -0.044957221 1.444872e-38 327 277
0.0097204801 0.69300002 -0.044957221 1.4356874e-38 328 277
0.010935539 0.69300002 -0.044957221 1.444907e-38 329 277
0.012150601 0.69300002 -0.044957221 1.4541622e-38 330 277
0.013327086 0.69099998 -0.044827472 1.4541622e-38 331 277
0.014538639 0.69099998 -0.044827472 1.454054e-38 332 277
0.015750192 0.69099998 -0.044827472 1.454054e-38 333 277
0.01701084 0.69300002 -0.044957221 1.4357581e-38 334 277
0.0182522 0.69400001 -0.045022093 1.4357581e-38 335 277
0.019469013 0.69400001 -0.045022093 1.4265025e-38 336 277
0.020685827 0.69400001 -0.045022093 1.4357581e-38 337 277
0.021902639 0.69400001 -0.045022093 1.4357941e-38 338 277
0.023186078 0.69599998 -0.045151837 1.4357941e-38 339 277
0.0244064 0.69599998 -0.045151837 1.4266824e-38 340 277
0.025626717 0.69599998 -0.045151837 1.4359379e-38 341 277
0.026847038 0.69599998 -0.045151837 1.4359388e-38 342 277
0.028148014 0.69800001 -0.045281585 1.4451943e-38 343 277
0.029371841 0.69800001 -0.045281585 1.4543434e-38 344 277
0.030683333 0.69999999 -0.04541133 1.4635629e-38 345 277
0.031910665 0.69999999 -0.04541133 1.4635629e-38 346 277
0.03318534 0.70099998 -0.045476202 1.4635629e-38 347 277
0.034414422 0.70099998 -0.045476202 1.4453039e-38 348 277
0.035643511 0.70099998 -0.045476202 1.4729265e-38 349 277
0.037030395 0.704 -0.045670826 1.473073e-38 350 277
0.038264744 0.704 -0.045670826 1.6113664e-38 351 277
0.039611302 0.70599997 -0.04580057 1.4833773e-38 352 277
-0.033753417 0.713 -0.047504812 1.4104858e-38 293 278
-0.032503292 0.713 -0.047504812 9.4799242e-39 294 278
-0.031253166 0.713 -0.047504812 1.0309325e-38 295 278
-0.029876797 0.70999998 -0.047304932 1.2333996e-38 296 278
-0.02855128 0.708 -0.047171678 1.2241801e-38 297 278
-0.027271347 0.70700002 -0.047105055 1.251659e-38 298 278
-0.025994917 0.70599997 -0.047038425 1.2424394e-38 299 278
-0.024686933 0.704 -0.046905171 1.2423678e-38 300 278
-0.023419274 0.70300001 -0.046838548 1.2423678e-38 301 278
-0.022123558 0.70099998 -0.046705291 1.2792101e-38 302 278
-0.020894472 0.70099998 -0.046705291 1.2884656e-38 303 278
-0.019637333 0.69999999 -0.046638668 1.288358e-38 304 278
-0.018409999 0.69999999 -0.046638668 1.2975777e-38 305 278
-0.017133573 0.69800001 -0.046505414 1.2973993e-38 306 278
-0.015909746 0.69800001 -0.046505414 1.3158745e-38 307 278
-0.01468592 0.69800001 -0.046505414 1.3711911e-38 308 278
-0.013442807 0.69700003 -0.046438783 1.3896663e-38 309 278
-0.0122032 0.69599998 -0.046372157 1.4724233e-38 310 278
-0.010982879 0.69599998 -0.046372157 1.4724233e-38 311 278
-0.0097345067 0.69400001 -0.046238903 1.4908246e-38 312 278
-0.0085176928 0.69400001 -0.046238903 1.4724215e-38 313 278
-0.0073008798 0.69400001 -0.046238903 1.4632017e-38 314 278
-0.0060753003 0.69300002 -0.04617228 1.4632017e-38 315 278
-0.00486024 0.69300002 -0.04617228 1.4632738e-38 316 278
-0.0036451798 0.69300002 -0.04617228 1.4356151e-38 317 278
-0.00243012 0.69300002 -0.04617228 1.4539113e-38 318 278
-0.00121506 0.69300002 -0.04617228 1.4539113e-38 319 278
0 0.69300002 -0.04617228 1.4355451e-38 320 278
0.00121506 0.69300002 -0.04617228 1.4539483e-38 321 278
0.00243012 0.69300002 -0.04617228 1.4355448e-38 322 278
0.0036451798 0.69300002 -0.04617228 1.4355448e-38 323 278
0.00486024 0.69300002 -0.04617228 1.4173212e-38 324 278
0.0060753003 0.69300002 -0.04617228 1.4173212e-38 325 278
0.0072903596 0.69300002 -0.04617228 1.4173562e-38 326 278
0.0085054198 0.69300002 -0.04617228 1.4081365e-38 327 278
0.0097204801 0.69300002 -0.04617228 1.4265028e-38 328 278
0.01090398 0.69099998 -0.046039023 1.4265028e-38 329 278
0.012097999 0.69 -0.045972396 1.4265028e-38 330 278
0.0133078 0.69 -0.045972396 1.4265028e-38 331 278
0.014517599 0.69 -0.045972396 1.4081716e-38 332 278
0.015750192 0.69099998 -0.046039023 1.398952e-38 333 278
0.01701084 0.69300002 -0.04617228 1.4172832e-38 334 278
0.018225901 0.69300002 -0.04617228 1.4172832e-38 335 278
0.019469013 0.69400001 -0.046238903 1.3989517e-38 336 278
0.020685827 0.69400001 -0.046238903 1.4081713e-38 337 278
0.021902639 0.69400001 -0.046238903 1.4082785e-38 338 278
0.023119451 0.69400001 -0.046238903 1.4082785e-38 339 278
0.024336265 0.69400001 -0.046238903 1.4357941e-38 340 278
0.025626717 0.69599998 -0.046372157 1.4357941e-38 341 278
0.026847038 0.69599998 -0.046372157 1.426684e-38 342 278
0.028107686 0.69700003 -0.046438783 1.4359394e-38 343 278
0.029371841 0.69800001 -0.046505414 1.4267568e-38 344 278
0.030595668 0.69800001 -0.046505414 1.445196e-38 345 278
0.031819493 0.69800001 -0.046505414 1.4360843e-38 346 278
0.033137999 0.69999999 -0.046638668 1.4360843e-38 347 278
0.034414422 0.70099998 -0.046705291 1.4453404e-38 348 278
0.035745207 0.70300001 -0.046838548 1.4637796e-38 349 278
0.037135597 0.70599997 -0.047038425 1.473073e-38 350 278
0.038373452 0.70599997 -0.047038425 1.6021469e-38 351 278
0.039611302 0.70599997 -0.047038425 1.455465e-38 352 278
0.040907022 0.70700002 -0.047105055 1.3171355e-38 353 278
-0.035052639 0.71399999 -0.048823316 1.6686333e-38 292 279
-0.033800758 0.71399999 -0.048823316 1.3551683e-38 293 279
-0.032503292 0.713 -0.048754938 1.0861778e-38 294 279
-0.031253166 0.713 -0.048754938 1.1138367e-38 295 279
-0.029918881 0.71100003 -0.048618179 1.2699539e-38 296 279
-0.028631933 0.70999998 -0.048549797 1.2699539e-38 297 279
-0.027271347 0.70700002 -0.048344657 1.2332552e-38 298 279
-0.02592128 0.704 -0.048139516 1.2148521e-38 299 279
-0.024686933 0.704 -0.048139516 1.2422952e-38 300 279
-0.023352645 0.70099998 -0.047934376 1.2515148e-38 301 279
-0.022091998 0.69999999 -0.047865998 1.2791735e-38 302 279
-0.020864666 0.69999999 -0.047865998 1.2791735e-38 303 279
-0.019637333 0.69999999 -0.047865998 1.2974684e-38 304 279
-0.0183574 0.69800001 -0.047729239 1.2974684e-38 305 279
-0.017133573 0.69800001 -0.047729239 1.2881417e-38 306 279
-0.015909746 0.69800001 -0.047729239 1.3157643e-38 307 279
-0.01468592 0.69800001 -0.047729239 1.3986315e-38 308 279
-0.013442807 0.69700003 -0.047660861 1.453913e-38 309 279
-0.0122032 0.69599998 -0.047592476 1.4632019e-38 310 279
-0.01095132 0.69400001 -0.047455717 1.4632019e-38 311 279
-0.0097345067 0.69400001 -0.047455717 1.4815682e-38 312 279
-0.0085176928 0.69400001 -0.047455717 1.4723485e-38 313 279
-0.0072903596 0.69300002 -0.047387339 1.4630571e-38 314 279
-0.0060753003 0.69300002 -0.047387339 1.4630571e-38 315 279
-0.00486024 0.69300002 -0.047387339 1.4446905e-38 316 279
-0.0036451798 0.69300002 -0.047387339 1.4354709e-38 317 279
-0.00243012 0.69300002 -0.047387339 1.4445473e-38 318 279
-0.00121506 0.69300002 -0.047387339 1.4445473e-38 319 279
0 0.69300002 -0.047387339 1.4262155e-38 320 279
0.00121506 0.69300002 -0.047387339 1.4354709e-38 321 279
0.00243012 0.69300002 -0.047387339 1.4355423e-38 322 279
0.0036451798 0.69300002 -0.047387339 1.4447977e-38 323 279
0.00486024 0.69300002 -0.047387339 1.4264675e-38 324 279
0.0060753003 0.69300002 -0.047387339 1.4264675e-38 325 279
0.0072903596 0.69300002 -0.047387339 1.4263956e-38 326 279
0.0085054198 0.69300002 -0.047387339 1.4263956e-38 327 279
0.0096924258 0.69099998 -0.047250576 1.4264306e-38 328 279
0.01090398 0.69099998 -0.047250576 1.4264306e-38 329 279
0.012097999 0.69 -0.047182199 1.4264659e-38 330 279
0.0133078 0.69 -0.047182199 1.4172464e-38 331 279
0.014517599 0.69 -0.047182199 1.4080268e-38 332 279
0.015750192 0.69099998 -0.047250576 1.4172464e-38 333 279
0.01701084 0.69300002 -0.047387339 1.4079912e-38 334 279
0.018225901 0.69300002 -0.047387339 1.4079912e-38 335 279
0.01944096 0.69300002 -0.047387339 1.3896953e-38 336 279
0.020685827 0.69400001 -0.047455717 1.417318e-38 337 279
0.021902639 0.69400001 -0.047455717 1.3990223e-38 338 279
0.023119451 0.69400001 -0.047455717 1.3990223e-38 339 279
0.024336265 0.69400001 -0.047455717 1.4173185e-38 340 279
0.025553079 0.69400001 -0.047455717 1.4173185e-38 341 279
0.026847038 0.69599998 -0.047592476 1.4082083e-38 342 279
0.028107686 0.69700003 -0.047660861 1.4174278e-38 343 279
0.029371841 0.69800001 -0.047729239 1.4358675e-38 344 279
0.030595668 0.69800001 -0.047729239 1.4450871e-38 345 279
0.031819493 0.69800001 -0.047729239 1.445159e-38 346 279
0.033137999 0.69999999 -0.047865998 1.4543787e-38 347 279
0.034414422 0.70099998 -0.047934376 1.4269363e-38 348 279
0.035745207 0.70300001 -0.048071139 1.4361559e-38 349 279
0.037135597 0.70599997 -0.048276275 1.4361581e-38 350 279
0.038264744 0.704 -0.048139516 1.6021103e-38 351 279
0.039499093 0.704 -0.048139516 1.5017072e-38 352 279
0.040907022 0.70700002 -0.048344657 1.6584038e-38 353 279
0.042146627 0.70700002 -0.048344657 1.3651434e-38 354 279
-0.035052639 0.71399999 -0.050075196 1.6686333e-38 292 280
-0.033800758 0.71399999 -0.050075196 1.3091063e-38 293 280
-0.032503292 0.713 -0.050005067 1.123165e-38 294 280
-0.031253166 0.713 -0.050005067 1.1323847e-38 295 280
-0.029918881 0.71100003 -0.049864799 1.2148533e-38 296 280
-0.028631933 0.70999998 -0.049794663 1.2148533e-38 297 280
-0.027232772 0.70599997 -0.04951413 1.2239284e-38 298 280
-0.02592128 0.704 -0.049373865 1.2239284e-38 299 280
-0.024651866 0.70300001 -0.049303733 1.2147817e-38 300 280
-0.023352645 0.70099998 -0.049163464 1.2055622e-38 301 280
-0.02202888 0.69800001 -0.048953064 1.2147464e-38 302 280
-0.020805053 0.69800001 -0.048953064 1.2331495e-38 303 280
-0.019637333 0.69999999 -0.049093332 1.2514798e-38 304 280
-0.0183574 0.69800001 -0.048953064 1.2606993e-38 305 280
-0.017133573 0.69800001 -0.048953064 1.2789584e-38 306 280
-0.015909746 0.69800001 -0.048953064 1.3066529e-38 307 280
-0.01468592 0.69800001 -0.048953064 1.3160161e-38 308 280
-0.013442807 0.69700003 -0.048882935 1.3344911e-38 309 280
-0.0122032 0.69599998 -0.048812799 1.3988107e-38 310 280
-0.01095132 0.69400001 -0.048672531 1.3988107e-38 311 280
-0.0097345067 0.69400001 -0.048672531 1.4447274e-38 312 280
-0.0085176928 0.69400001 -0.048672531 1.4078493e-38 313 280
-0.0072903596 0.69300002 -0.048602402 1.4445473e-38 314 280
-0.0060753003 0.69300002 -0.048602402 1.4261442e-38 315 280
-0.00486024 0.69300002 -0.048602402 1.4169256e-38 316 280
-0.0036451798 0.69300002 -0.048602402 1.4077059e-38 317 280
-0.00243012 0.69300002 -0.048602402 1.4077059e-38 318 280
-0.0012115532 0.69099998 -0.04846213 1.4169256e-38 319 280
0 0.69099998 -0.04846213 1.4262158e-38 320 280
0.0012115532 0.69099998 -0.04846213 1.4262158e-38 321 280
0.0024231065 0.69099998 -0.04846213 1.4079562e-38 322 280
0.0036346598 0.69099998 -0.04846213 1.4171757e-38 323 280
0.0048462129 0.69099998 -0.04846213 1.3988811e-38 324 280
0.0060577663 0.69099998 -0.04846213 1.3896615e-38 325 280
0.0072693196 0.69099998 -0.04846213 1.4079927e-38 326 280
0.008480873 0.69099998 -0.04846213 1.4172482e-38 327 280
0.0096924258 0.69099998 -0.04846213 1.3897687e-38 328 280
0.01090398 0.69099998 -0.04846213 1.3713656e-38 329 280
0.012062933 0.68800002 -0.048251733 1.3804773e-38 330 280
0.013269227 0.68800002 -0.048251733 1.3804773e-38 331 280
0.014580719 0.69300002 -0.048602402 1.3712221e-38 332 280
0.015795778 0.69300002 -0.048602402 1.3712221e-38 333 280
0.01701084 0.69300002 -0.048602402 1.3712577e-38 334 280
0.018225901 0.69300002 -0.048602402 1.3712577e-38 335 280
0.01944096 0.69300002 -0.048602402 1.3621458e-38 336 280
0.020656019 0.69300002 -0.048602402 1.3713653e-38 337 280
0.021902639 0.69400001 -0.048672531 1.3713656e-38 338 280
0.023119451 0.69400001 -0.048672531 1.3713656e-38 339 280
0.024336265 0.69400001 -0.048672531 1.3989167e-38 340 280
0.025553079 0.69400001 -0.048672531 1.3989167e-38 341 280
0.026847038 0.69599998 -0.048812799 1.380622e-38 342 280
0.028067358 0.69599998 -0.048812799 1.3898417e-38 343 280
0.029287677 0.69599998 -0.048812799 1.3715474e-38 344 280
0.030595668 0.69800001 -0.048953064 1.39917e-38 345 280
0.031819493 0.69800001 -0.048953064 1.3809107e-38 346 280
0.033137999 0.69999999 -0.049093332 1.3901303e-38 347 280
0.034365334 0.69999999 -0.049093332 1.3993146e-38 348 280
0.035643511 0.70099998 -0.049163464 1.4085342e-38 349 280
0.037030395 0.704 -0.049373865 1.3902051e-38 350 280
0.038264744 0.704 -0.049373865 1.5469378e-38 351 280
0.039499093 0.704 -0.049373865 1.5294375e-38 352 280
0.040907022 0.70700002 -0.049584266 1.8982201e-38 353 280
0.042146627 0.70700002 -0.049584266 1.6413709e-38 354 280
-0.035052639 0.71399999 -0.05132708 1.6501939e-38 292 281
-0.033800758 0.71399999 -0.05132708 1.2353496e-38 293 281
-0.032503292 0.713 -0.051255193 1.1324203e-38 294 281
-0.031253166 0.713 -0.051255193 1.1232006e-38 295 281
-0.030003037 0.713 -0.051255193 1.1870873e-38 296 281
-0.028470624 0.70599997 -0.050751984 1.196307e-38 297 281
-0.027155625 0.704 -0.050608214 1.2146731e-38 298 281
-0.02592128 0.704 -0.050608214 1.2054536e-38 299 281
-0.024651866 0.70300001 -0.050536323 1.1871226e-38 300 281
-0.023319334 0.69999999 -0.050320663 1.1871226e-38 301 281
-0.02202888 0.69800001 -0.050176892 1.2053466e-38 302 281
-0.020805053 0.69800001 -0.050176892 1.2145662e-38 303 281
-0.019581227 0.69800001 -0.050176892 1.2421879e-38 304 281
-0.0183574 0.69800001 -0.050176892 1.2514076e-38 305 281
-0.017133573 0.69800001 -0.050176892 1.2698094e-38 306 281
-0.015909746 0.69800001 -0.050176892 1.2698094e-38 307 281
-0.01466488 0.69700003 -0.050105009 1.3249823e-38 308 281
-0.013442807 0.69700003 -0.050105009 1.3618606e-38 309 281
-0.0122032 0.69599998 -0.050033119 1.3985944e-38 310 281
-0.01095132 0.69400001 -0.049889345 1.3985944e-38 311 281
-0.0097345067 0.69400001 -0.049889345 1.4169609e-38 312 281
-0.0085176928 0.69400001 -0.049889345 1.4077412e-38 313 281
-0.0072903596 0.69300002 -0.049817458 1.398557e-38 314 281
-0.0060753003 0.69300002 -0.049817458 1.398557e-38 315 281
-0.00486024 0.69300002 -0.049817458 1.3985567e-38 316 281
-0.0036451798 0.69300002 -0.049817458 1.4077762e-38 317 281
-0.00243012 0.69300002 -0.049817458 1.389445e-38 318 281
-0.0012115532 0.69099998 -0.049673684 1.3986647e-38 319 281
0 0.69099998 -0.049673684 1.3895168e-38 320 281
0.0012115532 0.69099998 -0.049673684 1.3895168e-38 321 281
0.0024231065 0.69099998 -0.049673684 1.3987366e-38 322 281
0.0036346598 0.69099998 -0.049673684 1.3987366e-38 323 281
0.0048462129 0.69099998 -0.049673684 1.3803701e-38 324 281
0.0060577663 0.69099998 -0.049673684 1.3803701e-38 325 281
0.0072693196 0.69099998 -0.049673684 1.3895896e-38 326 281
0.008480873 0.69099998 -0.049673684 1.3803701e-38 327 281
0.0096924258 0.69099998 -0.049673684 1.3804057e-38 328 281
0.01090398 0.69099998 -0.049673684 1.3804057e-38 329 281
0.012062933 0.68800002 -0.049458027 1.3711138e-38 330 281
0.013269227 0.68800002 -0.049458027 1.3618942e-38 331 281
0.014580719 0.69300002 -0.049817458 1.3710782e-38 332 281
0.015795778 0.69300002 -0.049817458 1.3710782e-38 333 281
0.01701084 0.69300002 -0.049817458 1.3619305e-38 334 281
0.018225901 0.69300002 -0.049817458 1.3804057e-38 335 281
0.01944096 0.69300002 -0.049817458 1.380477e-38 336 281
0.020656019 0.69300002 -0.049817458 1.380477e-38 337 281
0.021902639 0.69400001 -0.049889345 1.3621455e-38 338 281
0.023119451 0.69400001 -0.049889345 1.3621455e-38 339 281
0.024336265 0.69400001 -0.049889345 1.3714372e-38 340 281
0.025553079 0.69400001 -0.049889345 1.3622177e-38 341 281
0.026847038 0.69599998 -0.050033119 1.3714375e-38 342 281
0.028067358 0.69599998 -0.050033119 1.3806571e-38 343 281
0.029287677 0.69599998 -0.050033119 1.3622908e-38 344 281
0.030595668 0.69800001 -0.050176892 1.3899136e-38 345 281
0.031819493 0.69800001 -0.050176892 1.3715468e-38 346 281
0.033137999 0.69999999 -0.050320663 1.3992053e-38 347 281
0.034365334 0.69999999 -0.050320663 1.3900937e-38 348 281
0.035643511 0.70099998 -0.050392549 1.3900937e-38 349 281
0.036977798 0.70300001 -0.050536323 1.3809134e-38 350 281
0.038210396 0.70300001 -0.050536323 1.5376099e-38 351 281
0.039611302 0.70599997 -0.050751984 1.5570612e-38 352 281
0.040907022 0.70700002 -0.050823875 2.0549176e-38 353 281
0.042146627 0.70700002 -0.050823875 1.8623887e-38 354 281
-0.032093015 0.704 -0.051842559 1.1325282e-38 294 282
-0.030946331 0.70599997 -0.051989835 1.1048335e-38 295 282
-0.029708479 0.70599997 -0.051989835 1.1780121e-38 296 282
-0.028470624 0.70599997 -0.051989835 1.1780121e-38 297 282
-0.027155625 0.704 -0.051842559 1.1963419e-38 298 282
-0.025884461 0.70300001 -0.051768921 1.1871223e-38 299 282
-0.024651866 0.70300001 -0.051768921 1.1686129e-38 300 282
-0.023319334 0.69999999 -0.051547997 1.1409543e-38 301 282
-0.02202888 0.69800001 -0.051400717 1.1041852e-38 302 282
-0.020805053 0.69800001 -0.051400717 1.1134407e-38 303 282
-0.019581227 0.69800001 -0.051400717 1.1870157e-38 304 282
-0.0183574 0.69800001 -0.051400717 1.2146385e-38 305 282
-0.017133573 0.69800001 -0.051400717 1.2789571e-38 306 282
-0.015886955 0.69700003 -0.051327083 1.2881767e-38 307 282
-0.01466488 0.69700003 -0.051327083 1.3065432e-38 308 282
-0.013423519 0.69599998 -0.051253434 1.3249823e-38 309 282
-0.0122032 0.69599998 -0.051253434 1.3617886e-38 310 282
-0.01095132 0.69400001 -0.051106159 1.3617886e-38 311 282
-0.0097204801 0.69300002 -0.051032521 1.3618233e-38 312 282
-0.0085054198 0.69300002 -0.051032521 1.3618233e-38 313 282
-0.0072903596 0.69300002 -0.051032521 1.3801899e-38 314 282
-0.0060753003 0.69300002 -0.051032521 1.3801899e-38 315 282
-0.00486024 0.69300002 -0.051032521 1.3801899e-38 316 282
-0.0036451798 0.69300002 -0.051032521 1.3894453e-38 317 282
-0.0024231065 0.69099998 -0.050885238 1.3895173e-38 318 282
-0.0012115532 0.69099998 -0.050885238 1.3710782e-38 319 282
0 0.69099998 -0.050885238 1.3710782e-38 320 282
0.0012115532 0.69099998 -0.050885238 1.3895173e-38 321 282
0.0024195998 0.69 -0.050811596 1.352819e-38 322 282
0.0036293997 0.69 -0.050811596 1.352819e-38 323 282
0.0048391996 0.69 -0.050811596 1.3712224e-38 324 282
0.0060489997 0.69 -0.050811596 1.3712224e-38 325 282
0.0072587994 0.69 -0.050811596 1.3711508e-38 326 282
0.0084686 0.69 -0.050811596 1.3618952e-38 327 282
0.0096783992 0.69 -0.050811596 1.3435643e-38 328 282
0.010888199 0.69 -0.050811596 1.3343447e-38 329 282
0.012097999 0.69 -0.050811596 1.3434561e-38 330 282
0.013327086 0.69099998 -0.050885238 1.3434561e-38 331 282
0.014580719 0.69300002 -0.051032521 1.3066504e-38 332 282
0.015795778 0.69300002 -0.051032521 1.31587e-38 333 282
0.01701084 0.69300002 -0.051032521 1.3250898e-38 334 282
0.018225901 0.69300002 -0.051032521 1.343529e-38 335 282
0.01944096 0.69300002 -0.051032521 1.343564e-38 336 282
0.020656019 0.69300002 -0.051032521 1.343564e-38 337 282
0.021902639 0.69400001 -0.051106159 1.3436716e-38 338 282
0.023119451 0.69400001 -0.051106159 1.3436716e-38 339 282
0.024336265 0.69400001 -0.051106159 1.3346318e-38 340 282
0.025553079 0.69400001 -0.051106159 1.3438514e-38 341 282
0.026847038 0.69599998 -0.051253434 1.3345962e-38 342 282
0.028067358 0.69599998 -0.051253434 1.3530354e-38 343 282
0.02932976 0.69700003 -0.051327083 1.3438527e-38 344 282
0.030595668 0.69800001 -0.051400717 1.3530722e-38 345 282
0.031819493 0.69800001 -0.051400717 1.3348133e-38 346 282
0.033137999 0.69999999 -0.051547997 1.3440329e-38 347 282
0.034365334 0.69999999 -0.051547997 1.3440329e-38 348 282
0.035643511 0.70099998 -0.051621638 1.3808751e-38 349 282
0.036872596 0.70099998 -0.051621638 1.3717301e-38 350 282
0.038101684 0.70099998 -0.051621638 1.5192431e-38 351 282
0.039611302 0.70599997 -0.051989835 1.5204348e-38 352 282
0.040849157 0.70599997 -0.051989835 1.9906325e-38 353 282
0.042087011 0.70599997 -0.051989835 1.8532045e-38 354 282
-0.030858666 0.704 -0.053076904 1.1416401e-38 295 283
-0.029708479 0.70599997 -0.053227689 1.1965587e-38 296 283
-0.028470624 0.70599997 -0.053227689 1.1781195e-38 297 283
-0.027155625 0.704 -0.053076904 1.1687908e-38 298 283
-0.025884461 0.70300001 -0.053001512 1.1503517e-38 299 283
-0.024651866 0.70300001 -0.053001512 1.1593211e-38 300 283
-0.023352645 0.70099998 -0.052850723 1.1224787e-38 301 283
-0.02202888 0.69800001 -0.052624546 1.1040053e-38 302 283
-0.020805053 0.69800001 -0.052624546 1.1132249e-38 303 283
-0.019581227 0.69800001 -0.052624546 1.1593211e-38 304 283
-0.0183574 0.69800001 -0.052624546 1.2054188e-38 305 283
-0.017133573 0.69800001 -0.052624546 1.2789568e-38 306 283
-0.015886955 0.69700003 -0.052549154 1.2789568e-38 307 283
-0.01466488 0.69700003 -0.052549154 1.3065062e-38 308 283
-0.013423519 0.69599998 -0.052473757 1.3249095e-38 309 283
-0.012168133 0.69400001 -0.052322973 1.3433845e-38 310 283
-0.01095132 0.69400001 -0.052322973 1.352604e-38 311 283
-0.0097204801 0.69300002 -0.05224758 1.370935e-38 312 283
-0.0085054198 0.69300002 -0.05224758 1.370935e-38 313 283
-0.0072903596 0.69300002 -0.05224758 1.3709706e-38 314 283
-0.0060753003 0.69300002 -0.05224758 1.3801901e-38 315 283
-0.00486024 0.69300002 -0.05224758 1.3618589e-38 316 283
-0.0036346598 0.69099998 -0.052096792 1.3618589e-38 317 283
-0.0024231065 0.69099998 -0.052096792 1.3710788e-38 318 283
-0.0012115532 0.69099998 -0.052096792 1.3618233e-38 319 283
0 0.69099998 -0.052096792 1.3618233e-38 320 283
0.0012097999 0.69 -0.052021399 1.3710788e-38 321 283
0.0024195998 0.69 -0.052021399 1.343564e-38 322 283
0.0036293997 0.69 -0.052021399 1.3527837e-38 323 283
0.0048391996 0.69 -0.052021399 1.3528193e-38 324 283
0.0060489997 0.69 -0.052021399 1.3528193e-38 325 283
0.0072587994 0.69 -0.052021399 1.3528193e-38 326 283
0.0084686 0.69 -0.052021399 1.3435996e-38 327 283
0.0096503468 0.68800002 -0.051870614 1.3343444e-38 328 283
0.010856641 0.68800002 -0.051870614 1.3251249e-38 329 283
0.012097999 0.69 -0.052021399 1.3157978e-38 330 283
0.013327086 0.69099998 -0.052096792 1.3065783e-38 331 283
0.014580719 0.69300002 -0.05224758 1.2973588e-38 332 283
0.015795778 0.69300002 -0.05224758 1.3065785e-38 333 283
0.01701084 0.69300002 -0.05224758 1.3065429e-38 334 283
0.018225901 0.69300002 -0.05224758 1.3250179e-38 335 283
0.01944096 0.69300002 -0.05224758 1.3250177e-38 336 283
0.020656019 0.69300002 -0.05224758 1.3434208e-38 337 283
0.021902639 0.69400001 -0.052322973 1.3251967e-38 338 283
0.023119451 0.69400001 -0.052322973 1.3344163e-38 339 283
0.024336265 0.69400001 -0.052322973 1.3253045e-38 340 283
0.025553079 0.69400001 -0.052322973 1.3253045e-38 341 283
0.026847038 0.69599998 -0.052473757 1.3345599e-38 342 283
0.028067358 0.69599998 -0.052473757 1.3529631e-38 343 283
0.02932976 0.69700003 -0.052549154 1.3438161e-38 344 283
0.030595668 0.69800001 -0.052624546 1.3438161e-38 345 283
0.031819493 0.69800001 -0.052624546 1.3346328e-38 346 283
0.033137999 0.69999999 -0.052775331 1.3438882e-38 347 283
0.034365334 0.69999999 -0.052775331 1.3439607e-38 348 283
0.035643511 0.70099998 -0.052850723 1.3900584e-38 349 283
0.036872596 0.70099998 -0.052850723 1.3717304e-38 350 283
0.038101684 0.70099998 -0.052850723 1.5192434e-38 351 283
0.039330769 0.70099998 -0.052850723 1.492884e-38 352 283
0.040849157 0.70599997 -0.053227689 1.9446426e-38 353 283
0.042087011 0.70599997 -0.053227689 1.8163265e-38 354 283
-0.030858666 0.704 -0.054311249 1.1230931e-38 295 284
-0.029624319 0.704 -0.054311249 1.1782274e-38 296 284
-0.028389972 0.704 -0.054311249 1.1505329e-38 297 284
-0.027155625 0.704 -0.054311249 1.1871942e-38 298 284
-0.025884461 0.70300001 -0.054234106 1.150352e-38 299 284
-0.024651866 0.70300001 -0.054234106 1.1409899e-38 300 284
-0.023352645 0.70099998 -0.054079808 1.1132952e-38 301 284
-0.02202888 0.69800001 -0.053848371 1.058123e-38 302 284
-0.020805053 0.69800001 -0.053848371 1.058123e-38 303 284
-0.019581227 0.69800001 -0.053848371 1.1408819e-38 304 284
-0.0183574 0.69800001 -0.053848371 1.1870157e-38 305 284
-0.017133573 0.69800001 -0.053848371 1.2697371e-38 306 284
-0.015886955 0.69700003 -0.053771228 1.2697371e-38 307 284
-0.01466488 0.69700003 -0.053771228 1.3155826e-38 308 284
-0.013423519 0.69599998 -0.053694077 1.3155826e-38 309 284
-0.012168133 0.69400001 -0.053539783 1.3248744e-38 310 284
-0.01095132 0.69400001 -0.053539783 1.334094e-38 311 284
-0.0097204801 0.69300002 -0.053462639 1.343277e-38 312 284
-0.0085054198 0.69300002 -0.053462639 1.343277e-38 313 284
-0.0072903596 0.69300002 -0.053462639 1.3433842e-38 314 284
-0.0060753003 0.69300002 -0.053462639 1.3526038e-38 315 284
-0.00486024 0.69300002 -0.053462639 1.3434564e-38 316 284
-0.0036346598 0.69099998 -0.053308345 1.3434564e-38 317 284
-0.0024231065 0.69099998 -0.053308345 1.3434208e-38 318 284
-0.0012115532 0.69099998 -0.053308345 1.3434208e-38 319 284
0 0.69099998 -0.053308345 1.3250898e-38 320 284
0.0012097999 0.69 -0.053231198 1.3250898e-38 321 284
0.0024195998 0.69 -0.053231198 1.3067583e-38 322 284
0.0036293997 0.69 -0.053231198 1.334381e-38 323 284
0.0048391996 0.69 -0.053231198 1.3344163e-38 324 284
0.0060314666 0.68800002 -0.053076908 1.3344163e-38 325 284
0.0072377604 0.68800002 -0.053076908 1.3344163e-38 326 284
0.0084440531 0.68800002 -0.053076908 1.3344163e-38 327 284
0.0096503468 0.68800002 -0.053076908 1.3067936e-38 328 284
0.010856641 0.68800002 -0.053076908 1.2883186e-38 329 284
0.012062933 0.68800002 -0.053076908 1.2790994e-38 330 284
0.01336566 0.69300002 -0.053462639 1.2698796e-38 331 284
0.014580719 0.69300002 -0.053462639 1.2698796e-38 332 284
0.015795778 0.69300002 -0.053462639 1.2698796e-38 333 284
0.01701084 0.69300002 -0.053462639 1.2789917e-38 334 284
0.018225901 0.69300002 -0.053462639 1.2882473e-38 335 284
0.01944096 0.69300002 -0.053462639 1.2882117e-38 336 284
0.020656019 0.69300002 -0.053462639 1.3066148e-38 337 284
0.021871079 0.69300002 -0.053462639 1.2975741e-38 338 284
0.023119451 0.69400001 -0.053539783 1.3251967e-38 339 284
0.024336265 0.69400001 -0.053539783 1.3161201e-38 340 284
0.025553079 0.69400001 -0.053539783 1.3161201e-38 341 284
0.026847038 0.69599998 -0.053694077 1.3254473e-38 342 284
0.028067358 0.69599998 -0.053694077 1.3254473e-38 343 284
0.029371841 0.69800001 -0.053848371 1.3253764e-38 344 284
0.030595668 0.69800001 -0.053848371 1.3346318e-38 345 284
0.031819493 0.69800001 -0.053848371 1.3070101e-38 346 284
0.033137999 0.69999999 -0.054002665 1.3346328e-38 347 284
0.034365334 0.69999999 -0.054002665 1.3164821e-38 348 284
0.035643511 0.70099998 -0.054079808 1.3533243e-38 349 284
0.036872596 0.70099998 -0.054079808 1.3350676e-38 350 284
0.038101684 0.70099998 -0.054079808 1.4456664e-38 351 284
0.039330769 0.70099998 -0.054079808 1.492884e-38 352 284
0.040733438 0.704 -0.054311249 1.9538621e-38 353 284
0.041967787 0.704 -0.054311249 1.8345858e-38 354 284
-0.030858666 0.704 -0.055545598 1.0678833e-38 295 285
-0.029624319 0.704 -0.055545598 1.1781193e-38 296 285
-0.028389972 0.704 -0.055545598 1.1688997e-38 297 285
-0.027155625 0.704 -0.055545598 1.1871576e-38 298 285
-0.025884461 0.70300001 -0.0554667 1.1687185e-38 299 285
-0.024651866 0.70300001 -0.0554667 1.1868709e-38 300 285
-0.023352645 0.70099998 -0.055308893 1.1591762e-38 301 285
-0.02202888 0.69800001 -0.0550722 1.0764895e-38 302 285
-0.020805053 0.69800001 -0.0550722 1.06727e-38 303 285
-0.019581227 0.69800001 -0.0550722 1.0949289e-38 304 285
-0.0183574 0.69800001 -0.0550722 1.1410268e-38 305 285
-0.017133573 0.69800001 -0.0550722 1.2146734e-38 306 285
-0.015886955 0.69700003 -0.054993302 1.2054538e-38 307 285
-0.01466488 0.69700003 -0.054993302 1.2420075e-38 308 285
-0.013423519 0.69599998 -0.054914396 1.2420075e-38 309 285
-0.012168133 0.69400001 -0.054756597 1.232968e-38 310 285
-0.01095132 0.69400001 -0.054756597 1.2514073e-38 311 285
-0.0097204801 0.69300002 -0.054677699 1.3065435e-38 312 285
-0.0085054198 0.69300002 -0.054677699 1.3065435e-38 313 285
-0.0072903596 0.69300002 -0.054677699 1.3157984e-38 314 285
-0.0060753003 0.69300002 -0.054677699 1.3250179e-38 315 285
-0.00486024 0.69300002 -0.054677699 1.3158703e-38 316 285
-0.0036451798 0.69300002 -0.054677699 1.3250898e-38 317 285
-0.00243012 0.69300002 -0.054677699 1.306723e-38 318 285
-0.0012115532 0.69099998 -0.054519895 1.306723e-38 319 285
0 0.69099998 -0.054519895 1.306723e-38 320 285
0.0012115532 0.69099998 -0.054519895 1.306723e-38 321 285
0.0024195998 0.69 -0.054440998 1.2884634e-38 322 285
0.0036293997 0.69 -0.054440998 1.297683e-38 323 285
0.0048251734 0.68800002 -0.054283202 1.297683e-38 324 285
0.0060314666 0.68800002 -0.054283202 1.2884634e-38 325 285
0.0072377604 0.68800002 -0.054283202 1.3068305e-38 326 285
0.0084440531 0.68800002 -0.054283202 1.3068305e-38 327 285
0.0096503468 0.68800002 -0.054283202 1.31587e-38 328 285
0.010856641 0.68800002 -0.054283202 1.3066504e-38 329 285
0.012062933 0.68800002 -0.054283202 1.2882467e-38 330 285
0.01336566 0.69300002 -0.054677699 1.279027e-38 331 285
0.014580719 0.69300002 -0.054677699 1.2698072e-38 332 285
0.015795778 0.69300002 -0.054677699 1.2698072e-38 333 285
0.01701084 0.69300002 -0.054677699 1.2698441e-38 334 285
0.018225901 0.69300002 -0.054677699 1.2698441e-38 335 285
0.01944096 0.69300002 -0.054677699 1.2790643e-38 336 285
0.020656019 0.69300002 -0.054677699 1.2882839e-38 337 285
0.021871079 0.69300002 -0.054677699 1.2883905e-38 338 285
0.023119451 0.69400001 -0.054756597 1.3068655e-38 339 285
0.024336265 0.69400001 -0.054756597 1.2977886e-38 340 285
0.025553079 0.69400001 -0.054756597 1.3161919e-38 341 285
0.026847038 0.69599998 -0.054914396 1.3161919e-38 342 285
0.028067358 0.69599998 -0.054914396 1.2977886e-38 343 285
0.02932976 0.69700003 -0.054993302 1.3161568e-38 344 285
0.030595668 0.69800001 -0.0550722 1.3161568e-38 345 285
0.031819493 0.69800001 -0.0550722 1.3070099e-38 346 285
0.033137999 0.69999999 -0.055229999 1.3346684e-38 347 285
0.034365334 0.69999999 -0.055229999 1.3072985e-38 348 285
0.035745207 0.70300001 -0.0554667 1.3349931e-38 349 285
0.036977798 0.70300001 -0.0554667 1.32592e-38 350 285
0.038210396 0.70300001 -0.0554667 1.4457384e-38 351 285
0.039442986 0.70300001 -0.0554667 1.5204348e-38 352 285
0.040733438 0.704 -0.055545598 1.9537541e-38 353 285
-0.030858666 0.704 -0.056779943 1.0403685e-38 295 286
-0.029624319 0.704 -0.056779943 1.1689e-38 296 286
-0.028389972 0.704 -0.056779943 1.1873391e-38 297 286
-0.027117053 0.70300001 -0.056699295 1.1963786e-38 298 286
-0.025884461 0.70300001 -0.056699295 1.1687558e-38 299 286
-0.024581732 0.70099998 -0.056537982 1.1683605e-38 300 286
-0.023352645 0.70099998 -0.056537982 1.1315182e-38 301 286
