# .PCD v.7 - Point Cloud Data file format
FIELDS x y z rgb imX imY
SIZE 4 4 4 4 4 4
TYPE F F F F F F
COUNT 1 1 1 1 1 1
WIDTH 845
HEIGHT 1
VIEWPOINT 0 0 0 1 0 0 0
POINTS 845
DATA ascii
0.028461859 0.773 0.0027106532 1.2888227e-38 341 238
0.029817186 0.773 0.0027106532 1.2613825e-38 342 238
0.03117251 0.773 0.0027106532 1.2798575e-38 343 238
0.032569919 0.77399999 0.0027141599 1.2158279e-38 344 238
0.033927001 0.77399999 0.0027141599 1.4094387e-38 345 238
-0.042395595 0.77999997 0.0013675999 1.6227878e-38 289 239
-0.041027997 0.77999997 0.0013675999 1.455681e-38 290 239
-0.039660398 0.77999997 0.0013675999 1.225192e-38 291 239
-0.038194612 0.778 0.0013640933 1.4085358e-38 292 239
-0.036735836 0.77600002 0.0013605866 1.3716935e-38 293 239
-0.03528408 0.77399999 0.0013570799 1.4084252e-38 294 239
-0.033883166 0.773 0.0013553266 1.3807666e-38 295 239
-0.032527838 0.773 0.0013553266 1.4449786e-38 296 239
-0.031091858 0.77100003 0.00135182 1.4449786e-38 297 239
-0.02966289 0.76899999 0.0013483133 1.4542335e-38 298 239
-0.02824094 0.76700002 0.0013448066 1.4542335e-38 299 239
-0.026896132 0.76700002 0.0013448066 1.4726003e-38 300 239
-0.025518013 0.76599997 0.0013430532 1.4541972e-38 301 239
-0.024174958 0.76599997 0.0013430532 1.4818202e-38 302 239
-0.022772292 0.764 0.0013395466 1.4818202e-38 303 239
-0.02137664 0.76200002 0.00133604 1.500223e-38 304 239
-0.0200406 0.76200002 0.00133604 1.500223e-38 305 239
-0.01870456 0.76200002 0.00133604 1.5368857e-38 306 239
-0.017345725 0.76099998 0.0013342865 1.5461054e-38 307 239
-0.016011439 0.76099998 0.0013342865 1.5185186e-38 308 239
-0.014677152 0.76099998 0.0013342865 1.5185186e-38 309 239
-0.013342866 0.76099998 0.0013342865 1.5278088e-38 310 239
-0.01197702 0.759 0.00133078 1.5554316e-38 311 239
-0.01064624 0.759 0.00133078 1.5280606e-38 312 239
-0.00931546 0.759 0.00133078 1.5188411e-38 313 239
-0.0079846792 0.759 0.00133078 1.5554322e-38 314 239
-0.0066363667 0.75700003 0.0013272733 1.5738713e-38 315 239
-0.0053090933 0.75700003 0.0013272733 1.5737644e-38 316 239
-0.0039818203 0.75700003 0.0013272733 1.5645448e-38 317 239
-0.0026545466 0.75700003 0.0013272733 1.5645443e-38 318 239
-0.0013272733 0.75700003 0.0013272733 1.5553247e-38 319 239
0 0.75700003 0.0013272733 1.5370288e-38 320 239
0.0013272733 0.75700003 0.0013272733 1.5278091e-38 321 239
0.0026545466 0.75700003 0.0013272733 1.5185539e-38 322 239
0.0039818203 0.75700003 0.0013272733 1.5185539e-38 323 239
0.0053231199 0.759 0.00133078 1.5001148e-38 324 239
0.0066538998 0.759 0.00133078 1.5001148e-38 325 239
0.0079846792 0.759 0.00133078 1.4817833e-38 326 239
0.0093400059 0.76099998 0.0013342865 1.4817833e-38 327 239
0.010674292 0.76099998 0.0013342865 1.4818552e-38 328 239
0.012008579 0.76099998 0.0013342865 1.4726356e-38 329 239
0.013342866 0.76099998 0.0013342865 1.4725637e-38 330 239
0.014677152 0.76099998 0.0013342865 1.4725637e-38 331 239
0.01603248 0.76200002 0.00133604 1.4174631e-38 332 239
0.01736852 0.76200002 0.00133604 1.3713653e-38 333 239
0.01870456 0.76200002 0.00133604 1.3621826e-38 334 239
0.020093199 0.764 0.0013395466 1.3529631e-38 335 239
0.021432746 0.764 0.0013395466 1.3347034e-38 336 239
0.022831906 0.76599997 0.0013430532 1.343923e-38 337 239
0.024206521 0.76700002 0.0013448066 1.2797811e-38 338 239
0.025551327 0.76700002 0.0013448066 1.2705615e-38 339 239
0.026966266 0.76899999 0.0013483133 1.2612348e-38 340 239
0.028388219 0.77100003 0.00135182 1.2612348e-38 341 239
0.029817186 0.773 0.0013553266 1.2612729e-38 342 239
0.03117251 0.773 0.0013553266 1.279748e-38 343 239
0.032569919 0.77399999 0.0013570799 1.1883122e-38 344 239
0.033927001 0.77399999 0.0013570799 1.4188011e-38 345 239
-0.042395595 0.77999997 -0 1.7056563e-38 289 240
-0.041027997 0.77999997 -0 1.5017789e-38 290 240
-0.039558705 0.778 -0 1.225192e-38 291 240
-0.038194612 0.778 -0 1.3809484e-38 292 240
-0.036735836 0.77600002 -0 1.3809484e-38 293 240
-0.03528408 0.77399999 -0 1.3992051e-38 294 240
-0.033883166 0.773 -0 1.380802e-38 295 240
-0.032527838 0.773 -0 1.4357593e-38 296 240
-0.031011207 0.76899999 -0 1.4449789e-38 297 240
-0.02966289 0.76899999 -0 1.4266477e-38 298 240
-0.02824094 0.76700002 -0 1.4266477e-38 299 240
-0.026896132 0.76700002 -0 1.4450142e-38 300 240
-0.025518013 0.76599997 -0 1.4542338e-38 301 240
-0.024174958 0.76599997 -0 1.4451574e-38 302 240
-0.022772292 0.764 -0 1.4451574e-38 303 240
-0.02137664 0.76200002 -0 1.4818202e-38 304 240
-0.0200406 0.76200002 -0 1.4910397e-38 305 240
-0.01870456 0.76200002 -0 1.4817851e-38 306 240
-0.017345725 0.76099998 -0 1.4817851e-38 307 240
-0.016011439 0.76099998 -0 1.4817132e-38 308 240
-0.014677152 0.76099998 -0 1.4817132e-38 309 240
-0.0133078 0.759 -0 1.4726729e-38 310 240
-0.01197702 0.759 -0 1.4819285e-38 311 240
-0.01064624 0.759 -0 1.4818929e-38 312 240
-0.00931546 0.759 -0 1.4818929e-38 313 240
-0.0079846792 0.759 -0 1.5002247e-38 314 240
-0.0066363667 0.75700003 -0 1.5002247e-38 315 240
-0.0053090933 0.75700003 -0 1.4818576e-38 316 240
-0.0039712996 0.755 -0 1.4726379e-38 317 240
-0.0026475333 0.755 -0 1.4910047e-38 318 240
-0.0013272733 0.75700003 -0 1.4910047e-38 319 240
0 0.75700003 -0 1.4909681e-38 320 240
0.0013272733 0.75700003 -0 1.4817127e-38 321 240
0.0026545466 0.75700003 -0 1.4724578e-38 322 240
0.0039818203 0.75700003 -0 1.4724578e-38 323 240
0.0053231199 0.759 -0 1.4539836e-38 324 240
0.0066538998 0.759 -0 1.4539836e-38 325 240
0.0080057196 0.76099998 -0 1.4448717e-38 326 240
0.0093400059 0.76099998 -0 1.4541271e-38 327 240
0.010674292 0.76099998 -0 1.4266474e-38 328 240
0.012008579 0.76099998 -0 1.4266474e-38 329 240
0.013342866 0.76099998 -0 1.4357944e-38 330 240
0.014677152 0.76099998 -0 1.398952e-38 331 240
0.016011439 0.76099998 -0 1.3621105e-38 332 240
0.017345725 0.76099998 -0 1.3528909e-38 333 240
0.01870456 0.76200002 -0 1.3160498e-38 334 240
0.0200406 0.76200002 -0 1.3252695e-38 335 240
0.021432746 0.764 -0 1.2795312e-38 336 240
0.022831906 0.76599997 -0 1.2887508e-38 337 240
0.024206521 0.76700002 -0 1.2613066e-38 338 240
0.025551327 0.76700002 -0 1.2520871e-38 339 240
0.026966266 0.76899999 -0 1.2520521e-38 340 240
0.028388219 0.77100003 -0 1.2428325e-38 341 240
0.029817186 0.773 -0 1.2153202e-38 342 240
0.03117251 0.773 -0 1.2429429e-38 343 240
0.032527838 0.773 -0 1.2435215e-38 344 240
-0.042286891 0.778 -0.0013640933 1.7793406e-38 289 241
-0.040922798 0.778 -0.0013640933 1.5295449e-38 290 241
-0.039457016 0.77600002 -0.0013605866 1.2160797e-38 291 241
-0.038096428 0.77600002 -0.0013605866 1.3809484e-38 292 241
-0.036735836 0.77600002 -0.0013605866 1.3809484e-38 293 241
-0.03528408 0.77399999 -0.0013570799 1.39917e-38 294 241
-0.033883166 0.773 -0.0013553266 1.3715474e-38 295 241
-0.032443684 0.77100003 -0.00135182 1.4173209e-38 296 241
-0.031011207 0.76899999 -0.0013483133 1.4173209e-38 297 241
-0.02966289 0.76899999 -0.0013483133 1.4264677e-38 298 241
-0.02824094 0.76700002 -0.0013448066 1.4356874e-38 299 241
-0.026896132 0.76700002 -0.0013448066 1.4357225e-38 300 241
-0.025518013 0.76599997 -0.0013430532 1.4357225e-38 301 241
-0.024174958 0.76599997 -0.0013430532 1.4542325e-38 302 241
-0.022772292 0.764 -0.0013395466 1.4542325e-38 303 241
-0.021432746 0.764 -0.0013395466 1.4725281e-38 304 241
-0.020093199 0.764 -0.0013395466 1.4725281e-38 305 241
-0.01870456 0.76200002 -0.00133604 1.4724565e-38 306 241
-0.017345725 0.76099998 -0.0013342865 1.4724565e-38 307 241
-0.016011439 0.76099998 -0.0013342865 1.4724563e-38 308 241
-0.014677152 0.76099998 -0.0013342865 1.4632367e-38 309 241
-0.0133078 0.759 -0.00133078 1.4725637e-38 310 241
-0.01197702 0.759 -0.00133078 1.4725637e-38 311 241
-0.01064624 0.759 -0.00133078 1.490788e-38 312 241
-0.00931546 0.759 -0.00133078 1.4815685e-38 313 241
-0.0079846792 0.759 -0.00133078 1.4724212e-38 314 241
-0.0066363667 0.75700003 -0.0013272733 1.4724212e-38 315 241
-0.0053090933 0.75700003 -0.0013272733 1.4724563e-38 316 241
-0.0039712996 0.755 -0.0013237667 1.454017e-38 317 241
-0.0026475333 0.755 -0.0013237667 1.4816387e-38 318 241
-0.0013272733 0.75700003 -0.0013272733 1.4816387e-38 319 241
0 0.75700003 -0.0013272733 1.4723116e-38 320 241
0.0013272733 0.75700003 -0.0013272733 1.4630921e-38 321 241
0.0026545466 0.75700003 -0.0013272733 1.4630217e-38 322 241
0.0039818203 0.75700003 -0.0013272733 1.4630217e-38 323 241
0.0053231199 0.759 -0.00133078 1.4537315e-38 324 241
0.0066538998 0.759 -0.00133078 1.444512e-38 325 241
0.0080057196 0.76099998 -0.0013342865 1.4354e-38 326 241
0.0093400059 0.76099998 -0.0013342865 1.4354e-38 327 241
0.010674292 0.76099998 -0.0013342865 1.4172476e-38 328 241
0.012008579 0.76099998 -0.0013342865 1.4172476e-38 329 241
0.013342866 0.76099998 -0.0013342865 1.4080631e-38 330 241
0.014677152 0.76099998 -0.0013342865 1.3804404e-38 331 241
0.016011439 0.76099998 -0.0013342865 1.3619656e-38 332 241
0.017345725 0.76099998 -0.0013342865 1.3435264e-38 333 241
0.01870456 0.76200002 -0.00133604 1.2975738e-38 334 241
0.0200406 0.76200002 -0.00133604 1.3067934e-38 335 241
0.021432746 0.764 -0.0013395466 1.2885343e-38 336 241
0.022831906 0.76599997 -0.0013430532 1.2977539e-38 337 241
0.024206521 0.76700002 -0.0013448066 1.2610911e-38 338 241
0.025551327 0.76700002 -0.0013448066 1.2610911e-38 339 241
0.026966266 0.76899999 -0.0013483133 1.2151385e-38 340 241
0.028388219 0.77100003 -0.00135182 1.2151385e-38 341 241
0.029817186 0.773 -0.0013553266 1.2243956e-38 342 241
0.03117251 0.773 -0.0013553266 1.2428347e-38 343 241
0.032527838 0.773 -0.0013553266 1.2711084e-38 344 241
-0.042286891 0.778 -0.0027281865 1.7886322e-38 289 242
-0.040922798 0.778 -0.0027281865 1.5758225e-38 290 242
-0.039457016 0.77600002 -0.0027211732 1.2346985e-38 291 242
-0.038096428 0.77600002 -0.0027211732 1.3626885e-38 292 242
-0.036735836 0.77600002 -0.0027211732 1.3626885e-38 293 242
-0.03528408 0.77399999 -0.0027141599 1.4083177e-38 294 242
-0.033883166 0.773 -0.0027106532 1.3898786e-38 295 242
-0.032443684 0.77100003 -0.0027036399 1.4081379e-38 296 242
-0.031011207 0.76899999 -0.0026966266 1.3989182e-38 297 242
-0.029585747 0.76700002 -0.0026896133 1.3988814e-38 298 242
-0.02824094 0.76700002 -0.0026896133 1.3896618e-38 299 242
-0.026896132 0.76700002 -0.0026896133 1.3896971e-38 300 242
-0.025551327 0.76700002 -0.0026896133 1.4081362e-38 301 242
-0.024174958 0.76599997 -0.0026861064 1.417391e-38 302 242
-0.022831906 0.76599997 -0.0026861064 1.4357941e-38 303 242
-0.021432746 0.764 -0.0026790933 1.4357225e-38 304 242
-0.020093199 0.764 -0.0026790933 1.4265028e-38 305 242
-0.01870456 0.76200002 -0.00267208 1.4356507e-38 306 242
-0.017345725 0.76099998 -0.0026685731 1.4356507e-38 307 242
-0.016011439 0.76099998 -0.0026685731 1.435686e-38 308 242
-0.014677152 0.76099998 -0.0026685731 1.4540893e-38 309 242
-0.0133078 0.759 -0.00266156 1.454054e-38 310 242
-0.01197702 0.759 -0.00266156 1.4356507e-38 311 242
-0.01064624 0.759 -0.00266156 1.4722428e-38 312 242
-0.00931546 0.759 -0.00266156 1.4446202e-38 313 242
-0.0079846792 0.759 -0.00266156 1.4447274e-38 314 242
-0.0066363667 0.75700003 -0.0026545466 1.4539469e-38 315 242
-0.0053090933 0.75700003 -0.0026545466 1.4265028e-38 316 242
-0.0039818203 0.75700003 -0.0026545466 1.4172832e-38 317 242
-0.0026545466 0.75700003 -0.0026545466 1.4264306e-38 318 242
-0.0013272733 0.75700003 -0.0026545466 1.417211e-38 319 242
0 0.75700003 -0.0026545466 1.4354707e-38 320 242
0.0013272733 0.75700003 -0.0026545466 1.4262511e-38 321 242
0.0026545466 0.75700003 -0.0026545466 1.3986294e-38 322 242
0.0039818203 0.75700003 -0.0026545466 1.3986294e-38 323 242
0.0053231199 0.759 -0.00266156 1.4169256e-38 324 242
0.0066538998 0.759 -0.00266156 1.4077059e-38 325 242
0.0079846792 0.759 -0.00266156 1.3710434e-38 326 242
0.0093400059 0.76099998 -0.0026685731 1.3894467e-38 327 242
0.010674292 0.76099998 -0.0026685731 1.3803704e-38 328 242
0.012008579 0.76099998 -0.0026685731 1.3803704e-38 329 242
0.013342866 0.76099998 -0.0026685731 1.3435993e-38 330 242
0.014677152 0.76099998 -0.0026685731 1.3251602e-38 331 242
0.016011439 0.76099998 -0.0026685731 1.315905e-38 332 242
0.01736852 0.76200002 -0.00267208 1.3066855e-38 333 242
0.01870456 0.76200002 -0.00267208 1.2607325e-38 334 242
0.0200406 0.76200002 -0.00267208 1.2699521e-38 335 242
0.021432746 0.764 -0.0026790933 1.2424735e-38 336 242
0.022831906 0.76599997 -0.0026861064 1.251693e-38 337 242
0.024206521 0.76700002 -0.0026896133 1.2334337e-38 338 242
0.025551327 0.76700002 -0.0026896133 1.2241783e-38 339 242
0.026966266 0.76899999 -0.0026966266 1.2058839e-38 340 242
0.028388219 0.77100003 -0.0027036399 1.2058839e-38 341 242
0.029817186 0.773 -0.0027106532 1.1968455e-38 342 242
0.03117251 0.773 -0.0027106532 1.206101e-38 343 242
0.032569919 0.77399999 -0.0027141599 1.2896919e-38 344 242
0.034014668 0.77600002 -0.0027211732 1.5478397e-38 345 242
-0.042286891 0.778 -0.0040922803 1.8071072e-38 289 243
-0.040922798 0.778 -0.0040922803 1.6222092e-38 290 243
-0.039558705 0.778 -0.0040922803 1.2718659e-38 291 243
-0.038194612 0.778 -0.0040922803 1.3351039e-38 292 243
-0.036830518 0.778 -0.0040922803 1.3166648e-38 293 243
-0.035375252 0.77600002 -0.0040817601 1.4083192e-38 294 243
-0.033927001 0.77399999 -0.0040712398 1.371477e-38 295 243
-0.032443684 0.77100003 -0.0040554604 1.3897714e-38 296 243
-0.031011207 0.76899999 -0.0040449398 1.3621126e-38 297 243
-0.029585747 0.76700002 -0.00403442 1.3804069e-38 298 243
-0.02824094 0.76700002 -0.00403442 1.3711874e-38 299 243
-0.026896132 0.76700002 -0.00403442 1.3712224e-38 300 243
-0.025551327 0.76700002 -0.00403442 1.380442e-38 301 243
-0.024174958 0.76599997 -0.0040291594 1.3897687e-38 302 243
-0.022831906 0.76599997 -0.0040291594 1.3713656e-38 303 243
-0.021432746 0.764 -0.0040186401 1.4079562e-38 304 243
-0.020093199 0.764 -0.0040186401 1.4079562e-38 305 243
-0.01870456 0.76200002 -0.0040081199 1.4078846e-38 306 243
-0.017345725 0.76099998 -0.0040028598 1.4262877e-38 307 243
-0.016011439 0.76099998 -0.0040028598 1.4079565e-38 308 243
-0.014677152 0.76099998 -0.0040028598 1.4079565e-38 309 243
-0.0133078 0.759 -0.0039923396 1.426288e-38 310 243
-0.01197702 0.759 -0.0039923396 1.426288e-38 311 243
-0.01064624 0.759 -0.0039923396 1.4354006e-38 312 243
-0.00931546 0.759 -0.0039923396 1.4354006e-38 313 243
-0.0079846792 0.759 -0.0039923396 1.4262524e-38 314 243
-0.0066538998 0.759 -0.0039923396 1.4262524e-38 315 243
-0.0053090933 0.75700003 -0.0039818203 1.3896247e-38 316 243
-0.0039818203 0.75700003 -0.0039818203 1.3896247e-38 317 243
-0.0026545466 0.75700003 -0.0039818203 1.3896603e-38 318 243
-0.0013272733 0.75700003 -0.0039818203 1.3896603e-38 319 243
0 0.759 -0.0039923396 1.3987716e-38 320 243
0.00133078 0.759 -0.0039923396 1.3895521e-38 321 243
0.00266156 0.759 -0.0039923396 1.3895168e-38 322 243
0.0039923396 0.759 -0.0039923396 1.3711135e-38 323 243
0.0053231199 0.759 -0.0039923396 1.3801904e-38 324 243
0.0066538998 0.759 -0.0039923396 1.3801904e-38 325 243
0.0079846792 0.759 -0.0039923396 1.3618236e-38 326 243
0.00931546 0.759 -0.0039923396 1.352604e-38 327 243
0.01064624 0.759 -0.0039923396 1.3434208e-38 328 243
0.012008579 0.76099998 -0.0040028598 1.3434208e-38 329 243
0.013342866 0.76099998 -0.0040028598 1.3066504e-38 330 243
0.014677152 0.76099998 -0.0040028598 1.3066504e-38 331 243
0.016011439 0.76099998 -0.0040028598 1.2790991e-38 332 243
0.01736852 0.76200002 -0.0040081199 1.2790991e-38 333 243
0.01870456 0.76200002 -0.0040081199 1.2515126e-38 334 243
0.0200406 0.76200002 -0.0040081199 1.2607681e-38 335 243
0.021432746 0.764 -0.0040186401 1.2515495e-38 336 243
0.022861714 0.76700002 -0.00403442 1.2515495e-38 337 243
0.024206521 0.76700002 -0.00403442 1.214959e-38 338 243
0.025617953 0.76899999 -0.0040449398 1.2057394e-38 339 243
0.027036399 0.77100003 -0.0040554604 1.1874448e-38 340 243
0.028461859 0.773 -0.0040659797 1.2058839e-38 341 243
0.029855758 0.77399999 -0.0040712398 1.1785146e-38 342 243
0.031212838 0.77399999 -0.0040712398 1.1785146e-38 343 243
0.032654081 0.77600002 -0.0040817601 1.3081677e-38 344 243
0.034014668 0.77600002 -0.0040817601 1.5570959e-38 345 243
-0.042178184 0.77600002 -0.0054423464 1.8071438e-38 289 244
-0.0408176 0.77600002 -0.0054423464 1.6500851e-38 290 244
-0.039558705 0.778 -0.0054563731 1.3089612e-38 291 244
-0.038194612 0.778 -0.0054563731 1.270784e-38 292 244
-0.036830518 0.778 -0.0054563731 1.2523448e-38 293 244
-0.03528408 0.77399999 -0.0054283198 1.3900603e-38 294 244
-0.033927001 0.77399999 -0.0054283198 1.3531821e-38 295 244
-0.032527838 0.773 -0.0054213065 1.3805514e-38 296 244
-0.031011207 0.76899999 -0.0053932532 1.3528927e-38 297 244
-0.02966289 0.76899999 -0.0053932532 1.3803348e-38 298 244
-0.02824094 0.76700002 -0.0053792265 1.3618955e-38 299 244
-0.026896132 0.76700002 -0.0053792265 1.3527837e-38 300 244
-0.025551327 0.76700002 -0.0053792265 1.3527837e-38 301 244
-0.024174958 0.76599997 -0.0053722127 1.3803701e-38 302 244
-0.022831906 0.76599997 -0.0053722127 1.3803701e-38 303 244
-0.021432746 0.764 -0.0053581866 1.3894453e-38 304 244
-0.020093199 0.764 -0.0053581866 1.3801899e-38 305 244
-0.01870456 0.76200002 -0.0053441599 1.3801183e-38 306 244
-0.01736852 0.76200002 -0.0053441599 1.3985214e-38 307 244
-0.016011439 0.76099998 -0.0053371461 1.3801901e-38 308 244
-0.014677152 0.76099998 -0.0053371461 1.3894097e-38 309 244
-0.013342866 0.76099998 -0.0053371461 1.3986297e-38 310 244
-0.01197702 0.759 -0.0053231199 1.38941e-38 311 244
-0.01064624 0.759 -0.0053231199 1.426181e-38 312 244
-0.00931546 0.759 -0.0053231199 1.4169256e-38 313 244
-0.0079846792 0.759 -0.0053231199 1.3986297e-38 314 244
-0.0066538998 0.759 -0.0053231199 1.4078493e-38 315 244
-0.0053231199 0.759 -0.0053231199 1.3987369e-38 316 244
-0.0039923396 0.759 -0.0053231199 1.3987369e-38 317 244
-0.0026685731 0.76099998 -0.0053371461 1.3711502e-38 318 244
-0.0013342865 0.76099998 -0.0053371461 1.3711502e-38 319 244
0 0.76099998 -0.0053371461 1.3711855e-38 320 244
0.0013342865 0.76099998 -0.0053371461 1.3619658e-38 321 244
0.00266156 0.759 -0.0053231199 1.3619658e-38 322 244
0.0039923396 0.759 -0.0053231199 1.3527463e-38 323 244
0.0053231199 0.759 -0.0053231199 1.3709706e-38 324 244
0.0066538998 0.759 -0.0053231199 1.3709706e-38 325 244
0.0079846792 0.759 -0.0053231199 1.3433845e-38 326 244
0.00931546 0.759 -0.0053231199 1.3341649e-38 327 244
0.01064624 0.759 -0.0053231199 1.3065785e-38 328 244
0.012008579 0.76099998 -0.0053371461 1.3065785e-38 329 244
0.013342866 0.76099998 -0.0053371461 1.2789917e-38 330 244
0.014677152 0.76099998 -0.0053371461 1.2789917e-38 331 244
0.016011439 0.76099998 -0.0053371461 1.2698791e-38 332 244
0.01736852 0.76200002 -0.0053441599 1.2698791e-38 333 244
0.01870456 0.76200002 -0.0053441599 1.2423286e-38 334 244
0.020093199 0.764 -0.0053581866 1.2423286e-38 335 244
0.021488851 0.76599997 -0.0053722127 1.2239267e-38 336 244
0.022861714 0.76700002 -0.0053792265 1.2239267e-38 337 244
0.024206521 0.76700002 -0.0053792265 1.1964122e-38 338 244
0.025617953 0.76899999 -0.0053932532 1.1964122e-38 339 244
0.027036399 0.77100003 -0.0054072798 1.1689698e-38 340 244
0.028461859 0.773 -0.0054213065 1.2058839e-38 341 244
0.029855758 0.77399999 -0.0054283198 1.169295e-38 342 244
0.031212838 0.77399999 -0.0054283198 1.169295e-38 343 244
0.032654081 0.77600002 -0.0054423464 1.326679e-38 344 244
0.034014668 0.77600002 -0.0054423464 1.5756072e-38 345 244
-0.042178184 0.77600002 -0.0068029333 1.7979242e-38 289 245
-0.0408176 0.77600002 -0.0068029333 1.6685967e-38 290 245
-0.039558705 0.778 -0.0068204664 1.3827544e-38 291 245
-0.038194612 0.778 -0.0068204664 1.2800758e-38 292 245
-0.036830518 0.778 -0.0068204664 1.2155388e-38 293 245
-0.03528408 0.77399999 -0.0067853997 1.3441776e-38 294 245
-0.033927001 0.77399999 -0.0067853997 1.3257026e-38 295 245
-0.032527838 0.773 -0.0067766332 1.3530722e-38 296 245
-0.031011207 0.76899999 -0.0067415666 1.31623e-38 297 245
-0.02966289 0.76899999 -0.0067415666 1.3528912e-38 298 245
-0.028314579 0.76899999 -0.0067415666 1.334416e-38 299 245
-0.026896132 0.76700002 -0.006724033 1.3619308e-38 300 245
-0.025551327 0.76700002 -0.006724033 1.3527112e-38 301 245
-0.024174958 0.76599997 -0.0067152665 1.3618952e-38 302 245
-0.022831906 0.76599997 -0.0067152665 1.3526756e-38 303 245
-0.021432746 0.764 -0.006697733 1.3526394e-38 304 245
-0.020093199 0.764 -0.006697733 1.3526394e-38 305 245
-0.01870456 0.76200002 -0.0066801999 1.3526394e-38 306 245
-0.01736852 0.76200002 -0.0066801999 1.3526394e-38 307 245
-0.016011439 0.76099998 -0.0066714329 1.3526038e-38 308 245
-0.014677152 0.76099998 -0.0066714329 1.3618233e-38 309 245
-0.013342866 0.76099998 -0.0066714329 1.3618236e-38 310 245
-0.012008579 0.76099998 -0.0066714329 1.3710432e-38 311 245
-0.010674292 0.76099998 -0.0066714329 1.3710434e-38 312 245
-0.0093400059 0.76099998 -0.0066714329 1.3894467e-38 313 245
-0.0080057196 0.76099998 -0.0066714329 1.389482e-38 314 245
-0.0066714329 0.76099998 -0.0066714329 1.3710788e-38 315 245
-0.0053371461 0.76099998 -0.0066714329 1.3619308e-38 316 245
-0.0040028598 0.76099998 -0.0066714329 1.3711505e-38 317 245
-0.0026685731 0.76099998 -0.0066714329 1.343564e-38 318 245
-0.0013342865 0.76099998 -0.0066714329 1.343564e-38 319 245
0 0.76099998 -0.0066714329 1.352711e-38 320 245
0.0013342865 0.76099998 -0.0066714329 1.3619305e-38 321 245
0.00266156 0.759 -0.0066538998 1.352711e-38 322 245
0.0039923396 0.759 -0.0066538998 1.3434914e-38 323 245
0.0053231199 0.759 -0.0066538998 1.3433845e-38 324 245
0.0066538998 0.759 -0.0066538998 1.3341649e-38 325 245
0.0079846792 0.759 -0.0066538998 1.3157978e-38 326 245
0.00931546 0.759 -0.0066538998 1.2973586e-38 327 245
0.01064624 0.759 -0.0066538998 1.2973588e-38 328 245
0.012008579 0.76099998 -0.0066714329 1.2881034e-38 329 245
0.013342866 0.76099998 -0.0066714329 1.2606245e-38 330 245
0.014677152 0.76099998 -0.0066714329 1.2606245e-38 331 245
0.01603248 0.76200002 -0.0066801999 1.2239974e-38 332 245
0.01736852 0.76200002 -0.0066801999 1.2239974e-38 333 245
0.018753653 0.764 -0.006697733 1.2147425e-38 334 245
0.020093199 0.764 -0.006697733 1.2147425e-38 335 245
0.021488851 0.76599997 -0.0067152665 1.1871208e-38 336 245
0.022861714 0.76700002 -0.006724033 1.1871208e-38 337 245
0.024206521 0.76700002 -0.006724033 1.1504586e-38 338 245
0.025617953 0.76899999 -0.0067415666 1.1688977e-38 339 245
0.027036399 0.77100003 -0.0067590997 1.1414918e-38 340 245
0.028498679 0.77399999 -0.0067853997 1.1875895e-38 341 245
0.029855758 0.77399999 -0.0067853997 1.1417808e-38 342 245
0.031293493 0.77600002 -0.0068029333 1.1510004e-38 343 245
0.032654081 0.77600002 -0.0068029333 1.3268592e-38 344 245
0.034014668 0.77600002 -0.0068029333 1.585007e-38 345 245
-0.042178184 0.77600002 -0.0081635201 1.7610827e-38 289 246
-0.0408176 0.77600002 -0.0081635201 1.6503021e-38 290 246
-0.039558705 0.778 -0.0081845606 1.4382521e-38 291 246
-0.038194612 0.778 -0.0081845606 1.3263178e-38 292 246
-0.036925197 0.77999997 -0.0082055992 1.2064635e-38 293 246
-0.03528408 0.77399999 -0.0081424797 1.344214e-38 294 246
-0.033927001 0.77399999 -0.0081424797 1.3257748e-38 295 246
-0.032527838 0.773 -0.0081319595 1.343961e-38 296 246
-0.031091858 0.77100003 -0.0081109209 1.3070467e-38 297 246
-0.02966289 0.76899999 -0.0080898795 1.3528556e-38 298 246
-0.028314579 0.76899999 -0.0080898795 1.343636e-38 299 246
-0.026966266 0.76899999 -0.0080898795 1.3343797e-38 300 246
-0.025551327 0.76700002 -0.00806884 1.3343797e-38 301 246
-0.024206521 0.76700002 -0.00806884 1.3434914e-38 302 246
-0.022831906 0.76599997 -0.0080583189 1.3434914e-38 303 246
-0.021432746 0.764 -0.0080372803 1.3617861e-38 304 246
-0.020093199 0.764 -0.0080372803 1.3710056e-38 305 246
-0.01870456 0.76200002 -0.0080162399 1.3435262e-38 306 246
-0.017345725 0.76099998 -0.0080057196 1.325123e-38 307 246
-0.016011439 0.76099998 -0.0080057196 1.3434545e-38 308 246
-0.014677152 0.76099998 -0.0080057196 1.3434545e-38 309 246
-0.013342866 0.76099998 -0.0080057196 1.3526388e-38 310 246
-0.012008579 0.76099998 -0.0080057196 1.3526388e-38 311 246
-0.010674292 0.76099998 -0.0080057196 1.3619308e-38 312 246
-0.0093400059 0.76099998 -0.0080057196 1.3711505e-38 313 246
-0.0080057196 0.76099998 -0.0080057196 1.3528193e-38 314 246
-0.0066714329 0.76099998 -0.0080057196 1.3435996e-38 315 246
-0.0053371461 0.76099998 -0.0080057196 1.3436713e-38 316 246
-0.0040028598 0.76099998 -0.0080057196 1.3436713e-38 317 246
-0.0026685731 0.76099998 -0.0080057196 1.3161204e-38 318 246
-0.0013342865 0.76099998 -0.0080057196 1.306865e-38 319 246
0 0.76099998 -0.0080057196 1.3251602e-38 320 246
0.0013342865 0.76099998 -0.0080057196 1.3251602e-38 321 246
0.0026685731 0.76099998 -0.0080057196 1.3250883e-38 322 246
0.0040028598 0.76099998 -0.0080057196 1.3158687e-38 323 246
0.0053231199 0.759 -0.0079846792 1.3066136e-38 324 246
0.0066538998 0.759 -0.0079846792 1.3066136e-38 325 246
0.0079846792 0.759 -0.0079846792 1.2973573e-38 326 246
0.0093400059 0.76099998 -0.0080057196 1.2973573e-38 327 246
0.010674292 0.76099998 -0.0080057196 1.2788826e-38 328 246
0.012008579 0.76099998 -0.0080057196 1.2881021e-38 329 246
0.013342866 0.76099998 -0.0080057196 1.2605882e-38 330 246
0.014677152 0.76099998 -0.0080057196 1.2513328e-38 331 246
0.01603248 0.76200002 -0.0080162399 1.2421135e-38 332 246
0.01736852 0.76200002 -0.0080162399 1.251333e-38 333 246
0.018753653 0.764 -0.0080372803 1.2238541e-38 334 246
0.020093199 0.764 -0.0080372803 1.2238541e-38 335 246
0.021488851 0.76599997 -0.0080583189 1.1779365e-38 336 246
0.022861714 0.76700002 -0.00806884 1.1779365e-38 337 246
0.024206521 0.76700002 -0.00806884 1.1504939e-38 338 246
0.025617953 0.76899999 -0.0080898795 1.1597135e-38 339 246
0.027036399 0.77100003 -0.0081109209 1.1415634e-38 340 246
0.028498679 0.77399999 -0.0081424797 1.1600384e-38 341 246
0.029932907 0.77600002 -0.0081635201 1.1051912e-38 342 246
0.031293493 0.77600002 -0.0081635201 1.13285e-38 343 246
0.032654081 0.77600002 -0.0081635201 1.3362237e-38 344 246
0.034014668 0.77600002 -0.0081635201 1.5943715e-38 345 246
-0.0408176 0.77600002 -0.009524107 1.6779252e-38 290 247
-0.039558705 0.778 -0.0095486529 1.5212285e-38 291 247
-0.038194612 0.778 -0.0095486529 1.3817798e-38 292 247
-0.036925197 0.77999997 -0.0095731998 1.2158635e-38 293 247
-0.035466425 0.778 -0.0095486529 1.3534692e-38 294 247
-0.034102332 0.778 -0.0095486529 1.3257745e-38 295 247
-0.032527838 0.773 -0.0094872871 1.3165168e-38 296 247
-0.03117251 0.773 -0.0094872871 1.288858e-38 297 247
-0.02966289 0.76899999 -0.0094381925 1.325412e-38 298 247
-0.028314579 0.76899999 -0.0094381925 1.2977533e-38 299 247
-0.026966266 0.76899999 -0.0094381925 1.3527112e-38 300 247
-0.025551327 0.76700002 -0.0094136465 1.3434558e-38 301 247
-0.024206521 0.76700002 -0.0094136465 1.3251251e-38 302 247
-0.022831906 0.76599997 -0.0094013726 1.3158697e-38 303 247
-0.021432746 0.764 -0.0093768267 1.325053e-38 304 247
-0.020093199 0.764 -0.0093768267 1.325053e-38 305 247
-0.01870456 0.76200002 -0.0093522798 1.2976091e-38 306 247
-0.017345725 0.76099998 -0.0093400059 1.2976091e-38 307 247
-0.016011439 0.76099998 -0.0093400059 1.3067208e-38 308 247
-0.014677152 0.76099998 -0.0093400059 1.3067208e-38 309 247
-0.013342866 0.76099998 -0.0093400059 1.3067936e-38 310 247
-0.012008579 0.76099998 -0.0093400059 1.3067936e-38 311 247
-0.010674292 0.76099998 -0.0093400059 1.3160495e-38 312 247
-0.0093400059 0.76099998 -0.0093400059 1.3160495e-38 313 247
-0.0080057196 0.76099998 -0.0093400059 1.3344163e-38 314 247
-0.0066714329 0.76099998 -0.0093400059 1.343636e-38 315 247
-0.0053371461 0.76099998 -0.0093400059 1.3436713e-38 316 247
-0.0040028598 0.76099998 -0.0093400059 1.3436713e-38 317 247
-0.0026685731 0.76099998 -0.0093400059 1.3161204e-38 318 247
-0.0013342865 0.76099998 -0.0093400059 1.2976454e-38 319 247
0 0.76099998 -0.0093400059 1.2975741e-38 320 247
0.0013342865 0.76099998 -0.0093400059 1.2883186e-38 321 247
0.0026685731 0.76099998 -0.0093400059 1.2790638e-38 322 247
0.0040028598 0.76099998 -0.0093400059 1.2698441e-38 323 247
0.0053231199 0.759 -0.00931546 1.2606248e-38 324 247
0.0066538998 0.759 -0.00931546 1.2422217e-38 325 247
0.0079846792 0.759 -0.00931546 1.2605529e-38 326 247
0.0093400059 0.76099998 -0.0093400059 1.2605529e-38 327 247
0.010674292 0.76099998 -0.0093400059 1.2237469e-38 328 247
0.012008579 0.76099998 -0.0093400059 1.2237469e-38 329 247
0.013342866 0.76099998 -0.0093400059 1.2053804e-38 330 247
0.01469644 0.76200002 -0.0093522798 1.2053804e-38 331 247
0.01603248 0.76200002 -0.0093522798 1.1869776e-38 332 247
0.017414106 0.764 -0.0093768267 1.1961971e-38 333 247
0.018753653 0.764 -0.0093768267 1.1503867e-38 334 247
0.020093199 0.764 -0.0093768267 1.1411672e-38 335 247
0.021488851 0.76599997 -0.0094013726 1.1411669e-38 336 247
0.022861714 0.76700002 -0.0094136465 1.1596419e-38 337 247
0.024269639 0.76899999 -0.0094381925 1.113868e-38 338 247
0.025617953 0.76899999 -0.0094381925 1.1230876e-38 339 247
0.027036399 0.77100003 -0.0094627403 1.1139423e-38 340 247
0.028498679 0.77399999 -0.0094995592 1.16004e-38 341 247
0.029855758 0.77399999 -0.0094995592 1.1142685e-38 342 247
0.031293493 0.77600002 -0.009524107 1.1788055e-38 343 247
0.032654081 0.77600002 -0.009524107 1.3913977e-38 344 247
-0.039660398 0.77999997 -0.010940799 1.5580711e-38 291 248
-0.038292799 0.77999997 -0.010940799 1.409763e-38 292 248
-0.036925197 0.77999997 -0.010940799 1.2253717e-38 293 248
-0.035557598 0.77999997 -0.010940799 1.3443588e-38 294 248
-0.034102332 0.778 -0.010912746 1.3167001e-38 295 248
-0.032569919 0.77399999 -0.01085664 1.3257732e-38 296 248
-0.03117251 0.773 -0.010842613 1.2889309e-38 297 248
-0.029740039 0.77100003 -0.01081456 1.3162297e-38 298 248
-0.028314579 0.76899999 -0.010786506 1.2977906e-38 299 248
-0.026966266 0.76899999 -0.010786506 1.306758e-38 300 248
-0.025551327 0.76700002 -0.010758453 1.306758e-38 301 248
-0.024206521 0.76700002 -0.010758453 1.3158331e-38 302 248
-0.022831906 0.76599997 -0.010744425 1.3158331e-38 303 248
-0.021432746 0.764 -0.010716373 1.3158334e-38 304 248
-0.020093199 0.764 -0.010716373 1.3158334e-38 305 248
-0.018753653 0.764 -0.010716373 1.2973939e-38 306 248
-0.01736852 0.76200002 -0.01068832 1.2973939e-38 307 248
-0.016011439 0.76099998 -0.010674292 1.2973936e-38 308 248
-0.014677152 0.76099998 -0.010674292 1.3066133e-38 309 248
-0.013342866 0.76099998 -0.010674292 1.2883542e-38 310 248
-0.012008579 0.76099998 -0.010674292 1.2975738e-38 311 248
-0.010674292 0.76099998 -0.010674292 1.2975741e-38 312 248
-0.0093400059 0.76099998 -0.010674292 1.3067936e-38 313 248
-0.0080057196 0.76099998 -0.010674292 1.3251967e-38 314 248
-0.0066714329 0.76099998 -0.010674292 1.343636e-38 315 248
-0.0053371461 0.76099998 -0.010674292 1.3436363e-38 316 248
-0.0040028598 0.76099998 -0.010674292 1.3344166e-38 317 248
-0.0026685731 0.76099998 -0.010674292 1.3067583e-38 318 248
-0.0013342865 0.76099998 -0.010674292 1.2790638e-38 319 248
0 0.76099998 -0.010674292 1.2789917e-38 320 248
0.0013342865 0.76099998 -0.010674292 1.2697722e-38 321 248
0.0026685731 0.76099998 -0.010674292 1.2789194e-38 322 248
0.0040028598 0.76099998 -0.010674292 1.2605163e-38 323 248
0.0053231199 0.759 -0.01064624 1.2421132e-38 324 248
0.0066538998 0.759 -0.01064624 1.2421132e-38 325 248
0.0079846792 0.759 -0.01064624 1.223782e-38 326 248
0.0093400059 0.76099998 -0.010674292 1.2053427e-38 327 248
0.010674292 0.76099998 -0.010674292 1.2053073e-38 328 248
0.012008579 0.76099998 -0.010674292 1.2053073e-38 329 248
0.013342866 0.76099998 -0.010674292 1.1960525e-38 330 248
0.01469644 0.76200002 -0.01068832 1.1960525e-38 331 248
0.01603248 0.76200002 -0.01068832 1.1869413e-38 332 248
0.017414106 0.764 -0.010716373 1.1869413e-38 333 248
0.018753653 0.764 -0.010716373 1.1503504e-38 334 248
0.020145798 0.76599997 -0.010744425 1.1503504e-38 335 248
0.021516906 0.76700002 -0.010758453 1.1228357e-38 336 248
0.022861714 0.76700002 -0.010758453 1.1320552e-38 337 248
0.024269639 0.76899999 -0.010786506 1.1046485e-38 338 248
0.02568458 0.77100003 -0.01081456 1.1230876e-38 339 248
0.027106533 0.773 -0.010842613 1.1232694e-38 340 248
0.028498679 0.77399999 -0.01085664 1.1693313e-38 341 248
0.029855758 0.77399999 -0.01085664 1.1419268e-38 342 248
0.031293493 0.77600002 -0.010884693 1.224903e-38 343 248
0.032654081 0.77600002 -0.010884693 1.3915777e-38 344 248
-0.038292799 0.77999997 -0.012308398 1.4100877e-38 292 249
-0.036925197 0.77999997 -0.012308398 1.2440995e-38 293 249
-0.035466425 0.778 -0.012276839 1.3078051e-38 294 249
-0.034014668 0.77600002 -0.01224528 1.2524879e-38 295 249
-0.032569919 0.77399999 -0.01221372 1.2890395e-38 296 249
-0.03117251 0.773 -0.012197939 1.2521612e-38 297 249
-0.029740039 0.77100003 -0.01216638 1.2887155e-38 298 249
-0.028314579 0.76899999 -0.012134819 1.2702764e-38 299 249
-0.026966266 0.76899999 -0.012134819 1.2792794e-38 300 249
-0.025551327 0.76700002 -0.01210326 1.2792794e-38 301 249
-0.024206521 0.76700002 -0.01210326 1.2883905e-38 302 249
-0.022831906 0.76599997 -0.012087479 1.2607678e-38 303 249
-0.021432746 0.764 -0.01205592 1.2882473e-38 304 249
-0.020093199 0.764 -0.01205592 1.2789917e-38 305 249
-0.018753653 0.764 -0.01205592 1.2697722e-38 306 249
-0.01736852 0.76200002 -0.01202436 1.2789917e-38 307 249
-0.016011439 0.76099998 -0.012008579 1.2605882e-38 308 249
-0.014677152 0.76099998 -0.012008579 1.2790273e-38 309 249
-0.013342866 0.76099998 -0.012008579 1.2883189e-38 310 249
-0.012008579 0.76099998 -0.012008579 1.2883189e-38 311 249
-0.010674292 0.76099998 -0.012008579 1.2699877e-38 312 249
-0.0093400059 0.76099998 -0.012008579 1.2883908e-38 313 249
-0.0080057196 0.76099998 -0.012008579 1.2975388e-38 314 249
-0.0066714329 0.76099998 -0.012008579 1.3251614e-38 315 249
-0.0053371461 0.76099998 -0.012008579 1.3251617e-38 316 249
-0.0040028598 0.76099998 -0.012008579 1.3067586e-38 317 249
-0.0026685731 0.76099998 -0.012008579 1.2882836e-38 318 249
-0.0013342865 0.76099998 -0.012008579 1.2606248e-38 319 249
0 0.76099998 -0.012008579 1.251333e-38 320 249
0.0013342865 0.76099998 -0.012008579 1.251333e-38 321 249
0.0026685731 0.76099998 -0.012008579 1.2237823e-38 322 249
0.0040028598 0.76099998 -0.012008579 1.2145268e-38 323 249
0.0053231199 0.759 -0.01197702 1.2145271e-38 324 249
0.0066538998 0.759 -0.01197702 1.2053075e-38 325 249
0.0079846792 0.759 -0.01197702 1.1777566e-38 326 249
0.0093400059 0.76099998 -0.012008579 1.1685012e-38 327 249
0.010674292 0.76099998 -0.012008579 1.1501699e-38 328 249
0.012008579 0.76099998 -0.012008579 1.1501699e-38 329 249
0.0133604 0.76200002 -0.01202436 1.1501346e-38 330 249
0.01469644 0.76200002 -0.01202436 1.1501346e-38 331 249
0.016074561 0.764 -0.01205592 1.1409872e-38 332 249
0.017414106 0.764 -0.01205592 1.1594265e-38 333 249
0.018802745 0.76599997 -0.012087479 1.1043608e-38 334 249
0.020145798 0.76599997 -0.012087479 1.1136164e-38 335 249
0.021516906 0.76700002 -0.01210326 1.0953214e-38 336 249
0.022861714 0.76700002 -0.01210326 1.1137606e-38 337 249
0.024269639 0.76899999 -0.012134819 1.0863182e-38 338 249
0.025751207 0.773 -0.012197939 1.1047575e-38 339 249
0.027141599 0.77399999 -0.01221372 1.1232703e-38 340 249
0.028498679 0.77399999 -0.01221372 1.1601846e-38 341 249
0.029855758 0.77399999 -0.01221372 1.1789142e-38 342 249
0.031293493 0.77600002 -0.01224528 1.3172078e-38 343 249
-0.035466425 0.778 -0.013640933 1.307915e-38 294 250
-0.033927001 0.77399999 -0.013570799 1.2617811e-38 295 250
-0.032569919 0.77399999 -0.013570799 1.2890773e-38 296 250
-0.03117251 0.773 -0.013553266 1.2613827e-38 297 250
-0.029740039 0.77100003 -0.013518199 1.2704208e-38 298 250
-0.028388219 0.77100003 -0.013518199 1.2519817e-38 299 250
-0.026966266 0.76899999 -0.013483133 1.2609845e-38 300 250
-0.025551327 0.76700002 -0.013448066 1.2517649e-38 301 250
-0.024206521 0.76700002 -0.013448066 1.2700593e-38 302 250
-0.022831906 0.76599997 -0.013430533 1.2608397e-38 303 250
-0.021488851 0.76599997 -0.013430533 1.2515126e-38 304 250
-0.020145798 0.76599997 -0.013430533 1.242293e-38 305 250
-0.018802745 0.76599997 -0.013430533 1.2606245e-38 306 250
-0.017414106 0.764 -0.013395466 1.2606245e-38 307 250
-0.01603248 0.76200002 -0.0133604 1.2606601e-38 308 250
-0.01469644 0.76200002 -0.0133604 1.2606601e-38 309 250
-0.013342866 0.76099998 -0.013342866 1.2515126e-38 310 250
-0.012008579 0.76099998 -0.013342866 1.2515126e-38 311 250
-0.010674292 0.76099998 -0.013342866 1.2698796e-38 312 250
-0.0093400059 0.76099998 -0.013342866 1.2698796e-38 313 250
-0.0080057196 0.76099998 -0.013342866 1.279064e-38 314 250
-0.0066714329 0.76099998 -0.013342866 1.2882836e-38 315 250
-0.0053371461 0.76099998 -0.013342866 1.2883205e-38 316 250
-0.0040028598 0.76099998 -0.013342866 1.2606978e-38 317 250
-0.0026685731 0.76099998 -0.013342866 1.2605895e-38 318 250
-0.0013342865 0.76099998 -0.013342866 1.2237113e-38 319 250
0 0.76099998 -0.013342866 1.2237817e-38 320 250
0.0013342865 0.76099998 -0.013342866 1.2145621e-38 321 250
0.0026685731 0.76099998 -0.013342866 1.1870832e-38 322 250
0.0040028598 0.76099998 -0.013342866 1.1778635e-38 323 250
0.0053371461 0.76099998 -0.013342866 1.1960878e-38 324 250
0.0066538998 0.759 -0.0133078 1.1960878e-38 325 250
0.0079846792 0.759 -0.0133078 1.1501699e-38 326 250
0.0093400059 0.76099998 -0.013342866 1.1501699e-38 327 250
0.010674292 0.76099998 -0.013342866 1.1410223e-38 328 250
0.012008579 0.76099998 -0.013342866 1.1226192e-38 329 250
0.0133604 0.76200002 -0.0133604 1.1134362e-38 330 250
0.01469644 0.76200002 -0.0133604 1.1226557e-38 331 250
0.016074561 0.764 -0.013395466 1.1226204e-38 332 250
0.017414106 0.764 -0.013395466 1.13184e-38 333 250
0.018802745 0.76599997 -0.013430533 1.1043611e-38 334 250
0.020145798 0.76599997 -0.013430533 1.1135808e-38 335 250
0.021516906 0.76700002 -0.013448066 1.0861382e-38 336 250
0.022861714 0.76700002 -0.013448066 1.1046132e-38 337 250
0.024269639 0.76899999 -0.013483133 1.0771713e-38 338 250
0.02568458 0.77100003 -0.013518199 1.1140495e-38 339 250
0.027106533 0.773 -0.013553266 1.1234861e-38 340 250
0.028498679 0.77399999 -0.013570799 1.1695481e-38 341 250
0.029855758 0.77399999 -0.013570799 1.1975338e-38 342 250
-0.033927001 0.77399999 -0.014927879 1.2619257e-38 295 251
-0.032569919 0.77399999 -0.014927879 1.2891139e-38 296 251
-0.03117251 0.773 -0.014908593 1.2522358e-38 297 251
-0.029740039 0.77100003 -0.01487002 1.2613462e-38 298 251
-0.028388219 0.77100003 -0.01487002 1.242871e-38 299 251
-0.026966266 0.76899999 -0.014831445 1.2519098e-38 300 251
-0.025617953 0.76899999 -0.014831445 1.2334347e-38 301 251
-0.024206521 0.76700002 -0.014792874 1.2425454e-38 302 251
-0.022861714 0.76700002 -0.014792874 1.2332899e-38 303 251
-0.021488851 0.76599997 -0.014773586 1.2423652e-38 304 251
-0.020145798 0.76599997 -0.014773586 1.223962e-38 305 251
-0.018802745 0.76599997 -0.014773586 1.2239618e-38 306 251
-0.017414106 0.764 -0.014735013 1.2147422e-38 307 251
-0.016074561 0.764 -0.014735013 1.2330734e-38 308 251
-0.01469644 0.76200002 -0.01469644 1.2330734e-38 309 251
-0.0133604 0.76200002 -0.01469644 1.2422933e-38 310 251
-0.012008579 0.76099998 -0.014677152 1.2422933e-38 311 251
-0.010674292 0.76099998 -0.014677152 1.2606601e-38 312 251
-0.0093400059 0.76099998 -0.014677152 1.2606601e-38 313 251
-0.0080057196 0.76099998 -0.014677152 1.2698796e-38 314 251
-0.0066714329 0.76099998 -0.014677152 1.2698796e-38 315 251
-0.0053371461 0.76099998 -0.014677152 1.2605895e-38 316 251
-0.0040081199 0.76200002 -0.01469644 1.2421863e-38 317 251
-0.00267208 0.76200002 -0.01469644 1.2512977e-38 318 251
-0.0013342865 0.76099998 -0.014677152 1.2236751e-38 319 251
0 0.76099998 -0.014677152 1.1962306e-38 320 251
0.0013342865 0.76099998 -0.014677152 1.1962306e-38 321 251
0.0026685731 0.76099998 -0.014677152 1.1778635e-38 322 251
0.0040028598 0.76099998 -0.014677152 1.1778635e-38 323 251
0.0053371461 0.76099998 -0.014677152 1.1593895e-38 324 251
0.0066714329 0.76099998 -0.014677152 1.1501699e-38 325 251
0.0080057196 0.76099998 -0.014677152 1.1409504e-38 326 251
0.0093400059 0.76099998 -0.014677152 1.1409504e-38 327 251
0.01068832 0.76200002 -0.01469644 1.1226192e-38 328 251
0.01202436 0.76200002 -0.01469644 1.1133996e-38 329 251
0.0133604 0.76200002 -0.01469644 1.1042163e-38 330 251
0.014735013 0.764 -0.014735013 1.1042163e-38 331 251
0.016074561 0.764 -0.014735013 1.104181e-38 332 251
0.017414106 0.764 -0.014735013 1.122656e-38 333 251
0.018802745 0.76599997 -0.014773586 1.0768466e-38 334 251
0.020145798 0.76599997 -0.014773586 1.0953217e-38 335 251
0.021516906 0.76700002 -0.014792874 1.0586956e-38 336 251
0.022861714 0.76700002 -0.014792874 1.0863182e-38 337 251
0.02433276 0.77100003 -0.01487002 1.0772436e-38 338 251
0.02568458 0.77100003 -0.01487002 1.1233412e-38 339 251
0.027106533 0.773 -0.014908593 1.1051909e-38 340 251
0.028498679 0.77399999 -0.014927879 1.1605083e-38 341 251
-0.032569919 0.77399999 -0.016284959 1.3351395e-38 296 252
-0.03117251 0.773 -0.016263919 1.3074448e-38 297 252
-0.029817186 0.773 -0.016263919 1.2889323e-38 298 252
-0.028388219 0.77100003 -0.016221842 1.2612376e-38 299 252
-0.027036399 0.77100003 -0.016221842 1.2794603e-38 300 252
-0.025617953 0.76899999 -0.016179759 1.2610212e-38 301 252
-0.024206521 0.76700002 -0.01613768 1.2334337e-38 302 252
-0.022861714 0.76700002 -0.01613768 1.2149587e-38 303 252
-0.021516906 0.76700002 -0.01613768 1.2056675e-38 304 252
-0.020172099 0.76700002 -0.01613768 1.1964478e-38 305 252
-0.018827293 0.76700002 -0.01613768 1.2422935e-38 306 252
-0.017414106 0.764 -0.016074561 1.2330381e-38 307 252
-0.016074561 0.764 -0.016074561 1.2330018e-38 308 252
-0.01469644 0.76200002 -0.01603248 1.2422214e-38 309 252
-0.0133604 0.76200002 -0.01603248 1.2147069e-38 310 252
-0.01202436 0.76200002 -0.01603248 1.2147069e-38 311 252
-0.01068832 0.76200002 -0.01603248 1.2330737e-38 312 252
-0.0093522798 0.76200002 -0.01603248 1.2330737e-38 313 252
-0.0080162399 0.76200002 -0.01603248 1.2330737e-38 314 252
-0.0066801999 0.76200002 -0.01603248 1.2238541e-38 315 252
-0.0053441599 0.76200002 -0.01603248 1.2237835e-38 316 252
-0.0040028598 0.76099998 -0.016011439 1.2053804e-38 317 252
-0.0026685731 0.76099998 -0.016011439 1.1870126e-38 318 252
-0.0013342865 0.76099998 -0.016011439 1.1870126e-38 319 252
0 0.76099998 -0.016011439 1.1595323e-38 320 252
0.0013342865 0.76099998 -0.016011439 1.1595323e-38 321 252
0.0026685731 0.76099998 -0.016011439 1.1502418e-38 322 252
0.0040028598 0.76099998 -0.016011439 1.1410223e-38 323 252
0.0053371461 0.76099998 -0.016011439 1.1592466e-38 324 252
0.0066714329 0.76099998 -0.016011439 1.1408435e-38 325 252
0.0080057196 0.76099998 -0.016011439 1.1224757e-38 326 252
0.0093400059 0.76099998 -0.016011439 1.1224757e-38 327 252
0.01068832 0.76200002 -0.01603248 1.0949968e-38 328 252
0.01202436 0.76200002 -0.01603248 1.0949968e-38 329 252
0.013395466 0.764 -0.016074561 1.0582987e-38 330 252
0.014735013 0.764 -0.016074561 1.0675183e-38 331 252
0.016074561 0.764 -0.016074561 1.0859217e-38 332 252
0.017459691 0.76599997 -0.016116638 1.0859217e-38 333 252
0.018802745 0.76599997 -0.016116638 1.0677351e-38 334 252
0.020172099 0.76700002 -0.01613768 1.0953936e-38 335 252
0.021516906 0.76700002 -0.01613768 1.0770634e-38 336 252
0.022921326 0.76899999 -0.016179759 1.1047581e-38 337 252
0.02433276 0.77100003 -0.016221842 1.095683e-38 338 252
0.025751207 0.773 -0.016263919 1.1510004e-38 339 252
0.027141599 0.77399999 -0.016284959 1.0960089e-38 340 252
-0.03117251 0.773 -0.017619247 1.2799686e-38 297 253
-0.029817186 0.773 -0.017619247 1.2706394e-38 298 253
-0.028388219 0.77100003 -0.01757366 1.2429809e-38 299 253
-0.027036399 0.77100003 -0.01757366 1.2427994e-38 300 253
-0.02568458 0.77100003 -0.01757366 1.2243603e-38 301 253
-0.024269639 0.76899999 -0.017528072 1.2058839e-38 302 253
-0.022861714 0.76700002 -0.017482487 1.1874448e-38 303 253
-0.021516906 0.76700002 -0.017482487 1.2148871e-38 304 253
-0.020172099 0.76700002 -0.017482487 1.1964478e-38 305 253
-0.018827293 0.76700002 -0.017482487 1.2422211e-38 306 253
-0.017459691 0.76599997 -0.017459691 1.2422211e-38 307 253
-0.016074561 0.764 -0.017414106 1.2422567e-38 308 253
-0.01469644 0.76200002 -0.01736852 1.2330371e-38 309 253
-0.0133604 0.76200002 -0.01736852 1.2238536e-38 310 253
-0.01202436 0.76200002 -0.01736852 1.2238536e-38 311 253
-0.01068832 0.76200002 -0.01736852 1.223782e-38 312 253
-0.0093522798 0.76200002 -0.01736852 1.2330015e-38 313 253
-0.0080162399 0.76200002 -0.01736852 1.2054154e-38 314 253
-0.0066801999 0.76200002 -0.01736852 1.1961959e-38 315 253
-0.0053441599 0.76200002 -0.01736852 1.1870126e-38 316 253
-0.0040028598 0.76099998 -0.017345725 1.177793e-38 317 253
-0.0026685731 0.76099998 -0.017345725 1.1778286e-38 318 253
-0.0013342865 0.76099998 -0.017345725 1.1501699e-38 319 253
0 0.76099998 -0.017345725 1.1685368e-38 320 253
0.0013342865 0.76099998 -0.017345725 1.1593172e-38 321 253
0.0026685731 0.76099998 -0.017345725 1.1684298e-38 322 253
0.0040028598 0.76099998 -0.017345725 1.1591744e-38 323 253
0.0053371461 0.76099998 -0.017345725 1.1315886e-38 324 253
0.0066714329 0.76099998 -0.017345725 1.122369e-38 325 253
0.0080162399 0.76200002 -0.01736852 1.1132208e-38 326 253
0.0093522798 0.76200002 -0.01736852 1.1132208e-38 327 253
0.01068832 0.76200002 -0.01736852 1.1041447e-38 328 253
0.01205592 0.764 -0.017414106 1.1041447e-38 329 253
0.013395466 0.764 -0.017414106 1.0766299e-38 330 253
0.014735013 0.764 -0.017414106 1.0858854e-38 331 253
0.016116638 0.76599997 -0.017459691 1.0675188e-38 332 253
0.017459691 0.76599997 -0.017459691 1.1043611e-38 333 253
0.018827293 0.76700002 -0.017482487 1.0860313e-38 334 253
0.020172099 0.76700002 -0.017482487 1.1045063e-38 335 253
0.021516906 0.76700002 -0.017482487 1.0953956e-38 336 253
0.022921326 0.76899999 -0.017528072 1.1230543e-38 337 253
0.02433276 0.77100003 -0.01757366 1.1049747e-38 338 253
0.025751207 0.773 -0.017619247 1.1602562e-38 339 253
-0.03117251 0.773 -0.018974574 1.2710004e-38 297 254
-0.029817186 0.773 -0.018974574 1.2891133e-38 298 254
-0.028388219 0.77100003 -0.018925481 1.2522711e-38 299 254
-0.027036399 0.77100003 -0.018925481 1.2612378e-38 300 254
-0.02568458 0.77100003 -0.018925481 1.2243956e-38 301 254
-0.024269639 0.76899999 -0.018876385 1.2335056e-38 302 254
-0.022921326 0.76899999 -0.018876385 1.2150306e-38 303 254
-0.021516906 0.76700002 -0.018827293 1.1874076e-38 304 254
-0.020172099 0.76700002 -0.018827293 1.1781879e-38 305 254
-0.018827293 0.76700002 -0.018827293 1.1872277e-38 306 254
-0.017459691 0.76599997 -0.018802745 1.1780081e-38 307 254
-0.016074561 0.764 -0.018753653 1.1963031e-38 308 254
-0.014735013 0.764 -0.018753653 1.2055226e-38 309 254
-0.0133604 0.76200002 -0.01870456 1.1962675e-38 310 254
-0.01202436 0.76200002 -0.01870456 1.205487e-38 311 254
-0.01068832 0.76200002 -0.01870456 1.1962324e-38 312 254
-0.0093522798 0.76200002 -0.01870456 1.1870129e-38 313 254
-0.0080162399 0.76200002 -0.01870456 1.1869776e-38 314 254
-0.0066801999 0.76200002 -0.01870456 1.1869776e-38 315 254
-0.0053441599 0.76200002 -0.01870456 1.1503148e-38 316 254
-0.0040081199 0.76200002 -0.01870456 1.1318756e-38 317 254
-0.00267208 0.76200002 -0.01870456 1.140987e-38 318 254
-0.00133604 0.76200002 -0.01870456 1.1225838e-38 319 254
0 0.76099998 -0.018680012 1.1134359e-38 320 254
0.0013342865 0.76099998 -0.018680012 1.1134359e-38 321 254
0.0026685731 0.76099998 -0.018680012 1.1316955e-38 322 254
0.0040028598 0.76099998 -0.018680012 1.1316955e-38 323 254
0.0053441599 0.76200002 -0.01870456 1.1132208e-38 324 254
0.0066801999 0.76200002 -0.01870456 1.1132208e-38 325 254
0.0080162399 0.76200002 -0.01870456 1.0765586e-38 326 254
0.0093522798 0.76200002 -0.01870456 1.0765586e-38 327 254
0.01068832 0.76200002 -0.01870456 1.0674107e-38 328 254
0.01205592 0.764 -0.018753653 1.0674107e-38 329 254
0.013430533 0.76599997 -0.018802745 1.0675183e-38 330 254
0.014773586 0.76599997 -0.018802745 1.0675183e-38 331 254
0.016116638 0.76599997 -0.018802745 1.067627e-38 332 254
0.017482487 0.76700002 -0.018827293 1.0860663e-38 333 254
0.018827293 0.76700002 -0.018827293 1.0677719e-38 334 254
0.0202247 0.76899999 -0.018876385 1.0769915e-38 335 254
0.021573013 0.76899999 -0.018876385 1.0954676e-38 336 254
0.02298094 0.77100003 -0.018925481 1.1231622e-38 337 254
