# .PCD v.7 - Point Cloud Data file format
FIELDS x y z rgb imX imY
SIZE 4 4 4 4 4 4
TYPE F F F F F F
COUNT 1 1 1 1 1 1
WIDTH 827
HEIGHT 1
VIEWPOINT 0 0 0 1 0 0 0
POINTS 827
DATA ascii
-0.019356798 0.69 0.0024195998 1.6572794e-38 304 238
-0.0180944 0.68800002 0.0024125867 1.6756825e-38 305 238
-0.01686356 0.68699998 0.0024090798 1.6756796e-38 306 238
-0.015659019 0.68699998 0.0024090798 1.7217415e-38 307 238
-0.014454478 0.68699998 0.0024090798 1.7220289e-38 308 238
-0.013249939 0.68699998 0.0024090798 1.7035897e-38 309 238
-0.012045399 0.68699998 0.0024090798 1.72174e-38 310 238
-0.010840859 0.68699998 0.0024090798 1.6848616e-38 311 238
-0.0096363192 0.68699998 0.0024090798 1.6847151e-38 312 238
-0.0084686 0.69 0.0024195998 1.6662403e-38 313 238
-0.0072587994 0.69 0.0024195998 1.6477656e-38 314 238
-0.0060489997 0.69 0.0024195998 1.6201073e-38 315 238
-0.0048391996 0.69 0.0024195998 1.6108879e-38 316 238
-0.0036451798 0.69300002 0.00243012 1.6016685e-38 317 238
-0.00243012 0.69300002 0.00243012 1.5924132e-38 318 238
-0.00121506 0.69300002 0.00243012 1.5924132e-38 319 238
0 0.69300002 0.00243012 1.5740819e-38 320 238
0.00121506 0.69300002 0.00243012 1.5740819e-38 321 238
0.0024406398 0.69599998 0.0024406398 1.5741895e-38 322 238
0.0036609597 0.69599998 0.0024406398 1.583409e-38 323 238
0.0048882933 0.69700003 0.0024441467 1.5651854e-38 324 238
0.0061103669 0.69700003 0.0024441467 1.5651854e-38 325 238
0.00733244 0.69700003 0.0024441467 1.5468541e-38 326 238
0.0085667865 0.69800001 0.0024476533 1.5745124e-38 327 238
0.0098186666 0.69999999 0.0024546667 1.5191969e-38 328 238
0.011061779 0.70099998 0.0024581731 1.5099773e-38 329 238
0.012290866 0.70099998 0.0024581731 1.5476578e-38 330 238
-0.044247117 0.70099998 0.0012290865 1.5190619e-38 284 239
-0.043018032 0.70099998 0.0012290865 1.3992077e-38 285 239
-0.041788943 0.70099998 0.0012290865 1.4636312e-38 286 239
-0.040502001 0.69999999 0.0012273333 1.4636312e-38 287 239
-0.039274666 0.69999999 0.0012273333 1.491325e-38 288 239
-0.037938625 0.69800001 0.0012238267 1.491325e-38 289 239
-0.0367148 0.69800001 0.0012238267 1.5189117e-38 290 239
-0.035440128 0.69700003 0.0012220733 1.5281312e-38 291 239
-0.034218054 0.69700003 0.0012220733 1.5373152e-38 292 239
-0.032948639 0.69599998 0.0012203199 1.5465707e-38 293 239
-0.031637147 0.69400001 0.0012168133 1.5373152e-38 294 239
-0.0303765 0.69300002 0.00121506 1.5465707e-38 295 239
-0.029161438 0.69300002 0.00121506 1.5649019e-38 296 239
-0.027946379 0.69300002 0.00121506 1.5649019e-38 297 239
-0.026654173 0.69099998 0.0012115532 1.5465701e-38 298 239
-0.025442619 0.69099998 0.0012115532 1.5465701e-38 299 239
-0.024231065 0.69099998 0.0012115532 1.5282026e-38 300 239
-0.023019511 0.69099998 0.0012115532 1.601995e-38 301 239
-0.021807959 0.69099998 0.0012115532 1.6386585e-38 302 239
-0.020566599 0.69 0.0012097999 1.6386585e-38 303 239
-0.019300694 0.68800002 0.0012062934 1.5741932e-38 304 239
-0.018068098 0.68699998 0.0012045399 1.6479856e-38 305 239
-0.01686356 0.68699998 0.0012045399 1.657492e-38 306 239
-0.015659019 0.68699998 0.0012045399 1.6759311e-38 307 239
-0.014454478 0.68699998 0.0012045399 1.7311769e-38 308 239
-0.013249939 0.68699998 0.0012045399 1.7219572e-38 309 239
-0.012045399 0.68699998 0.0012045399 1.7125575e-38 310 239
-0.010840859 0.68699998 0.0012045399 1.6940824e-38 311 239
-0.0096363192 0.68699998 0.0012045399 1.6940799e-38 312 239
-0.0084440531 0.68800002 0.0012062934 1.6571656e-38 313 239
-0.0072377604 0.68800002 0.0012062934 1.6384026e-38 314 239
-0.0060314666 0.68800002 0.0012062934 1.6291832e-38 315 239
-0.0048251734 0.68800002 0.0012062934 1.6107085e-38 316 239
-0.0036293997 0.69 0.0012097999 1.6014891e-38 317 239
-0.0024195998 0.69 0.0012097999 1.6014532e-38 318 239
-0.0012097999 0.69 0.0012097999 1.6014532e-38 319 239
0 0.69 0.0012097999 1.5832296e-38 320 239
0.0012097999 0.69 0.0012097999 1.592449e-38 321 239
0.0024231065 0.69099998 0.0012115532 1.5741895e-38 322 239
0.0036504399 0.69400001 0.0012168133 1.583409e-38 323 239
0.0048812795 0.69599998 0.0012203199 1.5467824e-38 324 239
0.0061015999 0.69599998 0.0012203199 1.5651854e-38 325 239
0.00733244 0.69700003 0.0012220733 1.5561453e-38 326 239
0.0085545136 0.69700003 0.0012220733 1.5561453e-38 327 239
0.0097906133 0.69800001 0.0012238267 1.5285951e-38 328 239
0.01101444 0.69800001 0.0012238267 1.5378505e-38 329 239
0.012273333 0.69999999 0.0012273333 1.3813426e-38 330 239
0.013500666 0.69999999 0.0012273333 1.5472948e-38 331 239
-0.045476202 0.70099998 -0 1.502066e-38 283 240
-0.044247117 0.70099998 -0 1.4543083e-38 284 240
-0.042956665 0.69999999 -0 1.4450886e-38 285 240
-0.041729331 0.69999999 -0 1.4635252e-38 286 240
-0.040502001 0.69999999 -0 1.4635252e-38 287 240
-0.039162453 0.69800001 -0 1.4821057e-38 288 240
-0.037938625 0.69800001 -0 1.4913253e-38 289 240
-0.036662199 0.69700003 -0 1.528131e-38 290 240
-0.035440128 0.69700003 -0 1.5373505e-38 291 240
-0.034070771 0.69400001 -0 1.5373505e-38 292 240
-0.032853961 0.69400001 -0 1.5465701e-38 293 240
-0.031591557 0.69300002 -0 1.5650092e-38 294 240
-0.030288832 0.69099998 -0 1.5465701e-38 295 240
-0.029077278 0.69099998 -0 1.5650089e-38 296 240
-0.027825398 0.69 -0 1.5466057e-38 297 240
-0.026615599 0.69 -0 1.5649369e-38 298 240
-0.025405798 0.69 -0 1.5741566e-38 299 240
-0.024195999 0.69 -0 1.5466421e-38 300 240
-0.022986198 0.69 -0 1.5743367e-38 301 240
-0.021776399 0.69 -0 1.611072e-38 302 240
-0.020566599 0.69 -0 1.611072e-38 303 240
-0.019300694 0.68800002 -0 1.5928494e-38 304 240
-0.018068098 0.68699998 -0 1.6205439e-38 305 240
-0.01686356 0.68699998 -0 1.6205802e-38 306 240
-0.015659019 0.68699998 -0 1.666678e-38 307 240
-0.014454478 0.68699998 -0 1.6482396e-38 308 240
-0.013249939 0.68699998 -0 1.6666427e-38 309 240
-0.012045399 0.68699998 -0 1.6758964e-38 310 240
-0.010840859 0.68699998 -0 1.6389821e-38 311 240
-0.0096363192 0.68699998 -0 1.6479837e-38 312 240
-0.0084317802 0.68699998 -0 1.5742271e-38 313 240
-0.0072272392 0.68699998 -0 1.5922701e-38 314 240
-0.0060226996 0.68699998 -0 1.5922701e-38 315 240
-0.0048181596 0.68699998 -0 1.5739026e-38 316 240
-0.0036188802 0.68800002 -0 1.5554996e-38 317 240
-0.0024125867 0.68800002 -0 1.5738667e-38 318 240
-0.0012062934 0.68800002 -0 1.5830861e-38 319 240
0 0.68800002 -0 1.5556072e-38 320 240
0.0012062934 0.68800002 -0 1.5740461e-38 321 240
0.0024195998 0.69 -0 1.5648984e-38 322 240
0.0036346598 0.69099998 -0 1.5833372e-38 323 240
0.0048672534 0.69400001 -0 1.5467111e-38 324 240
0.0061015999 0.69599998 -0 1.5743339e-38 325 240
0.0073219193 0.69599998 -0 1.5377783e-38 326 240
0.0085545136 0.69700003 -0 1.5469979e-38 327 240
0.0097906133 0.69800001 -0 1.5195905e-38 328 240
0.01101444 0.69800001 -0 1.5288099e-38 329 240
0.012238266 0.69800001 -0 1.4456571e-38 330 240
0.013500666 0.69999999 -0 1.362645e-38 331 240
0.014791119 0.70300001 -0 1.3364363e-38 332 240
0.016023712 0.70300001 -0 1.6775601e-38 333 240
-0.046838548 0.70300001 -0.0012325933 1.3913944e-38 282 241
-0.045476202 0.70099998 -0.0012290865 1.0963682e-38 283 241
-0.044247117 0.70099998 -0.0012290865 1.3986663e-38 284 241
-0.042956665 0.69999999 -0.0012273333 1.4816423e-38 285 241
-0.041729331 0.69999999 -0.0012273333 1.4725284e-38 286 241
-0.040502001 0.69999999 -0.0012273333 1.4909676e-38 287 241
-0.039162453 0.69800001 -0.0012238267 1.5096563e-38 288 241
-0.037884273 0.69700003 -0.0012220733 1.5189117e-38 289 241
-0.036662199 0.69700003 -0.0012220733 1.537458e-38 290 241
-0.035389278 0.69599998 -0.0012203199 1.5466777e-38 291 241
-0.034070771 0.69400001 -0.0012168133 1.5466773e-38 292 241
-0.03280662 0.69300002 -0.00121506 1.555897e-38 293 241
-0.031500384 0.69099998 -0.0012115532 1.5467493e-38 294 241
-0.030244999 0.69 -0.0012097999 1.5283461e-38 295 241
-0.029035198 0.69 -0.0012097999 1.5466421e-38 296 241
-0.027825398 0.69 -0.0012097999 1.5466421e-38 297 241
-0.026615599 0.69 -0.0012097999 1.5650092e-38 298 241
-0.025405798 0.69 -0.0012097999 1.5465701e-38 299 241
-0.024125867 0.68800002 -0.0012062934 1.5559676e-38 300 241
-0.022919573 0.68800002 -0.0012062934 1.5651872e-38 301 241
-0.021776399 0.69 -0.0012097999 1.6110332e-38 302 241
-0.020566599 0.69 -0.0012097999 1.6202528e-38 303 241
-0.019300694 0.68800002 -0.0012062934 1.5927395e-38 304 241
-0.018068098 0.68699998 -0.0012045399 1.6112145e-38 305 241
-0.01686356 0.68699998 -0.0012045399 1.6387301e-38 306 241
-0.015636226 0.68599999 -0.0012027866 1.6940475e-38 307 241
-0.01443344 0.68599999 -0.0012027866 1.6480944e-38 308 241
-0.013230653 0.68599999 -0.0012027866 1.65735e-38 309 241
-0.012027865 0.68599999 -0.0012027866 1.6665313e-38 310 241
-0.010825079 0.68599999 -0.0012027866 1.5927748e-38 311 241
-0.0096222926 0.68599999 -0.0012027866 1.6200714e-38 312 241
-0.0084195063 0.68599999 -0.0012027866 1.5831579e-38 313 241
-0.0072167199 0.68599999 -0.0012027866 1.5921979e-38 314 241
-0.0060226996 0.68699998 -0.0012045399 1.5737591e-38 315 241
-0.0048181596 0.68699998 -0.0012045399 1.5554278e-38 316 241
-0.0036136196 0.68699998 -0.0012045399 1.5554278e-38 317 241
-0.0024090798 0.68699998 -0.0012045399 1.5554278e-38 318 241
-0.0012062934 0.68800002 -0.0012062934 1.5554278e-38 319 241
0 0.68800002 -0.0012062934 1.5554278e-38 320 241
0.0012062934 0.68800002 -0.0012062934 1.5739026e-38 321 241
0.0024195998 0.69 -0.0012097999 1.5648625e-38 322 241
0.0036346598 0.69099998 -0.0012115532 1.5740819e-38 323 241
0.00486024 0.69300002 -0.00121506 1.5557866e-38 324 241
0.0060840664 0.69400001 -0.0012168133 1.565006e-38 325 241
0.0073219193 0.69599998 -0.0012203199 1.5468903e-38 326 241
0.0085422397 0.69599998 -0.0012203199 1.5561099e-38 327 241
0.0097765867 0.69700003 -0.0012220733 1.5104436e-38 328 241
0.01099866 0.69700003 -0.0012220733 1.5104436e-38 329 241
0.012238266 0.69800001 -0.0012238267 1.5012256e-38 330 241
0.013500666 0.69999999 -0.0012273333 1.4643834e-38 331 241
0.014749039 0.70099998 -0.0012290865 1.2248272e-38 332 241
0.016023712 0.70300001 -0.0012325933 1.5475119e-38 333 241
0.017280852 0.704 -0.0012343467 1.6873248e-38 334 241
-0.046838548 0.70300001 -0.0024651866 1.2613111e-38 282 242
-0.045476202 0.70099998 -0.0024581731 1.1875545e-38 283 242
-0.044247117 0.70099998 -0.0024581731 1.4082063e-38 284 242
-0.043018032 0.70099998 -0.0024581731 1.4450846e-38 285 242
-0.041729331 0.69999999 -0.0024546667 1.4543392e-38 286 242
-0.040386278 0.69800001 -0.0024476533 1.4727783e-38 287 242
-0.039162453 0.69800001 -0.0024476533 1.5006155e-38 288 242
-0.037884273 0.69700003 -0.0024441467 1.5098351e-38 289 242
-0.036609598 0.69599998 -0.0024406398 1.5191265e-38 290 242
-0.035389278 0.69599998 -0.0024406398 1.5283461e-38 291 242
-0.034021679 0.69300002 -0.00243012 1.5467493e-38 292 242
-0.032711938 0.69099998 -0.0024231065 1.5651884e-38 293 242
-0.031454802 0.69 -0.0024195998 1.565224e-38 294 242
-0.030244999 0.69 -0.0024195998 1.5560045e-38 295 242
-0.029035198 0.69 -0.0024195998 1.555897e-38 296 242
-0.027825398 0.69 -0.0024195998 1.5466773e-38 297 242
-0.026538454 0.68800002 -0.0024125867 1.546641e-38 298 242
-0.02533216 0.68800002 -0.0024125867 1.546641e-38 299 242
-0.024125867 0.68800002 -0.0024125867 1.5559676e-38 300 242
-0.022919573 0.68800002 -0.0024125867 1.5467479e-38 301 242
-0.021713281 0.68800002 -0.0024125867 1.5741918e-38 302 242
-0.020506985 0.68800002 -0.0024125867 1.5834115e-38 303 242
-0.019300694 0.68800002 -0.0024125867 1.5649739e-38 304 242
-0.018068098 0.68699998 -0.0024090798 1.5741935e-38 305 242
-0.016839013 0.68599999 -0.0024055731 1.5651537e-38 306 242
-0.015636226 0.68599999 -0.0024055731 1.6204711e-38 307 242
-0.01443344 0.68599999 -0.0024055731 1.5928478e-38 308 242
-0.013230653 0.68599999 -0.0024055731 1.5744086e-38 309 242
-0.012027865 0.68599999 -0.0024055731 1.5559673e-38 310 242
-0.010825079 0.68599999 -0.0024055731 1.5283085e-38 311 242
-0.0096222926 0.68599999 -0.0024055731 1.5740461e-38 312 242
-0.0084195063 0.68599999 -0.0024055731 1.5463519e-38 313 242
-0.0072167199 0.68599999 -0.0024055731 1.5462802e-38 314 242
-0.0060139326 0.68599999 -0.0024055731 1.5278413e-38 315 242
-0.0048111463 0.68599999 -0.0024055731 1.5095101e-38 316 242
-0.0036136196 0.68699998 -0.0024090798 1.5095101e-38 317 242
-0.0024090798 0.68699998 -0.0024090798 1.5002907e-38 318 242
-0.0012045399 0.68699998 -0.0024090798 1.5002907e-38 319 242
0 0.68699998 -0.0024090798 1.5094742e-38 320 242
0.0012062934 0.68800002 -0.0024125867 1.5186936e-38 321 242
0.0024125867 0.68800002 -0.0024125867 1.5279848e-38 322 242
0.0036293997 0.69 -0.0024195998 1.5556073e-38 323 242
0.0048462129 0.69099998 -0.0024231065 1.5282366e-38 324 242
0.0060753003 0.69300002 -0.00243012 1.5466758e-38 325 242
0.0073008798 0.69400001 -0.0024336267 1.5101222e-38 326 242
0.0085422397 0.69599998 -0.0024406398 1.5377449e-38 327 242
0.0097765867 0.69700003 -0.0024441467 1.4827875e-38 328 242
0.01099866 0.69700003 -0.0024441467 1.5011906e-38 329 242
0.012238266 0.69800001 -0.0024476533 1.5012612e-38 330 242
0.013500666 0.69999999 -0.0024546667 1.4828222e-38 331 242
0.014749039 0.70099998 -0.0024581731 1.3351706e-38 332 242
0.016023712 0.70300001 -0.0024651866 1.436586e-38 333 242
0.017280852 0.704 -0.0024686933 1.5120787e-38 334 242
0.018515198 0.704 -0.0024686933 1.7056895e-38 335 242
-0.047934376 0.70099998 -0.0036872597 1.2904499e-38 281 243
-0.046705291 0.70099998 -0.0036872597 1.2236763e-38 282 243
-0.045476202 0.70099998 -0.0036872597 1.3527502e-38 283 243
-0.044183996 0.69999999 -0.0036819996 1.435865e-38 284 243
-0.042956665 0.69999999 -0.0036819996 1.435865e-38 285 243
-0.041729331 0.69999999 -0.0036819996 1.4543745e-38 286 243
-0.040386278 0.69800001 -0.0036714801 1.463594e-38 287 243
-0.039106347 0.69700003 -0.00366622 1.4913601e-38 288 243
-0.037829921 0.69599998 -0.0036609597 1.5098351e-38 289 243
-0.036504399 0.69400001 -0.0036504399 1.5190915e-38 290 243
-0.035287585 0.69400001 -0.0036504399 1.5283112e-38 291 243
-0.033923492 0.69099998 -0.0036346598 1.5558985e-38 292 243
-0.032664597 0.69 -0.0036293997 1.5743735e-38 293 243
-0.031454802 0.69 -0.0036293997 1.5744805e-38 294 243
-0.030157333 0.68800002 -0.0036188802 1.5560773e-38 295 243
-0.028951041 0.68800002 -0.0036188802 1.5560045e-38 296 243
-0.027744746 0.68800002 -0.0036188802 1.5283458e-38 297 243
-0.026538454 0.68800002 -0.0036188802 1.5557524e-38 298 243
-0.02533216 0.68800002 -0.0036188802 1.5465328e-38 299 243
-0.024125867 0.68800002 -0.0036188802 1.5282379e-38 300 243
-0.022919573 0.68800002 -0.0036188802 1.5098348e-38 301 243
-0.021713281 0.68800002 -0.0036188802 1.5556805e-38 302 243
-0.020506985 0.68800002 -0.0036188802 1.5372414e-38 303 243
-0.019300694 0.68800002 -0.0036188802 1.5278794e-38 304 243
-0.018068098 0.68699998 -0.0036136196 1.5370991e-38 305 243
-0.016839013 0.68599999 -0.00360836 1.5004742e-38 306 243
-0.015636226 0.68599999 -0.00360836 1.5373524e-38 307 243
-0.01443344 0.68599999 -0.00360836 1.5647922e-38 308 243
-0.013230653 0.68599999 -0.00360836 1.5371693e-38 309 243
-0.012027865 0.68599999 -0.00360836 1.5097612e-38 310 243
-0.010825079 0.68599999 -0.00360836 1.4913224e-38 311 243
-0.0096222926 0.68599999 -0.00360836 1.518873e-38 312 243
-0.0084195063 0.68599999 -0.00360836 1.4912147e-38 313 243
-0.0072167199 0.68599999 -0.00360836 1.5095101e-38 314 243
-0.0060139326 0.68599999 -0.00360836 1.5002907e-38 315 243
-0.0048111463 0.68599999 -0.00360836 1.4728118e-38 316 243
-0.00360836 0.68599999 -0.00360836 1.4728118e-38 317 243
-0.0024055731 0.68599999 -0.00360836 1.4910712e-38 318 243
-0.0012045399 0.68699998 -0.0036136196 1.4818518e-38 319 243
0 0.68699998 -0.0036136196 1.4910354e-38 320 243
0.0012045399 0.68699998 -0.0036136196 1.5002548e-38 321 243
0.0024125867 0.68800002 -0.0036188802 1.509546e-38 322 243
0.0036293997 0.69 -0.0036293997 1.5372042e-38 323 243
0.0048462129 0.69099998 -0.0036346598 1.5006505e-38 324 243
0.0060753003 0.69300002 -0.0036451798 1.5282732e-38 325 243
0.0072903596 0.69300002 -0.0036451798 1.4825724e-38 326 243
0.0085176928 0.69400001 -0.0036504399 1.4917919e-38 327 243
0.0097625591 0.69599998 -0.0036609597 1.4734976e-38 328 243
0.010982879 0.69599998 -0.0036609597 1.4827171e-38 329 243
0.012220734 0.69700003 -0.00366622 1.4920792e-38 330 243
0.013500666 0.69999999 -0.0036819996 1.4828596e-38 331 243
0.014749039 0.70099998 -0.0036872597 1.454951e-38 332 243
0.016023712 0.70300001 -0.0036977797 1.454951e-38 333 243
0.017280852 0.704 -0.0037030398 1.3549479e-38 334 243
0.018515198 0.704 -0.0037030398 1.6407544e-38 335 243
0.019749546 0.704 -0.0037030398 1.7150205e-38 336 243
-0.049303733 0.70300001 -0.0049303733 1.3454056e-38 280 244
-0.047934376 0.70099998 -0.0049163462 1.0780382e-38 281 244
-0.046705291 0.70099998 -0.0049163462 1.2882836e-38 282 244
-0.045476202 0.70099998 -0.0049163462 1.3896987e-38 283 244
-0.044183996 0.69999999 -0.0049093333 1.4174617e-38 284 244
-0.042956665 0.69999999 -0.0049093333 1.435865e-38 285 244
-0.041610107 0.69800001 -0.0048953067 1.4451199e-38 286 244
-0.040386278 0.69800001 -0.0048953067 1.463559e-38 287 244
-0.039106347 0.69700003 -0.0048882933 1.4821052e-38 288 244
-0.037829921 0.69599998 -0.0048812795 1.5005802e-38 289 244
-0.036504399 0.69400001 -0.0048672534 1.5097997e-38 290 244
-0.035236739 0.69300002 -0.00486024 1.5374224e-38 291 244
-0.033923492 0.69099998 -0.0048462129 1.5466421e-38 292 244
-0.032664597 0.69 -0.0048391996 1.5651171e-38 293 244
-0.031454802 0.69 -0.0048391996 1.5927395e-38 294 244
-0.030157333 0.68800002 -0.0048251734 1.6112145e-38 295 244
-0.028951041 0.68800002 -0.0048251734 1.5561121e-38 296 244
-0.027704418 0.68699998 -0.0048181596 1.5192337e-38 297 244
-0.026499879 0.68699998 -0.0048181596 1.5372411e-38 298 244
-0.025295338 0.68699998 -0.0048181596 1.5188018e-38 299 244
-0.024090799 0.68699998 -0.0048181596 1.5188018e-38 300 244
-0.022886258 0.68699998 -0.0048181596 1.4911433e-38 301 244
-0.021681719 0.68699998 -0.0048181596 1.5095101e-38 302 244
-0.020477179 0.68699998 -0.0048181596 1.5002907e-38 303 244
-0.019272638 0.68699998 -0.0048181596 1.5277341e-38 304 244
-0.018041799 0.68599999 -0.0048111463 1.5277341e-38 305 244
-0.016839013 0.68599999 -0.0048111463 1.5094397e-38 306 244
-0.015636226 0.68599999 -0.0048111463 1.5094397e-38 307 244
-0.01443344 0.68599999 -0.0048111463 1.47274e-38 308 244
-0.013230653 0.68599999 -0.0048111463 1.5003983e-38 309 244
-0.0119928 0.68400002 -0.0047971201 1.5005418e-38 310 244
-0.01079352 0.68400002 -0.0047971201 1.4913224e-38 311 244
-0.0095942402 0.68400002 -0.0047971201 1.4820312e-38 312 244
-0.0083949603 0.68400002 -0.0047971201 1.4727759e-38 313 244
-0.0071956799 0.68400002 -0.0047971201 1.4727759e-38 314 244
-0.0059964 0.68400002 -0.0047971201 1.4727759e-38 315 244
-0.0048111463 0.68599999 -0.0048111463 1.4728835e-38 316 244
-0.00360836 0.68599999 -0.0048111463 1.4452252e-38 317 244
-0.0024055731 0.68599999 -0.0048111463 1.4818518e-38 318 244
-0.0012027866 0.68599999 -0.0048111463 1.4818518e-38 319 244
0 0.68699998 -0.0048181596 1.4909636e-38 320 244
0.0012045399 0.68699998 -0.0048181596 1.5093666e-38 321 244
0.0024125867 0.68800002 -0.0048251734 1.4911789e-38 322 244
0.0036188802 0.68800002 -0.0048251734 1.5188371e-38 323 244
0.0048391996 0.69 -0.0048391996 1.4731363e-38 324 244
0.0060577663 0.69099998 -0.0048462129 1.4915754e-38 325 244
0.0072693196 0.69099998 -0.0048462129 1.4733897e-38 326 244
0.0085054198 0.69300002 -0.00486024 1.4733897e-38 327 244
0.0097345067 0.69400001 -0.0048672534 1.4642071e-38 328 244
0.010982879 0.69599998 -0.0048812795 1.4734625e-38 329 244
0.0122032 0.69599998 -0.0048812795 1.482824e-38 330 244
0.013462093 0.69800001 -0.0048953067 1.5012633e-38 331 244
0.014749039 0.70099998 -0.0049163462 1.4736045e-38 332 244
0.016023712 0.70300001 -0.0049303733 1.4275068e-38 333 244
0.017256306 0.70300001 -0.0049303733 1.2160408e-38 334 244
0.018488899 0.70300001 -0.0049303733 1.5940429e-38 335 244
0.019721493 0.70300001 -0.0049303733 1.7148756e-38 336 244
0.020954086 0.70300001 -0.0049303733 1.7425703e-38 337 244
-0.049303733 0.70300001 -0.0061629666 1.1051909e-38 280 245
-0.047934376 0.70099998 -0.0061454331 9.3927481e-39 281 245
-0.046705291 0.70099998 -0.0061454331 1.325447e-38 282 245
-0.045476202 0.70099998 -0.0061454331 1.3807644e-38 283 245
-0.044183996 0.69999999 -0.0061366665 1.3899121e-38 284 245
-0.042833932 0.69800001 -0.006119133 1.3899121e-38 285 245
-0.041550495 0.69700003 -0.0061103669 1.4175347e-38 286 245
-0.040328421 0.69700003 -0.0061103669 1.4360097e-38 287 245
-0.039050236 0.69599998 -0.0061015999 1.4545195e-38 288 245
-0.037829921 0.69599998 -0.0061015999 1.4637392e-38 289 245
-0.036504399 0.69400001 -0.0060840664 1.4913619e-38 290 245
-0.035236739 0.69300002 -0.0060753003 1.5005814e-38 291 245
-0.033923492 0.69099998 -0.0060577663 1.5281681e-38 292 245
-0.032664597 0.69 -0.0060489997 1.5558269e-38 293 245
-0.031363625 0.68800002 -0.0060314666 1.5467146e-38 294 245
-0.030157333 0.68800002 -0.0060314666 1.5743733e-38 295 245
-0.028951041 0.68800002 -0.0060314666 1.5560771e-38 296 245
-0.027704418 0.68699998 -0.0060226996 1.4915401e-38 297 245
-0.026499879 0.68699998 -0.0060226996 1.500435e-38 298 245
-0.025295338 0.68699998 -0.0060226996 1.4819959e-38 299 245
-0.024090799 0.68699998 -0.0060226996 1.4544451e-38 300 245
-0.022886258 0.68699998 -0.0060226996 1.43597e-38 301 245
-0.021681719 0.68699998 -0.0060226996 1.4543376e-38 302 245
-0.020477179 0.68699998 -0.0060226996 1.4543376e-38 303 245
-0.019272638 0.68699998 -0.0060226996 1.4633772e-38 304 245
-0.018041799 0.68599999 -0.0060139326 1.472597e-38 305 245
-0.016839013 0.68599999 -0.0060139326 1.4634496e-38 306 245
-0.01559064 0.68400002 -0.0059964 1.4726691e-38 307 245
-0.01439136 0.68400002 -0.0059964 1.4451899e-38 308 245
-0.01319208 0.68400002 -0.0059964 1.4636291e-38 309 245
-0.0119928 0.68400002 -0.0059964 1.4453329e-38 310 245
-0.01079352 0.68400002 -0.0059964 1.4361134e-38 311 245
-0.0095942402 0.68400002 -0.0059964 1.4635565e-38 312 245
-0.0083949603 0.68400002 -0.0059964 1.4543012e-38 313 245
-0.0071956799 0.68400002 -0.0059964 1.4452252e-38 314 245
-0.0059964 0.68400002 -0.0059964 1.4452252e-38 315 245
-0.0048111463 0.68599999 -0.0060139326 1.4728118e-38 316 245
-0.00360836 0.68599999 -0.0060139326 1.4635923e-38 317 245
-0.0024055731 0.68599999 -0.0060139326 1.4634847e-38 318 245
-0.0012027866 0.68599999 -0.0060139326 1.4634847e-38 319 245
0 0.68599999 -0.0060139326 1.4635565e-38 320 245
0.0012045399 0.68699998 -0.0060226996 1.4635565e-38 321 245
0.0024125867 0.68800002 -0.0060314666 1.4727759e-38 322 245
0.0036188802 0.68800002 -0.0060314666 1.5004703e-38 323 245
0.0048251734 0.68800002 -0.0060314666 1.4455512e-38 324 245
0.0060489997 0.69 -0.0060489997 1.4732458e-38 325 245
0.0072693196 0.69099998 -0.0060577663 1.445768e-38 326 245
0.008480873 0.69099998 -0.0060577663 1.445768e-38 327 245
0.0097204801 0.69300002 -0.0060753003 1.4642071e-38 328 245
0.01095132 0.69400001 -0.0060840664 1.4826821e-38 329 245
0.0122032 0.69599998 -0.0061015999 1.492009e-38 330 245
0.013442807 0.69700003 -0.0061103669 1.492009e-38 331 245
0.014727999 0.69999999 -0.0061366665 1.4828243e-38 332 245
0.015978126 0.70099998 -0.0061454331 1.4551298e-38 333 245
0.017256306 0.70300001 -0.0061629666 1.2062429e-38 334 245
0.018488899 0.70300001 -0.0061629666 1.4736102e-38 335 245
0.019721493 0.70300001 -0.0061629666 1.6502289e-38 336 245
0.020954086 0.70300001 -0.0061629666 1.7793028e-38 337 245
-0.050536323 0.70300001 -0.0073955595 1.2725521e-38 279 246
-0.049303733 0.70300001 -0.0073955595 1.0124901e-38 280 246
-0.047934376 0.70099998 -0.0073745195 1.1323086e-38 281 246
-0.046705291 0.70099998 -0.0073745195 1.3622867e-38 282 246
-0.045476202 0.70099998 -0.0073745195 1.3622867e-38 283 246
-0.04405776 0.69800001 -0.0073429602 1.3897659e-38 284 246
-0.042833932 0.69800001 -0.0073429602 1.408169e-38 285 246
-0.041550495 0.69700003 -0.00733244 1.4266082e-38 286 246
-0.040270556 0.69599998 -0.0073219193 1.4450474e-38 287 246
-0.038938027 0.69400001 -0.0073008798 1.4727407e-38 288 246
-0.037721213 0.69400001 -0.0073008798 1.4727407e-38 289 246
-0.036451802 0.69300002 -0.0072903596 1.4911789e-38 290 246
-0.035135046 0.69099998 -0.0072693196 1.5003984e-38 291 246
-0.033923492 0.69099998 -0.0072693196 1.5187299e-38 292 246
-0.032664597 0.69 -0.0072587994 1.5832669e-38 293 246
-0.031363625 0.68800002 -0.0072377604 1.5557524e-38 294 246
-0.030157333 0.68800002 -0.0072377604 1.5189101e-38 295 246
-0.028908957 0.68699998 -0.0072272392 1.4728118e-38 296 246
-0.027704418 0.68699998 -0.0072272392 1.4359341e-38 297 246
-0.026499879 0.68699998 -0.0072272392 1.463413e-38 298 246
-0.025295338 0.68699998 -0.0072272392 1.4449741e-38 299 246
-0.024055731 0.68599999 -0.0072167199 1.4266429e-38 300 246
-0.022852944 0.68599999 -0.0072167199 1.4174235e-38 301 246
-0.021650158 0.68599999 -0.0072167199 1.4357906e-38 302 246
-0.020447372 0.68599999 -0.0072167199 1.44501e-38 303 246
-0.01918848 0.68400002 -0.0071956799 1.4449383e-38 304 246
-0.0179892 0.68400002 -0.0071956799 1.4541577e-38 305 246
-0.016789921 0.68400002 -0.0071956799 1.4449383e-38 306 246
-0.015567848 0.68300003 -0.0071851597 1.4725965e-38 307 246
-0.014370319 0.68300003 -0.0071851597 1.4358982e-38 308 246
-0.013172794 0.68300003 -0.0071851597 1.4635206e-38 309 246
-0.011975267 0.68300003 -0.0071851597 1.4726683e-38 310 246
-0.010761959 0.68199998 -0.00717464 1.4634489e-38 311 246
-0.009566186 0.68199998 -0.00717464 1.4543371e-38 312 246
-0.0083826864 0.68300003 -0.0071851597 1.4543371e-38 313 246
-0.0071851597 0.68300003 -0.0071851597 1.4635206e-38 314 246
-0.0059964 0.68400002 -0.0071956799 1.4635206e-38 315 246
-0.0048111463 0.68599999 -0.0072167199 1.4635565e-38 316 246
-0.00360836 0.68599999 -0.0072167199 1.4359341e-38 317 246
-0.0024055731 0.68599999 -0.0072167199 1.4359341e-38 318 246
-0.0012027866 0.68599999 -0.0072167199 1.4359341e-38 319 246
0 0.68599999 -0.0072167199 1.4725965e-38 320 246
0.0012045399 0.68699998 -0.0072272392 1.4910712e-38 321 246
0.0024125867 0.68800002 -0.0072377604 1.4544447e-38 322 246
0.0036188802 0.68800002 -0.0072377604 1.4820671e-38 323 246
0.0048251734 0.68800002 -0.0072377604 1.4363299e-38 324 246
0.0060489997 0.69 -0.0072587994 1.4639528e-38 325 246
0.0072587994 0.69 -0.0072587994 1.4549512e-38 326 246
0.008480873 0.69099998 -0.0072693196 1.4457315e-38 327 246
0.0096924258 0.69099998 -0.0072693196 1.4642071e-38 328 246
0.010935539 0.69300002 -0.0072903596 1.4734625e-38 329 246
0.012168133 0.69400001 -0.0073008798 1.4919734e-38 330 246
0.013423519 0.69599998 -0.0073219193 1.4919734e-38 331 246
0.01468592 0.69800001 -0.0073429602 1.4735695e-38 332 246
0.015955333 0.69999999 -0.0073639993 1.4550945e-38 333 246
0.017207211 0.70099998 -0.0073745195 1.3443196e-38 334 246
0.018436298 0.70099998 -0.0073745195 1.4733934e-38 335 246
0.019721493 0.70300001 -0.0073955595 1.5118619e-38 336 246
0.020954086 0.70300001 -0.0073955595 1.742351e-38 337 246
-0.050608214 0.704 -0.0086404262 1.0233359e-38 279 247
-0.049303733 0.70300001 -0.0086281532 1.1226923e-38 280 247
-0.047934376 0.70099998 -0.0086036054 1.2517662e-38 281 247
-0.046705291 0.70099998 -0.0086036054 1.3530319e-38 282 247
-0.04541133 0.69999999 -0.0085913334 1.3530319e-38 283 247
-0.04405776 0.69800001 -0.0085667865 1.3622164e-38 284 247
-0.042772565 0.69700003 -0.0085545136 1.3622164e-38 285 247
-0.041490879 0.69599998 -0.0085422397 1.3807627e-38 286 247
-0.040154841 0.69400001 -0.0085176928 1.3807627e-38 287 247
-0.038938027 0.69400001 -0.0085176928 1.4175682e-38 288 247
-0.037666857 0.69300002 -0.0085054198 1.4175682e-38 289 247
-0.036451802 0.69300002 -0.0085054198 1.4450474e-38 290 247
-0.035135046 0.69099998 -0.008480873 1.4543029e-38 291 247
-0.0338744 0.69 -0.0084686 1.4452275e-38 292 247
-0.032569919 0.68800002 -0.0084440531 1.4728502e-38 293 247
-0.031363625 0.68800002 -0.0084440531 1.4546616e-38 294 247
-0.030157333 0.68800002 -0.0084440531 1.4270029e-38 295 247
-0.028908957 0.68699998 -0.0084317802 1.4358265e-38 296 247
-0.027704418 0.68699998 -0.0084317802 1.426607e-38 297 247
-0.026499879 0.68699998 -0.0084317802 1.4173876e-38 298 247
-0.025258519 0.68599999 -0.0084195063 1.3989488e-38 299 247
-0.024055731 0.68599999 -0.0084195063 1.3898728e-38 300 247
-0.022786319 0.68400002 -0.0083949603 1.3898728e-38 301 247
-0.02158704 0.68400002 -0.0083949603 1.4082041e-38 302 247
-0.020387759 0.68400002 -0.0083949603 1.4082041e-38 303 247
-0.01918848 0.68400002 -0.0083949603 1.4174235e-38 304 247
-0.017962901 0.68300003 -0.0083826864 1.4266429e-38 305 247
-0.016765373 0.68300003 -0.0083826864 1.4266788e-38 306 247
-0.015567848 0.68300003 -0.0083826864 1.4266788e-38 307 247
-0.014370319 0.68300003 -0.0083826864 1.4267147e-38 308 247
-0.013172794 0.68300003 -0.0083826864 1.4267147e-38 309 247
-0.011957732 0.68199998 -0.0083704125 1.4083476e-38 310 247
-0.010761959 0.68199998 -0.0083704125 1.4083476e-38 311 247
-0.009566186 0.68199998 -0.0083704125 1.4267147e-38 312 247
-0.0083704125 0.68199998 -0.0083704125 1.4174952e-38 313 247
-0.00717464 0.68199998 -0.0083704125 1.4267147e-38 314 247
-0.0059964 0.68400002 -0.0083949603 1.4174952e-38 315 247
-0.0047971201 0.68400002 -0.0083949603 1.4174952e-38 316 247
-0.00359784 0.68400002 -0.0083949603 1.4174952e-38 317 247
-0.0023985601 0.68400002 -0.0083949603 1.3899446e-38 318 247
-0.0012027866 0.68599999 -0.0084195063 1.399164e-38 319 247
0 0.68599999 -0.0084195063 1.4267147e-38 320 247
0.0012027866 0.68599999 -0.0084195063 1.4359341e-38 321 247
0.0024125867 0.68800002 -0.0084440531 1.4176387e-38 322 247
0.0036188802 0.68800002 -0.0084440531 1.4452976e-38 323 247
0.0048251734 0.68800002 -0.0084440531 1.43626e-38 324 247
0.0060314666 0.68800002 -0.0084440531 1.4454796e-38 325 247
0.0072587994 0.69 -0.0084686 1.4181098e-38 326 247
0.008480873 0.69099998 -0.008480873 1.4549881e-38 327 247
0.0096924258 0.69099998 -0.008480873 1.445948e-38 328 247
0.010935539 0.69300002 -0.0085054198 1.4551676e-38 329 247
0.012150601 0.69300002 -0.0085054198 1.4552395e-38 330 247
0.013384946 0.69400001 -0.0085176928 1.4552395e-38 331 247
0.01468592 0.69800001 -0.0085667865 1.4459478e-38 332 247
0.015955333 0.69999999 -0.0085913334 1.4275086e-38 333 247
0.017207211 0.70099998 -0.0086036054 1.3813408e-38 334 247
0.018436298 0.70099998 -0.0086036054 1.3813408e-38 335 247
0.019665385 0.70099998 -0.0086036054 1.3548404e-38 336 247
0.020894472 0.70099998 -0.0086036054 1.7236229e-38 337 247
-0.053227689 0.70599997 -0.0099028256 1.6874697e-38 277 248
-0.051768921 0.70300001 -0.0098607466 1.2351681e-38 278 248
-0.050536323 0.70300001 -0.0098607466 8.8478882e-39 279 248
-0.049303733 0.70300001 -0.0098607466 1.2148871e-38 280 248
-0.047934376 0.70099998 -0.0098326923 1.2702045e-38 281 248
-0.046705291 0.70099998 -0.0098326923 1.3620359e-38 282 248
-0.04541133 0.69999999 -0.0098186666 1.3528163e-38 283 248
-0.04405776 0.69800001 -0.0097906133 1.3620711e-38 284 248
-0.042772565 0.69700003 -0.0097765867 1.3713264e-38 285 248
-0.041490879 0.69599998 -0.0097625591 1.3806534e-38 286 248
-0.040154841 0.69400001 -0.0097345067 1.3806534e-38 287 248
-0.03888192 0.69300002 -0.0097204801 1.426607e-38 288 248
-0.037666857 0.69300002 -0.0097204801 1.4173876e-38 289 248
-0.036346599 0.69099998 -0.0096924258 1.4449383e-38 290 248
-0.035135046 0.69099998 -0.0096924258 1.4449383e-38 291 248
-0.0338744 0.69 -0.0096783992 1.4447956e-38 292 248
-0.032569919 0.68800002 -0.0096503468 1.4724542e-38 293 248
-0.031363625 0.68800002 -0.0096503468 1.4540876e-38 294 248
-0.030157333 0.68800002 -0.0096503468 1.4448681e-38 295 248
-0.028908957 0.68699998 -0.0096363192 1.4357188e-38 296 248
-0.027704418 0.68699998 -0.0096363192 1.4080606e-38 297 248
-0.026499879 0.68699998 -0.0096363192 1.3989129e-38 298 248
-0.025258519 0.68599999 -0.0096222926 1.4081323e-38 299 248
-0.0239856 0.68400002 -0.0095942402 1.3806534e-38 300 248
-0.022786319 0.68400002 -0.0095942402 1.3806534e-38 301 248
-0.02158704 0.68400002 -0.0095942402 1.3990205e-38 302 248
-0.020387759 0.68400002 -0.0095942402 1.4082399e-38 303 248
-0.019160427 0.68300003 -0.0095802136 1.4265712e-38 304 248
-0.017936599 0.68199998 -0.009566186 1.44501e-38 305 248
-0.016740825 0.68199998 -0.009566186 1.4266788e-38 306 248
-0.015545053 0.68199998 -0.009566186 1.4266788e-38 307 248
-0.01434928 0.68199998 -0.009566186 1.4266788e-38 308 248
-0.013153506 0.68199998 -0.009566186 1.4174594e-38 309 248
-0.011957732 0.68199998 -0.009566186 1.4083117e-38 310 248
-0.0107304 0.68000001 -0.0095381327 1.4083117e-38 311 248
-0.0095381327 0.68000001 -0.0095381327 1.4265353e-38 312 248
-0.0083704125 0.68199998 -0.009566186 1.4081323e-38 313 248
-0.00717464 0.68199998 -0.009566186 1.3989846e-38 314 248
-0.0059876335 0.68300003 -0.0095802136 1.3989846e-38 315 248
-0.0047901068 0.68300003 -0.0095802136 1.4082041e-38 316 248
-0.00359784 0.68400002 -0.0095942402 1.4082041e-38 317 248
-0.0023985601 0.68400002 -0.0095942402 1.3989488e-38 318 248
-0.00119928 0.68400002 -0.0095942402 1.4082041e-38 319 248
0 0.68599999 -0.0096222926 1.4173876e-38 320 248
0.0012027866 0.68599999 -0.0096222926 1.426607e-38 321 248
0.0024090798 0.68699998 -0.0096363192 1.4266788e-38 322 248
0.0036136196 0.68699998 -0.0096363192 1.4451535e-38 323 248
0.0048251734 0.68800002 -0.0096503468 1.4178189e-38 324 248
0.0060314666 0.68800002 -0.0096503468 1.4454416e-38 325 248
0.0072377604 0.68800002 -0.0096503468 1.418072e-38 326 248
0.0084686 0.69 -0.0096783992 1.4457666e-38 327 248
0.0096783992 0.69 -0.0096783992 1.4367282e-38 328 248
0.01090398 0.69099998 -0.0096924258 1.4459478e-38 329 248
0.012115533 0.69099998 -0.0096924258 1.4552045e-38 330 248
0.01336566 0.69300002 -0.0097204801 1.4459849e-38 331 248
0.01468592 0.69800001 -0.0097906133 1.4551679e-38 332 248
0.015955333 0.69999999 -0.0098186666 1.4366929e-38 333 248
0.017207211 0.70099998 -0.0098326923 1.3815557e-38 334 248
0.018436298 0.70099998 -0.0098326923 1.2893599e-38 335 248
0.019665385 0.70099998 -0.0098326923 1.2068941e-38 336 248
0.020894472 0.70099998 -0.0098326923 1.7047146e-38 337 248
-0.053227689 0.70599997 -0.011140679 1.6043857e-38 277 249
-0.051989835 0.70599997 -0.011140679 1.1058046e-38 278 249
-0.050392549 0.70099998 -0.011061779 8.3843723e-39 279 249
-0.049163464 0.70099998 -0.011061779 1.2793863e-38 280 249
-0.047934376 0.70099998 -0.011061779 1.2886059e-38 281 249
-0.046638668 0.69999999 -0.011045999 1.3527447e-38 282 249
-0.045281585 0.69800001 -0.01101444 1.3527447e-38 283 249
-0.043994639 0.69700003 -0.01099866 1.3528519e-38 284 249
-0.042711195 0.69599998 -0.010982879 1.3620715e-38 285 249
-0.041490879 0.69599998 -0.010982879 1.3529593e-38 286 249
-0.040154841 0.69400001 -0.01095132 1.3713984e-38 287 249
-0.03888192 0.69300002 -0.010935539 1.3897656e-38 288 249
-0.037666857 0.69300002 -0.010935539 1.3805461e-38 289 249
-0.036346599 0.69099998 -0.01090398 1.3988776e-38 290 249
-0.035084199 0.69 -0.010888199 1.3988776e-38 291 249
-0.033776212 0.68800002 -0.010856641 1.3895156e-38 292 249
-0.032569919 0.68800002 -0.010856641 1.4079549e-38 293 249
-0.031318039 0.68699998 -0.010840859 1.3988072e-38 294 249
-0.030113498 0.68699998 -0.010840859 1.3988072e-38 295 249
-0.02886688 0.68599999 -0.010825079 1.3896935e-38 296 249
-0.027664091 0.68599999 -0.010825079 1.3896935e-38 297 249
-0.026461305 0.68599999 -0.010825079 1.398877e-38 298 249
-0.025184879 0.68400002 -0.01079352 1.398877e-38 299 249
-0.0239856 0.68400002 -0.01079352 1.371434e-38 300 249
-0.022786319 0.68400002 -0.01079352 1.371434e-38 301 249
-0.02155548 0.68300003 -0.01077774 1.3897652e-38 302 249
-0.020357953 0.68300003 -0.01077774 1.3989846e-38 303 249
-0.019132372 0.68199998 -0.010761959 1.3989846e-38 304 249
-0.017936599 0.68199998 -0.010761959 1.3989846e-38 305 249
-0.016740825 0.68199998 -0.010761959 1.3989846e-38 306 249
-0.015545053 0.68199998 -0.010761959 1.3989846e-38 307 249
-0.01434928 0.68199998 -0.010761959 1.3989846e-38 308 249
-0.013153506 0.68199998 -0.010761959 1.3897652e-38 309 249
-0.011922667 0.68000001 -0.0107304 1.3807252e-38 310 249
-0.0107304 0.68000001 -0.0107304 1.3715057e-38 311 249
-0.0095381327 0.68000001 -0.0107304 1.3989846e-38 312 249
-0.0083704125 0.68199998 -0.010761959 1.3897652e-38 313 249
-0.00717464 0.68199998 -0.010761959 1.3806175e-38 314 249
-0.0059876335 0.68300003 -0.01077774 1.3713981e-38 315 249
-0.0047901068 0.68300003 -0.01077774 1.3897652e-38 316 249
-0.00359784 0.68400002 -0.01079352 1.3897652e-38 317 249
-0.0023985601 0.68400002 -0.01079352 1.3806175e-38 318 249
-0.00119928 0.68400002 -0.01079352 1.4082399e-38 319 249
0 0.68599999 -0.010825079 1.3898728e-38 320 249
0.0012027866 0.68599999 -0.010825079 1.3990924e-38 321 249
0.0024090798 0.68699998 -0.010840859 1.3807977e-38 322 249
0.0036136196 0.68699998 -0.010840859 1.399237e-38 323 249
0.0048181596 0.68699998 -0.010840859 1.3993811e-38 324 249
0.0060226996 0.68699998 -0.010840859 1.4178202e-38 325 249
0.0072377604 0.68800002 -0.010856641 1.3997057e-38 326 249
0.0084440531 0.68800002 -0.010856641 1.4181449e-38 327 249
0.0096783992 0.69 -0.010888199 1.4091068e-38 328 249
0.01090398 0.69099998 -0.01090398 1.4275818e-38 329 249
0.012115533 0.69099998 -0.01090398 1.4275828e-38 330 249
0.013327086 0.69099998 -0.01090398 1.4183632e-38 331 249
0.01466488 0.69700003 -0.01099866 1.4183263e-38 332 249
0.015909746 0.69800001 -0.01101444 1.4091068e-38 333 249
0.017182667 0.69999999 -0.011045999 1.3816263e-38 334 249
0.018409999 0.69999999 -0.011045999 1.2986143e-38 335 249
0.019665385 0.70099998 -0.011061779 1.2431587e-38 336 249
0.020894472 0.70099998 -0.011061779 1.6948814e-38 337 249
-0.053227689 0.70599997 -0.012378532 1.5028983e-38 277 250
-0.051989835 0.70599997 -0.012378532 1.0592733e-38 278 250
-0.050392549 0.70099998 -0.012290866 8.9332104e-39 279 250
-0.049163464 0.70099998 -0.012290866 1.3069356e-38 280 250
-0.047934376 0.70099998 -0.012290866 1.297716e-38 281 250
-0.046638668 0.69999999 -0.012273333 1.3435971e-38 282 250
-0.045281585 0.69800001 -0.012238266 1.3435971e-38 283 250
-0.043994639 0.69700003 -0.012220734 1.3528519e-38 284 250
-0.042711195 0.69599998 -0.0122032 1.3435965e-38 285 250
-0.041490879 0.69599998 -0.0122032 1.3528875e-38 286 250
-0.040154841 0.69400001 -0.012168133 1.3528875e-38 287 250
-0.03888192 0.69300002 -0.012150601 1.3712546e-38 288 250
-0.037666857 0.69300002 -0.012150601 1.3712546e-38 289 250
-0.036346599 0.69099998 -0.012115533 1.3619993e-38 290 250
-0.035084199 0.69 -0.012097999 1.3527799e-38 291 250
-0.033776212 0.68800002 -0.012062933 1.3711111e-38 292 250
-0.032522578 0.68699998 -0.012045399 1.3711111e-38 293 250
-0.031318039 0.68699998 -0.012045399 1.371147e-38 294 250
-0.030113498 0.68699998 -0.012045399 1.3803664e-38 295 250
-0.02886688 0.68599999 -0.012027865 1.3711829e-38 296 250
-0.027583439 0.68400002 -0.0119928 1.3896576e-38 297 250
-0.02638416 0.68400002 -0.0119928 1.3621069e-38 298 250
-0.025184879 0.68400002 -0.0119928 1.3621069e-38 299 250
-0.0239856 0.68400002 -0.0119928 1.3621069e-38 300 250
-0.022753006 0.68300003 -0.011975267 1.3621069e-38 301 250
-0.02155548 0.68300003 -0.011975267 1.3621069e-38 302 250
-0.020357953 0.68300003 -0.011975267 1.3713264e-38 303 250
-0.019132372 0.68199998 -0.011957732 1.3621787e-38 304 250
-0.017936599 0.68199998 -0.011957732 1.3621787e-38 305 250
-0.016740825 0.68199998 -0.011957732 1.3804382e-38 306 250
-0.015545053 0.68199998 -0.011957732 1.3896935e-38 307 250
-0.01434928 0.68199998 -0.011957732 1.3713264e-38 308 250
-0.013153506 0.68199998 -0.011957732 1.3713264e-38 309 250
-0.011922667 0.68000001 -0.011922667 1.3621787e-38 310 250
-0.0107304 0.68000001 -0.011922667 1.3621787e-38 311 250
-0.0095381327 0.68000001 -0.011922667 1.3713981e-38 312 250
-0.0083704125 0.68199998 -0.011957732 1.3621787e-38 313 250
-0.00717464 0.68199998 -0.011957732 1.3621787e-38 314 250
-0.005978866 0.68199998 -0.011957732 1.3621787e-38 315 250
-0.004783093 0.68199998 -0.011957732 1.3621787e-38 316 250
-0.0035925799 0.68300003 -0.011975267 1.3713981e-38 317 250
-0.0023950534 0.68300003 -0.011975267 1.3714699e-38 318 250
-0.0011975267 0.68300003 -0.011975267 1.3807252e-38 319 250
0 0.68400002 -0.0119928 1.3806893e-38 320 250
0.0012027866 0.68599999 -0.012027865 1.3899087e-38 321 250
0.0024090798 0.68699998 -0.012045399 1.3899091e-38 322 250
0.0036136196 0.68699998 -0.012045399 1.4083841e-38 323 250
0.0048181596 0.68699998 -0.012045399 1.371795e-38 324 250
0.0060226996 0.68699998 -0.012045399 1.3810145e-38 325 250
0.0072377604 0.68800002 -0.012062933 1.3811957e-38 326 250
0.0084440531 0.68800002 -0.012062933 1.4088903e-38 327 250
0.0096783992 0.69 -0.012097999 1.3723011e-38 328 250
0.01090398 0.69099998 -0.012115533 1.3999238e-38 329 250
0.012115533 0.69099998 -0.012115533 1.4182916e-38 330 250
0.013327086 0.69099998 -0.012115533 1.409072e-38 331 250
0.01460176 0.69400001 -0.012168133 1.4181831e-38 332 250
0.015864158 0.69599998 -0.0122032 1.4181831e-38 333 250
0.017109027 0.69700003 -0.012220734 1.3907025e-38 334 250
0.018331099 0.69700003 -0.012220734 1.3261656e-38 335 250
0.019581227 0.69800001 -0.012238266 1.2519461e-38 336 250
0.020805053 0.69800001 -0.012238266 1.6483873e-38 337 250
-0.053227689 0.70599997 -0.013616386 1.4197421e-38 277 251
-0.051989835 0.70599997 -0.013616386 1.114194e-38 278 251
-0.050751984 0.70599997 -0.013616386 9.8512025e-39 279 251
-0.04951413 0.70599997 -0.013616386 1.3345217e-38 280 251
-0.047934376 0.70099998 -0.013519952 1.306899e-38 281 251
-0.046638668 0.69999999 -0.013500666 1.3251934e-38 282 251
-0.045281585 0.69800001 -0.013462093 1.3251934e-38 283 251
-0.043994639 0.69700003 -0.013442807 1.3436681e-38 284 251
-0.042711195 0.69599998 -0.013423519 1.3252651e-38 285 251
-0.041371655 0.69400001 -0.013384946 1.3528517e-38 286 251
-0.040154841 0.69400001 -0.013384946 1.3528517e-38 287 251
-0.03888192 0.69300002 -0.01336566 1.3804023e-38 288 251
-0.037666857 0.69300002 -0.01336566 1.3804023e-38 289 251
-0.036346599 0.69099998 -0.013327086 1.3711829e-38 290 251
-0.035084199 0.69 -0.0133078 1.3619635e-38 291 251
-0.033776212 0.68800002 -0.013269227 1.3435964e-38 292 251
-0.032522578 0.68699998 -0.013249939 1.3343769e-38 293 251
-0.031318039 0.68699998 -0.013249939 1.3435964e-38 294 251
-0.029982001 0.68400002 -0.01319208 1.3528517e-38 295 251
-0.02878272 0.68400002 -0.01319208 1.3711829e-38 296 251
-0.027583439 0.68400002 -0.01319208 1.3804382e-38 297 251
-0.026345588 0.68300003 -0.013172794 1.3529593e-38 298 251
-0.02514806 0.68300003 -0.013172794 1.3437398e-38 299 251
-0.023950534 0.68300003 -0.013172794 1.343704e-38 300 251
-0.022753006 0.68300003 -0.013172794 1.325301e-38 301 251
-0.02155548 0.68300003 -0.013172794 1.3528517e-38 302 251
-0.020328145 0.68199998 -0.013153506 1.3620711e-38 303 251
-0.019076265 0.68000001 -0.013114933 1.3621787e-38 304 251
-0.017883999 0.68000001 -0.013114933 1.3621787e-38 305 251
-0.016691733 0.68000001 -0.013114933 1.3621787e-38 306 251
-0.015499466 0.68000001 -0.013114933 1.3621787e-38 307 251
-0.014307199 0.68000001 -0.013114933 1.3621069e-38 308 251
-0.013114933 0.68000001 -0.013114933 1.3621069e-38 309 251
-0.011922667 0.68000001 -0.013114933 1.3621787e-38 310 251
-0.0107304 0.68000001 -0.013114933 1.3621787e-38 311 251
-0.0095381327 0.68000001 -0.013114933 1.3439192e-38 312 251
-0.0083704125 0.68199998 -0.013153506 1.3439192e-38 313 251
-0.00717464 0.68199998 -0.013153506 1.3531028e-38 314 251
-0.005978866 0.68199998 -0.013153506 1.3531028e-38 315 251
-0.004783093 0.68199998 -0.013153506 1.3713981e-38 316 251
-0.0035925799 0.68300003 -0.013172794 1.3806534e-38 317 251
-0.0023950534 0.68300003 -0.013172794 1.3713981e-38 318 251
-0.0011975267 0.68300003 -0.013172794 1.3898728e-38 319 251
0 0.68400002 -0.01319208 1.3623581e-38 320 251
0.0012027866 0.68599999 -0.013230653 1.3716134e-38 321 251
0.0024090798 0.68699998 -0.013249939 1.3716135e-38 322 251
0.0036136196 0.68699998 -0.013249939 1.3900526e-38 323 251
0.0048181596 0.68699998 -0.013249939 1.3625754e-38 324 251
0.0060226996 0.68699998 -0.013249939 1.371795e-38 325 251
0.0072272392 0.68699998 -0.013249939 1.3720116e-38 326 251
0.0084440531 0.68800002 -0.013269227 1.3812313e-38 327 251
0.0096783992 0.69 -0.0133078 1.381448e-38 328 251
0.010888199 0.69 -0.0133078 1.3906677e-38 329 251
0.012097999 0.69 -0.0133078 1.3998875e-38 330 251
0.013327086 0.69099998 -0.013327086 1.3906321e-38 331 251
0.01460176 0.69400001 -0.013384946 1.3906309e-38 332 251
0.015864158 0.69599998 -0.013423519 1.3813755e-38 333 251
0.017109027 0.69700003 -0.013442807 1.3997774e-38 334 251
0.018331099 0.69700003 -0.013442807 1.3352404e-38 335 251
0.019581227 0.69800001 -0.013462093 1.270241e-38 336 251
0.020805053 0.69800001 -0.013462093 1.6113649e-38 337 251
0.02202888 0.69800001 -0.013462093 1.5673607e-38 338 251
-0.054465543 0.70599997 -0.014854239 1.6226078e-38 276 252
-0.053227689 0.70599997 -0.014854239 1.3091426e-38 277 252
-0.051989835 0.70599997 -0.014854239 1.1508555e-38 278 252
-0.050751984 0.70599997 -0.014854239 1.0494404e-38 279 252
-0.049303733 0.70300001 -0.014791119 1.3069343e-38 280 252
-0.047934376 0.70099998 -0.014749039 1.3069343e-38 281 252
-0.046638668 0.69999999 -0.014727999 1.3160457e-38 282 252
-0.045281585 0.69800001 -0.01468592 1.3160457e-38 283 252
-0.043994639 0.69700003 -0.01466488 1.3252651e-38 284 252
-0.042711195 0.69599998 -0.014643839 1.3160457e-38 285 252
-0.041371655 0.69400001 -0.01460176 1.3436322e-38 286 252
-0.040154841 0.69400001 -0.01460176 1.3436322e-38 287 252
-0.03888192 0.69300002 -0.014580719 1.3436681e-38 288 252
-0.03755815 0.69099998 -0.014538639 1.3528875e-38 289 252
-0.036346599 0.69099998 -0.014538639 1.3619635e-38 290 252
-0.03498251 0.68800002 -0.014475521 1.3619635e-38 291 252
-0.033727121 0.68699998 -0.014454478 1.3344128e-38 292 252
-0.032522578 0.68699998 -0.014454478 1.3436322e-38 293 252
-0.031318039 0.68699998 -0.014454478 1.3344128e-38 294 252
-0.029982001 0.68400002 -0.01439136 1.3436322e-38 295 252
-0.02878272 0.68400002 -0.01439136 1.3436322e-38 296 252
-0.027543113 0.68300003 -0.014370319 1.3528517e-38 297 252
-0.026345588 0.68300003 -0.014370319 1.3253728e-38 298 252
-0.02514806 0.68300003 -0.014370319 1.3253728e-38 299 252
-0.023950534 0.68300003 -0.014370319 1.3253728e-38 300 252
-0.022753006 0.68300003 -0.014370319 1.3161533e-38 301 252
-0.021523919 0.68199998 -0.01434928 1.3345922e-38 302 252
-0.020328145 0.68199998 -0.01434928 1.3253728e-38 303 252
-0.019076265 0.68000001 -0.014307199 1.3345922e-38 304 252
-0.017883999 0.68000001 -0.014307199 1.3345922e-38 305 252
-0.016691733 0.68000001 -0.014307199 1.334628e-38 306 252
-0.015499466 0.68000001 -0.014307199 1.334628e-38 307 252
-0.014307199 0.68000001 -0.014307199 1.3345922e-38 308 252
-0.013114933 0.68000001 -0.014307199 1.3345922e-38 309 252
-0.011922667 0.68000001 -0.014307199 1.3254445e-38 310 252
-0.0107304 0.68000001 -0.014307199 1.3346639e-38 311 252
-0.009566186 0.68199998 -0.01434928 1.3163686e-38 312 252
-0.0083704125 0.68199998 -0.01434928 1.325588e-38 313 252
-0.00717464 0.68199998 -0.01434928 1.325588e-38 314 252
-0.005978866 0.68199998 -0.01434928 1.3348074e-38 315 252
-0.004783093 0.68199998 -0.01434928 1.3531745e-38 316 252
-0.00358732 0.68199998 -0.01434928 1.3531745e-38 317 252
-0.0023915465 0.68199998 -0.01434928 1.3531386e-38 318 252
-0.0011975267 0.68300003 -0.014370319 1.3531386e-38 319 252
0 0.68400002 -0.01439136 1.3623222e-38 320 252
0.00119928 0.68400002 -0.01439136 1.3715416e-38 321 252
0.0024055731 0.68599999 -0.01443344 1.3440637e-38 322 252
0.0036136196 0.68699998 -0.014454478 1.3532833e-38 323 252
0.0048181596 0.68699998 -0.014454478 1.334954e-38 324 252
0.0060226996 0.68699998 -0.014454478 1.3533931e-38 325 252
0.0072272392 0.68699998 -0.014454478 1.335135e-38 326 252
0.0084440531 0.68800002 -0.014475521 1.3535743e-38 327 252
0.0096503468 0.68800002 -0.014475521 1.3537544e-38 328 252
0.010888199 0.69 -0.014517599 1.3629739e-38 329 252
0.012097999 0.69 -0.014517599 1.3630095e-38 330 252
0.013327086 0.69099998 -0.014538639 1.3630095e-38 331 252
0.01460176 0.69400001 -0.01460176 1.3721559e-38 332 252
0.015864158 0.69599998 -0.014643839 1.3721559e-38 333 252
0.017109027 0.69700003 -0.01466488 1.3628995e-38 334 252
