# .PCD v.7 - Point Cloud Data file format
FIELDS x y z rgb imX imY
SIZE 4 4 4 4 4 4
TYPE F F F F F F
COUNT 1 1 1 1 1 1
WIDTH 829
HEIGHT 1
VIEWPOINT 0 0 0 1 0 0 0
POINTS 829
DATA ascii
-0.0085913334 0.69999999 -0.036819998 1.6385894e-38 313 270
-0.0073429602 0.69800001 -0.0367148 1.629263e-38 314 270
-0.006119133 0.69800001 -0.0367148 1.6384825e-38 315 270
-0.0048953067 0.69800001 -0.0367148 1.6384841e-38 316 270
-0.0036714801 0.69800001 -0.0367148 1.6569591e-38 317 270
-0.0024406398 0.69599998 -0.036609598 1.6109345e-38 318 270
-0.0012203199 0.69599998 -0.036609598 1.5740923e-38 319 270
0 0.69400001 -0.036504399 1.5373581e-38 320 270
0.0012168133 0.69400001 -0.036504399 1.5465778e-38 321 270
0.00243012 0.69300002 -0.036451802 1.5743071e-38 322 270
0.0036451798 0.69300002 -0.036451802 1.6019657e-38 323 270
0.00486024 0.69300002 -0.036451802 1.61122e-38 324 270
0.0060753003 0.69300002 -0.036451802 1.6296951e-38 325 270
0.0072903596 0.69300002 -0.036451802 1.6479908e-38 326 270
0.008480873 0.69099998 -0.036346599 1.6479908e-38 327 270
0.0096924258 0.69099998 -0.036346599 1.6572462e-38 328 270
0.01090398 0.69099998 -0.036346599 1.6664658e-38 329 270
0.012150601 0.69300002 -0.036451802 1.6481342e-38 330 270
0.01336566 0.69300002 -0.036451802 1.6296951e-38 331 270
0.014517599 0.69 -0.036293998 1.583562e-38 332 270
0.015727401 0.69 -0.036293998 1.5651229e-38 333 270
0.016961746 0.69099998 -0.036346599 1.6112203e-38 334 270
0.0182522 0.69400001 -0.036504399 1.62044e-38 335 270
0.01944096 0.69300002 -0.036451802 1.6293351e-38 336 270
0.020656019 0.69300002 -0.036451802 1.5924569e-38 337 270
0.021871079 0.69300002 -0.036451802 1.6107515e-38 338 270
0.023119451 0.69400001 -0.036504399 1.601532e-38 339 270
0.0244064 0.69599998 -0.036609598 1.5464298e-38 340 270
0.025626717 0.69599998 -0.036609598 1.5372101e-38 341 270
0.026847038 0.69599998 -0.036609598 1.5463218e-38 342 270
0.028107686 0.69700003 -0.036662199 1.5555413e-38 343 270
0.02932976 0.69700003 -0.036662199 1.5646893e-38 344 270
0.030595668 0.69800001 -0.0367148 1.5646893e-38 345 270
0.031819493 0.69800001 -0.0367148 1.555506e-38 346 270
0.033137999 0.69999999 -0.036819998 1.555506e-38 347 270
0.034365334 0.69999999 -0.036819998 1.5647611e-38 348 270
0.035796054 0.704 -0.037030395 1.5555413e-38 349 270
0.037030395 0.704 -0.037030395 1.5096588e-38 350 270
0.038482159 0.708 -0.0372408 1.4635608e-38 351 270
0.039723519 0.708 -0.0372408 1.380878e-38 352 270
0.040964879 0.708 -0.0372408 1.6113311e-38 353 270
-0.021073313 0.70700002 -0.038427804 1.2623573e-38 303 271
-0.019833706 0.70700002 -0.038427804 1.5372121e-38 304 271
-0.018567799 0.70599997 -0.038373452 1.5648708e-38 305 271
-0.017280852 0.704 -0.038264744 1.5370666e-38 306 271
-0.016023712 0.70300001 -0.038210396 1.4910047e-38 307 271
-0.014749039 0.70099998 -0.038101684 1.4268289e-38 308 271
-0.013500666 0.69999999 -0.038047329 1.4729265e-38 309 271
-0.012273333 0.69999999 -0.038047329 1.5924569e-38 310 271
-0.01101444 0.69800001 -0.037938625 1.6016764e-38 311 271
-0.0097906133 0.69800001 -0.037938625 1.6017838e-38 312 271
-0.0085667865 0.69800001 -0.037938625 1.6017838e-38 313 271
-0.0073429602 0.69800001 -0.037938625 1.6200082e-38 314 271
-0.006119133 0.69800001 -0.037938625 1.6107887e-38 315 271
-0.0048953067 0.69800001 -0.037938625 1.5924232e-38 316 271
-0.0036609597 0.69599998 -0.037829921 1.6108982e-38 317 271
-0.0024336267 0.69400001 -0.037721213 1.5832765e-38 318 271
-0.0012168133 0.69400001 -0.037721213 1.574057e-38 319 271
0 0.69400001 -0.037721213 1.5465778e-38 320 271
0.0012168133 0.69400001 -0.037721213 1.5557974e-38 321 271
0.00243012 0.69300002 -0.037666857 1.5651594e-38 322 271
0.0036451798 0.69300002 -0.037666857 1.5928181e-38 323 271
0.00486024 0.69300002 -0.037666857 1.6205121e-38 324 271
0.0060753003 0.69300002 -0.037666857 1.6020731e-38 325 271
0.0072693196 0.69099998 -0.03755815 1.6386292e-38 326 271
0.0084686 0.69 -0.037503798 1.5925314e-38 327 271
0.0096503468 0.68800002 -0.037395094 1.6110794e-38 328 271
0.010856641 0.68800002 -0.037395094 1.6479936e-38 329 271
0.012097999 0.69 -0.037503798 1.6480992e-38 330 271
0.0133078 0.69 -0.037503798 1.6296242e-38 331 271
0.014475521 0.68800002 -0.037395094 1.6111484e-38 332 271
0.015681813 0.68800002 -0.037395094 1.6019288e-38 333 271
0.0169372 0.69 -0.037503798 1.5744143e-38 334 271
0.018225901 0.69300002 -0.037666857 1.5651948e-38 335 271
0.01944096 0.69300002 -0.037666857 1.5741978e-38 336 271
0.020596405 0.69099998 -0.03755815 1.5465033e-38 337 271
0.021807959 0.69099998 -0.03755815 1.5649058e-38 338 271
0.02308614 0.69300002 -0.037666857 1.5464667e-38 339 271
0.024336265 0.69400001 -0.037721213 1.5372098e-38 340 271
0.025553079 0.69400001 -0.037721213 1.5279903e-38 341 271
0.026769891 0.69400001 -0.037721213 1.518806e-38 342 271
0.028067358 0.69599998 -0.037829921 1.518806e-38 343 271
0.029287677 0.69599998 -0.037829921 1.5187707e-38 344 271
0.030595668 0.69800001 -0.037938625 1.5187707e-38 345 271
0.031819493 0.69800001 -0.037938625 1.5279555e-38 346 271
0.033043321 0.69800001 -0.037938625 1.5371751e-38 347 271
0.034267146 0.69800001 -0.037938625 1.5280271e-38 348 271
0.035592664 0.69999999 -0.038047329 1.5280271e-38 349 271
0.036872596 0.70099998 -0.038101684 1.5005111e-38 350 271
0.038427804 0.70700002 -0.038427804 1.482072e-38 351 271
0.039667413 0.70700002 -0.038427804 1.4451606e-38 352 271
0.040907022 0.70700002 -0.038427804 1.4635998e-38 353 271
-0.019833706 0.70700002 -0.039667413 1.5372821e-38 304 272
-0.018567799 0.70599997 -0.039611302 1.5465017e-38 305 272
-0.017256306 0.70300001 -0.039442986 1.5280271e-38 306 272
-0.015978126 0.70099998 -0.039330769 1.4911849e-38 307 272
-0.014727999 0.69999999 -0.039274666 1.45456e-38 308 272
-0.013500666 0.69999999 -0.039274666 1.4914382e-38 309 272
-0.012273333 0.69999999 -0.039274666 1.5648708e-38 310 272
-0.01101444 0.69800001 -0.039162453 1.5740903e-38 311 272
-0.0097906133 0.69800001 -0.039162453 1.5925288e-38 312 272
-0.0085667865 0.69800001 -0.039162453 1.5649061e-38 313 272
-0.0073429602 0.69800001 -0.039162453 1.583202e-38 314 272
-0.006119133 0.69800001 -0.039162453 1.583202e-38 315 272
-0.0048812795 0.69599998 -0.039050236 1.5831667e-38 316 272
-0.0036504399 0.69400001 -0.038938027 1.5831667e-38 317 272
-0.0024336267 0.69400001 -0.038938027 1.5831317e-38 318 272
-0.0012168133 0.69400001 -0.038938027 1.5831317e-38 319 272
0 0.69300002 -0.03888192 1.5556528e-38 320 272
0.00121506 0.69300002 -0.03888192 1.5648723e-38 321 272
0.0024231065 0.69099998 -0.038769703 1.5925665e-38 322 272
0.0036346598 0.69099998 -0.038769703 1.620225e-38 323 272
0.0048462129 0.69099998 -0.038769703 1.6203326e-38 324 272
0.0060577663 0.69099998 -0.038769703 1.6018935e-38 325 272
0.0072587994 0.69 -0.038713597 1.610898e-38 326 272
0.0084440531 0.68800002 -0.038601387 1.5740556e-38 327 272
0.0096503468 0.68800002 -0.038601387 1.6201547e-38 328 272
0.010856641 0.68800002 -0.038601387 1.675472e-38 329 272
0.012062933 0.68800002 -0.038601387 1.6480642e-38 330 272
0.013269227 0.68800002 -0.038601387 1.6480642e-38 331 272
0.014475521 0.68800002 -0.038601387 1.6938365e-38 332 272
0.015681813 0.68800002 -0.038601387 1.6477745e-38 333 272
0.016888106 0.68800002 -0.038601387 1.5743777e-38 334 272
0.0181733 0.69099998 -0.038769703 1.5282439e-38 335 272
0.019384852 0.69099998 -0.038769703 1.5464314e-38 336 272
0.020596405 0.69099998 -0.038769703 1.5556509e-38 337 272
0.021807959 0.69099998 -0.038769703 1.5282071e-38 338 272
0.02308614 0.69300002 -0.03888192 1.5189875e-38 339 272
0.024301201 0.69300002 -0.03888192 1.5462499e-38 340 272
0.025553079 0.69400001 -0.038938027 1.5370303e-38 341 272
0.026769891 0.69400001 -0.038938027 1.509479e-38 342 272
0.027986705 0.69400001 -0.038938027 1.5186985e-38 343 272
0.029287677 0.69599998 -0.039050236 1.5095146e-38 344 272
0.030551834 0.69700003 -0.039106347 1.5095146e-38 345 272
0.03177391 0.69700003 -0.039106347 1.5186635e-38 346 272
0.03299598 0.69700003 -0.039106347 1.5370666e-38 347 272
0.034218054 0.69700003 -0.039106347 1.5003689e-38 348 272
0.035440128 0.69700003 -0.039106347 1.5095884e-38 349 272
0.036819998 0.69999999 -0.039274666 1.5004758e-38 350 272
0.038373452 0.70599997 -0.039611302 1.5004758e-38 351 272
0.039611302 0.70599997 -0.039611302 1.4728546e-38 352 272
0.040849157 0.70599997 -0.039611302 1.445196e-38 353 272
-0.021043506 0.70599997 -0.040849157 1.4452701e-38 303 273
-0.019805651 0.70599997 -0.040849157 1.5648683e-38 304 273
-0.018515198 0.704 -0.040733438 1.5648683e-38 305 273
-0.017256306 0.70300001 -0.040675577 1.5372454e-38 306 273
-0.015978126 0.70099998 -0.040559858 1.5280259e-38 307 273
-0.014727999 0.69999999 -0.040502001 1.5189153e-38 308 273
-0.013462093 0.69800001 -0.040386278 1.5281708e-38 309 273
-0.012238266 0.69800001 -0.040386278 1.5373916e-38 310 273
-0.01101444 0.69800001 -0.040386278 1.5373916e-38 311 273
-0.0097765867 0.69700003 -0.040328421 1.5741259e-38 312 273
-0.0085545136 0.69700003 -0.040328421 1.5741259e-38 313 273
-0.00733244 0.69700003 -0.040328421 1.5556515e-38 314 273
-0.0061015999 0.69599998 -0.040270556 1.5371765e-38 315 273
-0.0048672534 0.69400001 -0.040154841 1.5187746e-38 316 273
-0.0036504399 0.69400001 -0.040154841 1.5187746e-38 317 273
-0.00243012 0.69300002 -0.04009698 1.5279592e-38 318 273
-0.00121506 0.69300002 -0.04009698 1.5279592e-38 319 273
0 0.69300002 -0.04009698 1.5280313e-38 320 273
0.0012115532 0.69099998 -0.039981257 1.5464705e-38 321 273
0.0024195998 0.69 -0.0399234 1.5557258e-38 322 273
0.0036293997 0.69 -0.0399234 1.5833484e-38 323 273
0.0048251734 0.68800002 -0.039807681 1.5651244e-38 324 273
0.0060314666 0.68800002 -0.039807681 1.5559048e-38 325 273
0.0072377604 0.68800002 -0.039807681 1.5923882e-38 326 273
0.0084440531 0.68800002 -0.039807681 1.573985e-38 327 273
0.0096503468 0.68800002 -0.039807681 1.537468e-38 328 273
0.010840859 0.68699998 -0.039749816 1.5559071e-38 329 273
0.012045399 0.68699998 -0.039749816 1.6112598e-38 330 273
0.013269227 0.68800002 -0.039807681 1.6481022e-38 331 273
0.014475521 0.68800002 -0.039807681 1.6753983e-38 332 273
0.015681813 0.68800002 -0.039807681 1.6384841e-38 333 273
0.016888106 0.68800002 -0.039807681 1.5923853e-38 334 273
0.018146999 0.69 -0.0399234 1.5646907e-38 335 273
0.019384852 0.69099998 -0.039981257 1.5096609e-38 336 273
0.020566599 0.69 -0.0399234 1.5465033e-38 337 273
0.021776399 0.69 -0.0399234 1.5280999e-38 338 273
0.023019511 0.69099998 -0.039981257 1.500441e-38 339 273
0.024231065 0.69099998 -0.039981257 1.5370319e-38 340 273
0.02551626 0.69300002 -0.04009698 1.5094092e-38 341 273
0.02673132 0.69300002 -0.04009698 1.500296e-38 342 273
0.027946379 0.69300002 -0.04009698 1.500296e-38 343 273
0.029203519 0.69400001 -0.040154841 1.4820004e-38 344 273
0.030420333 0.69400001 -0.040154841 1.4820004e-38 345 273
0.031637147 0.69400001 -0.040154841 1.4635629e-38 346 273
0.032948639 0.69599998 -0.040270556 1.4820019e-38 347 273
0.034168959 0.69599998 -0.040270556 1.4911859e-38 348 273
0.035389278 0.69599998 -0.040270556 1.5004054e-38 349 273
0.0367148 0.69800001 -0.040386278 1.4636348e-38 350 273
0.038101684 0.70099998 -0.040559858 1.4636348e-38 351 273
0.039442986 0.70300001 -0.040675577 1.4543083e-38 352 273
0.040849157 0.70599997 -0.040849157 1.4358691e-38 353 273
0.042087011 0.70599997 -0.040849157 1.3906762e-38 354 273
-0.021043506 0.70599997 -0.042087011 1.5556515e-38 303 274
-0.019749546 0.704 -0.041967787 1.5832723e-38 304 274
-0.018488899 0.70300001 -0.041908171 1.5648332e-38 305 274
-0.017256306 0.70300001 -0.041908171 1.546502e-38 306 274
-0.015955333 0.69999999 -0.041729331 1.5280269e-38 307 274
-0.01468592 0.69800001 -0.041610107 1.5372118e-38 308 274
-0.013462093 0.69800001 -0.041610107 1.5464314e-38 309 274
-0.012238266 0.69800001 -0.041610107 1.5373566e-38 310 274
-0.01099866 0.69700003 -0.041550495 1.5465761e-38 311 274
-0.0097765867 0.69700003 -0.041550495 1.5649429e-38 312 274
-0.0085545136 0.69700003 -0.041550495 1.5557234e-38 313 274
-0.00733244 0.69700003 -0.041550495 1.5463598e-38 314 274
-0.0060840664 0.69400001 -0.041371655 1.5278846e-38 315 274
-0.0048672534 0.69400001 -0.041371655 1.5185937e-38 316 274
-0.0036451798 0.69300002 -0.041312039 1.5369968e-38 317 274
-0.00243012 0.69300002 -0.041312039 1.5185947e-38 318 274
-0.00121506 0.69300002 -0.041312039 1.5370699e-38 319 274
0 0.69300002 -0.041312039 1.5278866e-38 320 274
0.0012115532 0.69099998 -0.041192811 1.5463257e-38 321 274
0.0024195998 0.69 -0.041133199 1.5646572e-38 322 274
0.0036293997 0.69 -0.041133199 1.5831322e-38 323 274
0.0048251734 0.68800002 -0.041013971 1.5648726e-38 324 274
0.0060314666 0.68800002 -0.041013971 1.5740923e-38 325 274
0.0072377604 0.68800002 -0.041013971 1.5373215e-38 326 274
0.0084440531 0.68800002 -0.041013971 1.528102e-38 327 274
0.0096363192 0.68699998 -0.040954359 1.5095919e-38 328 274
0.010840859 0.68699998 -0.040954359 1.5188115e-38 329 274
0.012045399 0.68699998 -0.040954359 1.5099519e-38 330 274
0.013269227 0.68800002 -0.041013971 1.5560496e-38 331 274
0.014475521 0.68800002 -0.041013971 1.684438e-38 332 274
0.015681813 0.68800002 -0.041013971 1.6659988e-38 333 274
0.016888106 0.68800002 -0.041013971 1.5649777e-38 334 274
0.0180944 0.68800002 -0.041013971 1.5096603e-38 335 274
0.019356798 0.69 -0.041133199 1.5096609e-38 336 274
0.020566599 0.69 -0.041133199 1.5188806e-38 337 274
0.021776399 0.69 -0.041133199 1.5279565e-38 338 274
0.022986198 0.69 -0.041133199 1.5095534e-38 339 274
0.024195999 0.69 -0.041133199 1.5184132e-38 340 274
0.025442619 0.69099998 -0.041192811 1.5184132e-38 341 274
0.02673132 0.69300002 -0.041312039 1.4908975e-38 342 274
0.027946379 0.69300002 -0.041312039 1.5001171e-38 343 274
0.029161438 0.69300002 -0.041312039 1.4726732e-38 344 274
0.030420333 0.69400001 -0.041371655 1.4726732e-38 345 274
0.031637147 0.69400001 -0.041371655 1.4727099e-38 346 274
0.032853961 0.69400001 -0.041371655 1.4819295e-38 347 274
0.034070771 0.69400001 -0.041371655 1.4911496e-38 348 274
0.035389278 0.69599998 -0.041490879 1.4911496e-38 349 274
0.036662199 0.69700003 -0.041550495 1.4544152e-38 350 274
0.038101684 0.70099998 -0.041788943 1.4544152e-38 351 274
0.039442986 0.70300001 -0.041908171 1.4727102e-38 352 274
0.040733438 0.704 -0.041967787 1.4358319e-38 353 274
0.042087011 0.70599997 -0.042087011 1.3718748e-38 354 274
0.043324865 0.70599997 -0.042087011 1.6392422e-38 355 274
-0.020983893 0.704 -0.043202132 1.5923502e-38 303 275
-0.019749546 0.704 -0.043202132 1.5649414e-38 304 275
-0.018436298 0.70099998 -0.043018032 1.5464664e-38 305 275
-0.017182667 0.69999999 -0.042956665 1.555506e-38 306 275
-0.015955333 0.69999999 -0.042956665 1.5370669e-38 307 275
-0.01468592 0.69800001 -0.042833932 1.50959e-38 308 275
-0.013462093 0.69800001 -0.042833932 1.5280651e-38 309 275
-0.012238266 0.69800001 -0.042833932 1.5098423e-38 310 275
-0.01099866 0.69700003 -0.042772565 1.5006228e-38 311 275
-0.0097625591 0.69599998 -0.042711195 1.5464685e-38 312 275
-0.0085422397 0.69599998 -0.042711195 1.51881e-38 313 275
-0.0073008798 0.69400001 -0.042588469 1.500371e-38 314 275
-0.0060840664 0.69400001 -0.042588469 1.481896e-38 315 275
-0.00486024 0.69300002 -0.042527102 1.4818962e-38 316 275
-0.0036451798 0.69300002 -0.042527102 1.4634931e-38 317 275
-0.00243012 0.69300002 -0.042527102 1.4818612e-38 318 275
-0.0012115532 0.69099998 -0.042404365 1.4818612e-38 319 275
0 0.69099998 -0.042404365 1.4727142e-38 320 275
0.0012115532 0.69099998 -0.042404365 1.4819338e-38 321 275
0.0024231065 0.69099998 -0.042404365 1.5095203e-38 322 275
0.0036293997 0.69 -0.042342998 1.5279595e-38 323 275
0.0048251734 0.68800002 -0.042220265 1.5280666e-38 324 275
0.0060314666 0.68800002 -0.042220265 1.5280666e-38 325 275
0.0072377604 0.68800002 -0.042220265 1.4729295e-38 326 275
0.0084440531 0.68800002 -0.042220265 1.4544543e-38 327 275
0.0096363192 0.68699998 -0.042158898 1.4451281e-38 328 275
0.010840859 0.68699998 -0.042158898 1.4451281e-38 329 275
0.012045399 0.68699998 -0.042158898 1.4637109e-38 330 275
0.013249939 0.68699998 -0.042158898 1.5190283e-38 331 275
0.014454478 0.68699998 -0.042158898 1.6110052e-38 332 275
0.015659019 0.68699998 -0.042158898 1.6202247e-38 333 275
0.01686356 0.68699998 -0.042158898 1.5740177e-38 334 275
0.0180944 0.68800002 -0.042220265 1.5463951e-38 335 275
0.019300694 0.68800002 -0.042220265 1.5096606e-38 336 275
0.020506985 0.68800002 -0.042220265 1.5188803e-38 337 275
0.021713281 0.68800002 -0.042220265 1.5371395e-38 338 275
0.022919573 0.68800002 -0.042220265 1.5094808e-38 339 275
0.024195999 0.69 -0.042342998 1.5000817e-38 340 275
0.025405798 0.69 -0.042342998 1.4816426e-38 341 275
0.026654173 0.69099998 -0.042404365 1.4541634e-38 342 275
0.027865725 0.69099998 -0.042404365 1.463383e-38 343 275
0.029161438 0.69300002 -0.042527102 1.4450515e-38 344 275
0.030420333 0.69400001 -0.042588469 1.4634905e-38 345 275
0.031637147 0.69400001 -0.042588469 1.4451239e-38 346 275
0.032853961 0.69400001 -0.042588469 1.4635632e-38 347 275
0.034070771 0.69400001 -0.042588469 1.4544155e-38 348 275
0.035389278 0.69599998 -0.042711195 1.4636351e-38 349 275
0.036662199 0.69700003 -0.042772565 1.4543799e-38 350 275
0.038047329 0.69999999 -0.042956665 1.4451604e-38 351 275
0.039274666 0.69999999 -0.042956665 1.4450886e-38 352 275
0.040559858 0.70099998 -0.043018032 1.4173941e-38 353 275
0.041967787 0.704 -0.043202132 1.3624032e-38 354 275
0.043386232 0.70700002 -0.043386232 1.556014e-38 355 275
-0.024686933 0.704 -0.044436477 1.4000746e-38 300 276
-0.019721493 0.70300001 -0.04437336 1.5556509e-38 304 276
-0.018436298 0.70099998 -0.044247117 1.5372118e-38 305 276
-0.017133573 0.69800001 -0.04405776 1.555471e-38 306 276
-0.015909746 0.69800001 -0.04405776 1.5370319e-38 307 276
-0.01468592 0.69800001 -0.04405776 1.500406e-38 308 276
-0.013442807 0.69700003 -0.043994639 1.5188453e-38 309 276
-0.012220734 0.69700003 -0.043994639 1.5005503e-38 310 276
-0.010982879 0.69599998 -0.043931518 1.4913308e-38 311 276
-0.0097345067 0.69400001 -0.043805279 1.5279219e-38 312 276
-0.0085176928 0.69400001 -0.043805279 1.5002991e-38 313 276
-0.0072903596 0.69300002 -0.043742158 1.4726045e-38 314 276
-0.0060753003 0.69300002 -0.043742158 1.4726045e-38 315 276
-0.00486024 0.69300002 -0.043742158 1.4450537e-38 316 276
-0.0036346598 0.69099998 -0.043615919 1.4450537e-38 317 276
-0.0024231065 0.69099998 -0.043615919 1.4633496e-38 318 276
-0.0012115532 0.69099998 -0.043615919 1.4725692e-38 319 276
0 0.69 -0.043552797 1.4725339e-38 320 276
0.0012097999 0.69 -0.043552797 1.4817893e-38 321 276
0.0024231065 0.69099998 -0.043615919 1.4817888e-38 322 276
0.0036188802 0.68800002 -0.043426562 1.5002638e-38 323 276
0.0048251734 0.68800002 -0.043426562 1.4820041e-38 324 276
0.0060314666 0.68800002 -0.043426562 1.4727846e-38 325 276
0.0072377604 0.68800002 -0.043426562 1.4635294e-38 326 276
0.0084440531 0.68800002 -0.043426562 1.4266872e-38 327 276
0.0096363192 0.68699998 -0.043363437 1.398994e-38 328 276
0.010840859 0.68699998 -0.043363437 1.4082136e-38 329 276
0.012045399 0.68699998 -0.043363437 1.4084657e-38 330 276
0.013249939 0.68699998 -0.043363437 1.4730026e-38 331 276
0.014454478 0.68699998 -0.043363437 1.5741995e-38 332 276
0.015659019 0.68699998 -0.043363437 1.5926386e-38 333 276
0.01686356 0.68699998 -0.043363437 1.5647629e-38 334 276
0.018068098 0.68699998 -0.043363437 1.5371401e-38 335 276
0.019300694 0.68800002 -0.043426562 1.5096609e-38 336 276
0.020506985 0.68800002 -0.043426562 1.5188806e-38 337 276
0.021713281 0.68800002 -0.043426562 1.5187001e-38 338 276
0.022919573 0.68800002 -0.043426562 1.500261e-38 339 276
0.024125867 0.68800002 -0.043426562 1.4816776e-38 340 276
0.025405798 0.69 -0.043552797 1.4724581e-38 341 276
0.026615599 0.69 -0.043552797 1.4449073e-38 342 276
0.027865725 0.69099998 -0.043615919 1.47253e-38 343 276
0.029161438 0.69300002 -0.043742158 1.4541634e-38 344 276
0.030420333 0.69400001 -0.043805279 1.463383e-38 345 276
0.031637147 0.69400001 -0.043805279 1.4451237e-38 346 276
0.032853961 0.69400001 -0.043805279 1.4543434e-38 347 276
0.034070771 0.69400001 -0.043805279 1.4451957e-38 348 276
0.035389278 0.69599998 -0.043931518 1.4544152e-38 349 276
0.036662199 0.69700003 -0.043994639 1.4268289e-38 350 276
0.037938625 0.69800001 -0.04405776 1.4176092e-38 351 276
0.039162453 0.69800001 -0.04405776 1.4266142e-38 352 276
0.040502001 0.69999999 -0.044183996 1.4173946e-38 353 276
0.041908171 0.70300001 -0.04437336 1.3807344e-38 354 276
0.043324865 0.70599997 -0.044562716 1.4914052e-38 355 276
0.044562716 0.70599997 -0.044562716 1.5483458e-38 356 276
-0.025810819 0.70099998 -0.045476202 1.1342949e-38 299 277
-0.023452586 0.704 -0.045670826 1.3167024e-38 301 277
-0.02218668 0.70300001 -0.04560595 1.5371398e-38 302 277
-0.020954086 0.70300001 -0.04560595 1.5463595e-38 303 277
-0.019637333 0.69999999 -0.04541133 1.5372471e-38 304 277
-0.018409999 0.69999999 -0.04541133 1.5280274e-38 305 277
-0.017133573 0.69800001 -0.045281585 1.5095884e-38 306 277
-0.015886955 0.69700003 -0.045216713 1.5003689e-38 307 277
-0.01466488 0.69700003 -0.045216713 1.463707e-38 308 277
-0.013423519 0.69599998 -0.045151837 1.4729265e-38 309 277
-0.0122032 0.69599998 -0.045151837 1.5003704e-38 310 277
-0.01095132 0.69400001 -0.045022093 1.4911508e-38 311 277
-0.0097345067 0.69400001 -0.045022093 1.491079e-38 312 277
-0.0085176928 0.69400001 -0.045022093 1.4818594e-38 313 277
-0.0072903596 0.69300002 -0.044957221 1.4726396e-38 314 277
-0.0060577663 0.69099998 -0.044827472 1.4634198e-38 315 277
-0.0048462129 0.69099998 -0.044827472 1.4358691e-38 316 277
-0.0036346598 0.69099998 -0.044827472 1.4266495e-38 317 277
-0.0024195998 0.69 -0.0447626 1.426507e-38 318 277
-0.0012097999 0.69 -0.0447626 1.4449461e-38 319 277
0 0.68800002 -0.044632856 1.4449111e-38 320 277
0.0012062934 0.68800002 -0.044632856 1.4449111e-38 321 277
0.0024125867 0.68800002 -0.044632856 1.4357987e-38 322 277
0.0036188802 0.68800002 -0.044632856 1.4357987e-38 323 277
0.0048251734 0.68800002 -0.044632856 1.4449461e-38 324 277
0.0060314666 0.68800002 -0.044632856 1.4357265e-38 325 277
0.0072377604 0.68800002 -0.044632856 1.4265436e-38 326 277
0.0084317802 0.68699998 -0.044567976 1.3897013e-38 327 277
0.0096363192 0.68699998 -0.044567976 1.3436771e-38 328 277
0.010840859 0.68699998 -0.044567976 1.3436771e-38 329 277
0.012027865 0.68599999 -0.044503104 1.316378e-38 330 277
0.013230653 0.68599999 -0.044503104 1.3809149e-38 331 277
0.01443344 0.68599999 -0.044503104 1.4547052e-38 332 277
0.015636226 0.68599999 -0.044503104 1.4731083e-38 333 277
0.01686356 0.68699998 -0.044567976 1.5461798e-38 334 277
0.018068098 0.68699998 -0.044567976 1.5553994e-38 335 277
0.019300694 0.68800002 -0.044632856 1.5279921e-38 336 277
0.020477179 0.68699998 -0.044567976 1.5003336e-38 337 277
0.021681719 0.68699998 -0.044567976 1.5001891e-38 338 277
0.022886258 0.68699998 -0.044567976 1.4725302e-38 339 277
0.024125867 0.68800002 -0.044632856 1.4632385e-38 340 277
0.02533216 0.68800002 -0.044632856 1.4632385e-38 341 277
0.026538454 0.68800002 -0.044632856 1.4449073e-38 342 277
0.027744746 0.68800002 -0.044632856 1.4449073e-38 343 277
0.029077278 0.69099998 -0.044827472 1.4266124e-38 344 277
0.0303765 0.69300002 -0.044957221 1.4450515e-38 345 277
0.031591557 0.69300002 -0.044957221 1.4084249e-38 346 277
0.032853961 0.69400001 -0.045022093 1.4268642e-38 347 277
0.034070771 0.69400001 -0.045022093 1.4268277e-38 348 277
0.035389278 0.69599998 -0.045151837 1.445231e-38 349 277
0.036662199 0.69700003 -0.045216713 1.4176448e-38 350 277
0.037938625 0.69800001 -0.045281585 1.4084252e-38 351 277
0.039162453 0.69800001 -0.045281585 1.3990631e-38 352 277
0.040386278 0.69800001 -0.045281585 1.4175022e-38 353 277
0.041729331 0.69999999 -0.04541133 1.3899177e-38 354 277
0.043018032 0.70099998 -0.045476202 1.4452351e-38 355 277
0.044247117 0.70099998 -0.045476202 1.5019236e-38 356 277
-0.027117053 0.70300001 -0.046838548 1.6688854e-38 298 278
-0.025810819 0.70099998 -0.046705291 9.8663785e-39 299 278
-0.024581732 0.70099998 -0.046705291 1.2794998e-38 300 278
-0.023352645 0.70099998 -0.046705291 1.3809149e-38 301 278
-0.022091998 0.69999999 -0.046638668 1.4636717e-38 302 278
-0.020864666 0.69999999 -0.046638668 1.4636717e-38 303 278
-0.019581227 0.69800001 -0.046505414 1.5095537e-38 304 278
-0.0183574 0.69800001 -0.046505414 1.5095537e-38 305 278
-0.017109027 0.69700003 -0.046438783 1.4911859e-38 306 278
-0.015886955 0.69700003 -0.046438783 1.4911859e-38 307 278
-0.014643839 0.69599998 -0.046372157 1.4820742e-38 308 278
-0.013384946 0.69400001 -0.046238903 1.4820742e-38 309 278
-0.012168133 0.69400001 -0.046238903 1.4911862e-38 310 278
-0.01095132 0.69400001 -0.046238903 1.4819666e-38 311 278
-0.0097204801 0.69300002 -0.04617228 1.4726396e-38 312 278
-0.0085054198 0.69300002 -0.04617228 1.4726396e-38 313 278
-0.0072693196 0.69099998 -0.046039023 1.4543086e-38 314 278
-0.0060577663 0.69099998 -0.046039023 1.4358335e-38 315 278
-0.0048391996 0.69 -0.045972396 1.4266495e-38 316 278
-0.0036293997 0.69 -0.045972396 1.3989909e-38 317 278
-0.0024195998 0.69 -0.045972396 1.3897008e-38 318 278
-0.0012062934 0.68800002 -0.045839146 1.4173593e-38 319 278
0 0.68800002 -0.045839146 1.3897379e-38 320 278
0.0012062934 0.68800002 -0.045839146 1.3897379e-38 321 278
0.0024125867 0.68800002 -0.045839146 1.3714067e-38 322 278
0.0036188802 0.68800002 -0.045839146 1.3621871e-38 323 278
0.0048181596 0.68699998 -0.045772515 1.3804462e-38 324 278
0.0060226996 0.68699998 -0.045772515 1.3712265e-38 325 278
0.0072272392 0.68699998 -0.045772515 1.3619713e-38 326 278
0.0084317802 0.68699998 -0.045772515 1.3619713e-38 327 278
0.0096222926 0.68599999 -0.045705888 1.3251659e-38 328 278
0.01079352 0.68400002 -0.045572639 1.3343855e-38 329 278
0.0119928 0.68400002 -0.045572639 1.3161631e-38 330 278
0.01319208 0.68400002 -0.045572639 1.362261e-38 331 278
0.01439136 0.68400002 -0.045572639 1.417649e-38 332 278
0.015636226 0.68599999 -0.045705888 1.417649e-38 333 278
0.016839013 0.68599999 -0.045705888 1.5093389e-38 334 278
0.018068098 0.68699998 -0.045772515 1.5369615e-38 335 278
0.019272638 0.68699998 -0.045772515 1.5094458e-38 336 278
0.020477179 0.68699998 -0.045772515 1.4725675e-38 337 278
0.021681719 0.68699998 -0.045772515 1.4816423e-38 338 278
0.022886258 0.68699998 -0.045772515 1.4632032e-38 339 278
0.024090799 0.68699998 -0.045772515 1.4356874e-38 340 278
0.025295338 0.68699998 -0.045772515 1.4356874e-38 341 278
0.026499879 0.68699998 -0.045772515 1.4356877e-38 342 278
0.027704418 0.68699998 -0.045772515 1.4356877e-38 343 278
0.028951041 0.68800002 -0.045839146 1.4173931e-38 344 278
0.030244999 0.69 -0.045972396 1.4358322e-38 345 278
0.031591557 0.69300002 -0.04617228 1.4175373e-38 346 278
0.03280662 0.69300002 -0.04617228 1.4267568e-38 347 278
0.034070771 0.69400001 -0.046238903 1.4176448e-38 348 278
0.035287585 0.69400001 -0.046238903 1.4268645e-38 349 278
0.036609598 0.69599998 -0.046372157 1.4359038e-38 350 278
0.037884273 0.69700003 -0.046438783 1.4266842e-38 351 278
0.039106347 0.69700003 -0.046438783 1.4174297e-38 352 278
0.040386278 0.69800001 -0.046505414 1.4266492e-38 353 278
0.041729331 0.69999999 -0.046638668 1.3716938e-38 354 278
0.042956665 0.69999999 -0.046638668 1.3716938e-38 355 278
0.044183996 0.69999999 -0.046638668 1.4739407e-38 356 278
-0.028349647 0.70300001 -0.048071139 1.7610108e-38 297 279
-0.027117053 0.70300001 -0.048071139 1.5304828e-38 298 279
-0.025884461 0.70300001 -0.048071139 8.9429705e-39 299 279
-0.024581732 0.70099998 -0.047934376 1.2794268e-38 300 279
-0.023352645 0.70099998 -0.047934376 1.380878e-38 301 279
-0.02202888 0.69800001 -0.047729239 1.4543799e-38 302 279
-0.020805053 0.69800001 -0.047729239 1.4543799e-38 303 279
-0.019581227 0.69800001 -0.047729239 1.4817875e-38 304 279
-0.018331099 0.69700003 -0.047660861 1.5094102e-38 305 279
-0.017109027 0.69700003 -0.047660861 1.4911508e-38 306 279
-0.015864158 0.69599998 -0.047592476 1.4911508e-38 307 279
-0.014643839 0.69599998 -0.047592476 1.4911862e-38 308 279
-0.013384946 0.69400001 -0.047455717 1.4911862e-38 309 279
-0.012168133 0.69400001 -0.047455717 1.4818947e-38 310 279
-0.01095132 0.69400001 -0.047455717 1.4634196e-38 311 279
-0.0097204801 0.69300002 -0.047387339 1.4633477e-38 312 279
-0.0085054198 0.69300002 -0.047387339 1.4633477e-38 313 279
-0.0072693196 0.69099998 -0.047250576 1.4357972e-38 314 279
-0.0060489997 0.69 -0.047182199 1.4173222e-38 315 279
-0.0048391996 0.69 -0.047182199 1.4172508e-38 316 279
-0.0036293997 0.69 -0.047182199 1.3987757e-38 317 279
-0.0024195998 0.69 -0.047182199 1.398776e-38 318 279
-0.0012062934 0.68800002 -0.047045439 1.398776e-38 319 279
0 0.68800002 -0.047045439 1.3895927e-38 320 279
0.0012062934 0.68800002 -0.047045439 1.3895927e-38 321 279
0.0024125867 0.68800002 -0.047045439 1.3527868e-38 322 279
0.0036188802 0.68800002 -0.047045439 1.3343837e-38 323 279
0.0048181596 0.68699998 -0.046977058 1.352608e-38 324 279
0.0060226996 0.68699998 -0.046977058 1.3341687e-38 325 279
0.0072167199 0.68599999 -0.046908677 1.3433884e-38 326 279
0.0084195063 0.68599999 -0.046908677 1.3433884e-38 327 279
0.0095942402 0.68400002 -0.046771921 1.3251644e-38 328 279
0.01079352 0.68400002 -0.046771921 1.3343839e-38 329 279
0.0119928 0.68400002 -0.046771921 1.334563e-38 330 279
0.01319208 0.68400002 -0.046771921 1.3714414e-38 331 279
0.01439136 0.68400002 -0.046771921 1.4175022e-38 332 279
0.01559064 0.68400002 -0.046771921 1.4451251e-38 333 279
0.016789921 0.68400002 -0.046771921 1.5184486e-38 334 279
0.018041799 0.68599999 -0.046908677 1.5184486e-38 335 279
0.019244585 0.68599999 -0.046908677 1.5091571e-38 336 279
0.020447372 0.68599999 -0.046908677 1.4814625e-38 337 279
0.021650158 0.68599999 -0.046908677 1.472171e-38 338 279
0.022852944 0.68599999 -0.046908677 1.472171e-38 339 279
0.024090799 0.68699998 -0.046977058 1.4263605e-38 340 279
0.025295338 0.68699998 -0.046977058 1.417141e-38 341 279
0.026499879 0.68699998 -0.046977058 1.4172126e-38 342 279
0.027704418 0.68699998 -0.046977058 1.4264322e-38 343 279
0.028951041 0.68800002 -0.047045439 1.4264324e-38 344 279
0.030157333 0.68800002 -0.047045439 1.4448717e-38 345 279
0.031454802 0.69 -0.047182199 1.435689e-38 346 279
0.03280662 0.69300002 -0.047387339 1.4449086e-38 347 279
0.034021679 0.69300002 -0.047387339 1.4358688e-38 348 279
0.035287585 0.69400001 -0.047455717 1.4450883e-38 349 279
0.036504399 0.69400001 -0.047455717 1.4084249e-38 350 279
0.037884273 0.69700003 -0.047660861 1.4084249e-38 351 279
0.039106347 0.69700003 -0.047660861 1.3990979e-38 352 279
0.040386278 0.69800001 -0.047729239 1.3990979e-38 353 279
0.041729331 0.69999999 -0.047865998 1.3808035e-38 354 279
0.042956665 0.69999999 -0.047865998 1.3623644e-38 355 279
0.044247117 0.70099998 -0.047934376 1.4461005e-38 356 279
-0.028349647 0.70300001 -0.049303733 1.6779977e-38 297 280
-0.027117053 0.70300001 -0.049303733 1.3918997e-38 298 280
-0.025884461 0.70300001 -0.049303733 9.4014109e-39 299 280
-0.024581732 0.70099998 -0.049163464 1.2886454e-38 300 280
-0.023352645 0.70099998 -0.049163464 1.3992443e-38 301 280
-0.02202888 0.69800001 -0.048953064 1.4267938e-38 302 280
-0.020805053 0.69800001 -0.048953064 1.4267938e-38 303 280
-0.019553173 0.69700003 -0.048882935 1.4360137e-38 304 280
-0.018304799 0.69599998 -0.048812799 1.4360137e-38 305 280
-0.017084479 0.69599998 -0.048812799 1.4452688e-38 306 280
-0.015864158 0.69599998 -0.048812799 1.4728915e-38 307 280
-0.01460176 0.69400001 -0.048672531 1.4635998e-38 308 280
-0.013384946 0.69400001 -0.048672531 1.4543802e-38 309 280
-0.012168133 0.69400001 -0.048672531 1.4543086e-38 310 280
-0.010935539 0.69300002 -0.048602402 1.4358335e-38 311 280
-0.0097204801 0.69300002 -0.048602402 1.408283e-38 312 280
-0.0085054198 0.69300002 -0.048602402 1.3805884e-38 313 280
-0.0072693196 0.69099998 -0.04846213 1.3712265e-38 314 280
-0.0060489997 0.69 -0.048391998 1.3527873e-38 315 280
-0.0048251734 0.68800002 -0.048251733 1.3527517e-38 316 280
-0.0036188802 0.68800002 -0.048251733 1.3527517e-38 317 280
-0.0024125867 0.68800002 -0.048251733 1.3344558e-38 318 280
-0.0012062934 0.68800002 -0.048251733 1.3344558e-38 319 280
0 0.68800002 -0.048251733 1.3161243e-38 320 280
0.0012062934 0.68800002 -0.048251733 1.3161243e-38 321 280
0.0024125867 0.68800002 -0.048251733 1.3160167e-38 322 280
0.0036136196 0.68699998 -0.048181597 1.2975777e-38 323 280
0.0048181596 0.68699998 -0.048181597 1.2883227e-38 324 280
0.0060226996 0.68699998 -0.048181597 1.2883227e-38 325 280
0.0072167199 0.68599999 -0.048111461 1.2884656e-38 326 280
0.0083949603 0.68400002 -0.0479712 1.2976852e-38 327 280
0.0095942402 0.68400002 -0.0479712 1.3252347e-38 328 280
0.01077774 0.68300003 -0.047901068 1.3528574e-38 329 280
0.011975267 0.68300003 -0.047901068 1.3344558e-38 330 280
0.01319208 0.68400002 -0.0479712 1.3436754e-38 331 280
0.01439136 0.68400002 -0.0479712 1.3621147e-38 332 280
0.01559064 0.68400002 -0.0479712 1.3805536e-38 333 280
0.016789921 0.68400002 -0.0479712 1.435654e-38 334 280
0.0179892 0.68400002 -0.0479712 1.4172508e-38 335 280
0.01918848 0.68400002 -0.0479712 1.4445861e-38 336 280
0.020447372 0.68599999 -0.048111461 1.426147e-38 337 280
0.021650158 0.68599999 -0.048111461 1.407923e-38 338 280
0.022852944 0.68599999 -0.048111461 1.3895199e-38 339 280
0.024055731 0.68599999 -0.048111461 1.3895193e-38 340 280
0.025258519 0.68599999 -0.048111461 1.4079583e-38 341 280
0.026461305 0.68599999 -0.048111461 1.3712953e-38 342 280
0.027704418 0.68699998 -0.048181597 1.3989179e-38 343 280
0.028908957 0.68699998 -0.048181597 1.3805518e-38 344 280
0.030157333 0.68800002 -0.048251733 1.3805518e-38 345 280
0.031454802 0.69 -0.048391998 1.3805887e-38 346 280
0.032711938 0.69099998 -0.04846213 1.3898082e-38 347 280
0.034021679 0.69300002 -0.048602402 1.3806963e-38 348 280
0.035236739 0.69300002 -0.048602402 1.3990994e-38 349 280
0.036504399 0.69400001 -0.048672531 1.3900586e-38 350 280
0.037884273 0.69700003 -0.048882935 1.3808032e-38 351 280
0.039162453 0.69800001 -0.048953064 1.3990984e-38 352 280
0.040386278 0.69800001 -0.048953064 1.408318e-38 353 280
0.041610107 0.69800001 -0.048953064 1.3532537e-38 354 280
0.042956665 0.69999999 -0.049093332 1.3164114e-38 355 280
0.044183996 0.69999999 -0.049093332 1.3997873e-38 356 280
0.04541133 0.69999999 -0.049093332 1.7132523e-38 357 280
-0.028349647 0.70300001 -0.050536323 1.5765824e-38 297 281
-0.027117053 0.70300001 -0.050536323 1.3176747e-38 298 281
-0.025884461 0.70300001 -0.050536323 1.0687465e-38 299 281
-0.024581732 0.70099998 -0.050392549 1.3989909e-38 300 281
-0.023319334 0.69999999 -0.050320663 1.4450886e-38 301 281
-0.02202888 0.69800001 -0.050176892 1.4175729e-38 302 281
-0.020805053 0.69800001 -0.050176892 1.4175729e-38 303 281
-0.019553173 0.69700003 -0.050105009 1.4266489e-38 304 281
-0.018304799 0.69599998 -0.050033119 1.4543436e-38 305 281
-0.017084479 0.69599998 -0.050033119 1.4635632e-38 306 281
-0.015864158 0.69599998 -0.050033119 1.4635632e-38 307 281
-0.01460176 0.69400001 -0.049889345 1.4450883e-38 308 281
-0.013384946 0.69400001 -0.049889345 1.4358688e-38 309 281
-0.012150601 0.69300002 -0.049817458 1.4173943e-38 310 281
-0.01090398 0.69099998 -0.049673684 1.3989912e-38 311 281
-0.0096924258 0.69099998 -0.049673684 1.389628e-38 312 281
-0.008480873 0.69099998 -0.049673684 1.3620054e-38 313 281
-0.0072587994 0.69 -0.049601797 1.3249126e-38 314 281
-0.0060314666 0.68800002 -0.049458027 1.3525352e-38 315 281
-0.0048251734 0.68800002 -0.049458027 1.3434237e-38 316 281
-0.0036188802 0.68800002 -0.049458027 1.3434237e-38 317 281
-0.0024125867 0.68800002 -0.049458027 1.3160161e-38 318 281
-0.0012062934 0.68800002 -0.049458027 1.3344911e-38 319 281
0 0.68800002 -0.049458027 1.3069398e-38 320 281
0.0012062934 0.68800002 -0.049458027 1.3069398e-38 321 281
0.0024125867 0.68800002 -0.049458027 1.2976483e-38 322 281
0.0036136196 0.68699998 -0.049386136 1.2884286e-38 323 281
0.0048111463 0.68599999 -0.049314249 1.2699539e-38 324 281
0.0060139326 0.68599999 -0.049314249 1.2791735e-38 325 281
0.0071956799 0.68400002 -0.049170479 1.2791735e-38 326 281
0.0083826864 0.68300003 -0.049098592 1.288393e-38 327 281
0.0095802136 0.68300003 -0.049098592 1.3344543e-38 328 281
0.01077774 0.68300003 -0.049098592 1.3252347e-38 329 281
0.011975267 0.68300003 -0.049098592 1.3250192e-38 330 281
0.013172794 0.68300003 -0.049098592 1.288177e-38 331 281
0.014370319 0.68300003 -0.049098592 1.2791382e-38 332 281
0.01559064 0.68400002 -0.049170479 1.3160164e-38 333 281
0.016789921 0.68400002 -0.049170479 1.4168553e-38 334 281
0.0179892 0.68400002 -0.049170479 1.4168553e-38 335 281
0.01918848 0.68400002 -0.049170479 1.4351851e-38 336 281
0.020387759 0.68400002 -0.049170479 1.4259655e-38 337 281
0.021650158 0.68599999 -0.049314249 1.3985947e-38 338 281
0.022852944 0.68599999 -0.049314249 1.3985947e-38 339 281
0.024055731 0.68599999 -0.049314249 1.380335e-38 340 281
0.025258519 0.68599999 -0.049314249 1.3895546e-38 341 281
0.026461305 0.68599999 -0.049314249 1.3804066e-38 342 281
0.027704418 0.68699998 -0.049386136 1.3804066e-38 343 281
0.028908957 0.68699998 -0.049386136 1.3804072e-38 344 281
0.030157333 0.68800002 -0.049458027 1.3896268e-38 345 281
0.031454802 0.69 -0.049601797 1.37126e-38 346 281
0.032711938 0.69099998 -0.049673684 1.3988826e-38 347 281
0.034021679 0.69300002 -0.049817458 1.3806234e-38 348 281
0.035236739 0.69300002 -0.049817458 1.389843e-38 349 281
0.036504399 0.69400001 -0.049889345 1.3807316e-38 350 281
0.037829921 0.69599998 -0.050033119 1.3807316e-38 351 281
0.039106347 0.69700003 -0.050105009 1.3807316e-38 352 281
0.040386278 0.69800001 -0.050176892 1.3807316e-38 353 281
0.041610107 0.69800001 -0.050176892 1.3715483e-38 354 281
0.042956665 0.69999999 -0.050320663 1.3808038e-38 355 281
0.044183996 0.69999999 -0.050320663 1.3813468e-38 356 281
0.04541133 0.69999999 -0.050320663 1.5933967e-38 357 281
-0.032047424 0.70300001 -0.051768921 1.9360379e-38 294 282
-0.030814834 0.70300001 -0.051768921 1.9452574e-38 295 282
-0.029582238 0.70300001 -0.051768921 1.917778e-38 296 282
-0.028349647 0.70300001 -0.051768921 1.4383967e-38 297 282
-0.027117053 0.70300001 -0.051768921 1.2894753e-38 298 282
-0.025810819 0.70099998 -0.051621638 1.1788405e-38 299 282
-0.024546666 0.69999999 -0.051547997 1.4267924e-38 300 282
-0.023319334 0.69999999 -0.051547997 1.4175729e-38 301 282
-0.02202888 0.69800001 -0.051400717 1.4083533e-38 302 282
-0.020805053 0.69800001 -0.051400717 1.3990979e-38 303 282
-0.019525118 0.69599998 -0.051253434 1.389808e-38 304 282
-0.018304799 0.69599998 -0.051253434 1.3805884e-38 305 282
-0.017084479 0.69599998 -0.051253434 1.3896636e-38 306 282
-0.015818574 0.69400001 -0.051106159 1.4081029e-38 307 282
-0.01460176 0.69400001 -0.051106159 1.4081029e-38 308 282
-0.01336566 0.69300002 -0.051032521 1.4081029e-38 309 282
-0.012150601 0.69300002 -0.051032521 1.3712615e-38 310 282
-0.01090398 0.69099998 -0.050885238 1.3620419e-38 311 282
-0.0096924258 0.69099998 -0.050885238 1.3434959e-38 312 282
-0.0084686 0.69 -0.050811596 1.3066176e-38 313 282
-0.0072377604 0.68800002 -0.050664321 1.2698117e-38 314 282
-0.0060314666 0.68800002 -0.050664321 1.2698117e-38 315 282
-0.0048251734 0.68800002 -0.050664321 1.2698833e-38 316 282
-0.0036188802 0.68800002 -0.050664321 1.2883583e-38 317 282
-0.0024125867 0.68800002 -0.050664321 1.2700991e-38 318 282
-0.0012062934 0.68800002 -0.050664321 1.2700991e-38 319 282
0 0.68699998 -0.050590675 1.2609511e-38 320 282
0.0012045399 0.68699998 -0.050590675 1.2609511e-38 321 282
0.0024055731 0.68599999 -0.050517038 1.288393e-38 322 282
0.00360836 0.68599999 -0.050517038 1.2791735e-38 323 282
0.0048111463 0.68599999 -0.050517038 1.2331845e-38 324 282
0.0059964 0.68400002 -0.050369758 1.2147814e-38 325 282
0.0071956799 0.68400002 -0.050369758 1.2238934e-38 326 282
0.0083826864 0.68300003 -0.05029612 1.2423325e-38 327 282
0.0095802136 0.68300003 -0.05029612 1.3157999e-38 328 282
0.01077774 0.68300003 -0.05029612 1.3157999e-38 329 282
0.011975267 0.68300003 -0.05029612 1.3064013e-38 330 282
0.013172794 0.68300003 -0.05029612 1.2879261e-38 331 282
0.014370319 0.68300003 -0.05029612 1.2695966e-38 332 282
0.015567848 0.68300003 -0.05029612 1.2880716e-38 333 282
0.016765373 0.68300003 -0.05029612 1.324877e-38 334 282
0.017962901 0.68300003 -0.05029612 1.3156574e-38 335 282
0.01918848 0.68400002 -0.050369758 1.370793e-38 336 282
0.020387759 0.68400002 -0.050369758 1.3984157e-38 337 282
0.02158704 0.68400002 -0.050369758 1.3710079e-38 338 282
0.022852944 0.68599999 -0.050517038 1.3710079e-38 339 282
0.024055731 0.68599999 -0.050517038 1.3894464e-38 340 282
0.025258519 0.68599999 -0.050517038 1.3894464e-38 341 282
0.026461305 0.68599999 -0.050517038 1.3711871e-38 342 282
0.027704418 0.68699998 -0.050590675 1.3711871e-38 343 282
0.028908957 0.68699998 -0.050590675 1.3528208e-38 344 282
0.030157333 0.68800002 -0.050664321 1.3620404e-38 345 282
0.031363625 0.68800002 -0.050664321 1.3437457e-38 346 282
0.032711938 0.69099998 -0.050885238 1.3437457e-38 347 282
0.034021679 0.69300002 -0.051032521 1.3529653e-38 348 282
0.035236739 0.69300002 -0.051032521 1.362185e-38 349 282
0.036504399 0.69400001 -0.051106159 1.3439259e-38 350 282
0.037829921 0.69599998 -0.051253434 1.3439259e-38 351 282
0.039050236 0.69599998 -0.051253434 1.3714767e-38 352 282
0.040328421 0.69700003 -0.051327083 1.3714767e-38 353 282
0.041610107 0.69800001 -0.051400717 1.362437e-38 354 282
0.042833932 0.69800001 -0.051400717 1.3993152e-38 355 282
0.04405776 0.69800001 -0.051400717 1.3629074e-38 356 282
0.04541133 0.69999999 -0.051547997 1.5196399e-38 357 282
0.046638668 0.69999999 -0.051547997 1.7880908e-38 358 282
-0.032047424 0.70300001 -0.053001512 1.9176711e-38 294 283
-0.030814834 0.70300001 -0.053001512 1.9176711e-38 295 283
-0.029582238 0.70300001 -0.053001512 1.8531324e-38 296 283
-0.028349647 0.70300001 -0.053001512 1.3460206e-38 297 283
-0.027117053 0.70300001 -0.053001512 1.3165942e-38 298 283
-0.025810819 0.70099998 -0.052850723 1.3165942e-38 299 283
-0.024546666 0.69999999 -0.052775331 1.4451237e-38 300 283
-0.023319334 0.69999999 -0.052775331 1.4266845e-38 301 283
-0.02199732 0.69700003 -0.052549154 1.4174647e-38 302 283
-0.020775247 0.69700003 -0.052549154 1.389842e-38 303 283
-0.019525118 0.69599998 -0.052473757 1.3896636e-38 304 283
-0.018304799 0.69599998 -0.052473757 1.3435659e-38 305 283
-0.017084479 0.69599998 -0.052473757 1.3249842e-38 306 283
-0.015818574 0.69400001 -0.052322973 1.371082e-38 307 283
-0.01460176 0.69400001 -0.052322973 1.3710101e-38 308 283
-0.01336566 0.69300002 -0.05224758 1.3802297e-38 309 283
-0.012115533 0.69099998 -0.052096792 1.3159445e-38 310 283
-0.01090398 0.69099998 -0.052096792 1.2975053e-38 311 283
-0.0096924258 0.69099998 -0.052096792 1.2881785e-38 312 283
-0.0084686 0.69 -0.052021399 1.2697035e-38 313 283
-0.0072377604 0.68800002 -0.051870614 1.2513723e-38 314 283
-0.0060314666 0.68800002 -0.051870614 1.2605918e-38 315 283
-0.0048251734 0.68800002 -0.051870614 1.2423681e-38 316 283
-0.0036188802 0.68800002 -0.051870614 1.2515877e-38 317 283
-0.0024125867 0.68800002 -0.051870614 1.2332574e-38 318 283
-0.0012045399 0.68699998 -0.051795214 1.2332574e-38 319 283
0 0.68699998 -0.051795214 1.2332574e-38 320 283
0.0012045399 0.68699998 -0.051795214 1.2516607e-38 321 283
0.0024055731 0.68599999 -0.051719822 1.2515521e-38 322 283
0.00360836 0.68599999 -0.051719822 1.2423325e-38 323 283
0.0047971201 0.68400002 -0.051569041 1.2146382e-38 324 283
0.0059964 0.68400002 -0.051569041 1.1870154e-38 325 283
0.0071851597 0.68300003 -0.051493648 1.205275e-38 326 283
0.0083826864 0.68300003 -0.051493648 1.2236781e-38 327 283
0.0095802136 0.68300003 -0.051493648 1.2604119e-38 328 283
0.01077774 0.68300003 -0.051493648 1.2511924e-38 329 283
0.011975267 0.68300003 -0.051493648 1.2694873e-38 330 283
0.013172794 0.68300003 -0.051493648 1.2602677e-38 331 283
0.014370319 0.68300003 -0.051493648 1.2420081e-38 332 283
0.015567848 0.68300003 -0.051493648 1.2604472e-38 333 283
0.016765373 0.68300003 -0.051493648 1.2879614e-38 334 283
0.017962901 0.68300003 -0.051493648 1.3064007e-38 335 283
0.019160427 0.68300003 -0.051493648 1.3340221e-38 336 283
0.020387759 0.68400002 -0.051569041 1.3616807e-38 337 283
0.02158704 0.68400002 -0.051569041 1.3801551e-38 338 283
0.022852944 0.68599999 -0.051719822 1.3801551e-38 339 283
0.024055731 0.68599999 -0.051719822 1.3710432e-38 340 283
0.025258519 0.68599999 -0.051719822 1.3710432e-38 341 283
0.026461305 0.68599999 -0.051719822 1.3711152e-38 342 283
0.027704418 0.68699998 -0.051795214 1.3711152e-38 343 283
0.028908957 0.68699998 -0.051795214 1.3527487e-38 344 283
0.030157333 0.68800002 -0.051870614 1.3804072e-38 345 283
0.031363625 0.68800002 -0.051870614 1.3620404e-38 346 283
0.032711938 0.69099998 -0.052096792 1.3528208e-38 347 283
0.033923492 0.69099998 -0.052096792 1.3528571e-38 348 283
0.035135046 0.69099998 -0.052096792 1.3713321e-38 349 283
0.036504399 0.69400001 -0.052322973 1.3347061e-38 350 283
0.037721213 0.69400001 -0.052322973 1.3347061e-38 351 283
0.039050236 0.69599998 -0.052473757 1.3622569e-38 352 283
0.040328421 0.69700003 -0.052549154 1.3622569e-38 353 283
0.041610107 0.69800001 -0.052624546 1.3533246e-38 354 283
0.042833932 0.69800001 -0.052624546 1.3717637e-38 355 283
0.04405776 0.69800001 -0.052624546 1.3352843e-38 356 283
0.04541133 0.69999999 -0.052775331 1.5196755e-38 357 283
0.046638668 0.69999999 -0.052775331 1.7973109e-38 358 283
-0.032093015 0.704 -0.054311249 1.9268906e-38 294 284
-0.030814834 0.70300001 -0.054234106 1.9084514e-38 295 284
-0.029582238 0.70300001 -0.054234106 1.7794112e-38 296 284
-0.028349647 0.70300001 -0.054234106 1.2631157e-38 297 284
-0.027117053 0.70300001 -0.054234106 1.3439641e-38 298 284
-0.025810819 0.70099998 -0.054079808 1.3624032e-38 299 284
-0.024546666 0.69999999 -0.054002665 1.4358322e-38 300 284
-0.023252707 0.69800001 -0.053848371 1.4173931e-38 301 284
-0.02199732 0.69700003 -0.053771228 1.3989182e-38 302 284
-0.020775247 0.69700003 -0.053771228 1.3896987e-38 303 284
-0.019525118 0.69599998 -0.053694077 1.3527858e-38 304 284
-0.018304799 0.69599998 -0.053694077 1.3343108e-38 305 284
-0.017035386 0.69400001 -0.053539783 1.3067246e-38 306 284
-0.015818574 0.69400001 -0.053539783 1.3067246e-38 307 284
-0.014580719 0.69300002 -0.053462639 1.2975053e-38 308 284
-0.01336566 0.69300002 -0.053462639 1.2882498e-38 309 284
-0.012115533 0.69099998 -0.053308345 1.2882501e-38 310 284
-0.01090398 0.69099998 -0.053308345 1.2606274e-38 311 284
-0.0096924258 0.69099998 -0.053308345 1.2421526e-38 312 284
-0.0084686 0.69 -0.053231198 1.232933e-38 313 284
-0.0072377604 0.68800002 -0.053076908 1.2146018e-38 314 284
-0.0060314666 0.68800002 -0.053076908 1.2146018e-38 315 284
-0.0048251734 0.68800002 -0.053076908 1.196307e-38 316 284
-0.0036188802 0.68800002 -0.053076908 1.196307e-38 317 284
-0.0024125867 0.68800002 -0.053076908 1.2146029e-38 318 284
-0.0012045399 0.68699998 -0.052999757 1.2238583e-38 319 284
0 0.68699998 -0.052999757 1.2055987e-38 320 284
0.0012045399 0.68699998 -0.052999757 1.2055987e-38 321 284
0.0024055731 0.68599999 -0.05292261 1.2055266e-38 322 284
0.00360836 0.68599999 -0.05292261 1.1778677e-38 323 284
0.0047971201 0.68400002 -0.05276832 1.1960918e-38 324 284
0.0059964 0.68400002 -0.05276832 1.1776526e-38 325 284
0.0071851597 0.68300003 -0.052691177 1.1592492e-38 326 284
0.0083826864 0.68300003 -0.052691177 1.1776524e-38 327 284
0.0095802136 0.68300003 -0.052691177 1.2050947e-38 328 284
0.01077774 0.68300003 -0.052691177 1.2050947e-38 329 284
0.011975267 0.68300003 -0.052691177 1.2233898e-38 330 284
0.013172794 0.68300003 -0.052691177 1.2326095e-38 331 284
0.014370319 0.68300003 -0.052691177 1.2052019e-38 332 284
0.015567848 0.68300003 -0.052691177 1.2144214e-38 333 284
0.016765373 0.68300003 -0.052691177 1.2603022e-38 334 284
0.017962901 0.68300003 -0.052691177 1.2787772e-38 335 284
0.019160427 0.68300003 -0.052691177 1.2972514e-38 336 284
0.020357953 0.68300003 -0.052691177 1.3341296e-38 337 284
0.02158704 0.68400002 -0.05276832 1.361716e-38 338 284
0.022786319 0.68400002 -0.05276832 1.361716e-38 339 284
0.0239856 0.68400002 -0.05276832 1.361716e-38 340 284
