# .PCD v.7 - Point Cloud Data file format
FIELDS x y z rgb imX imY
SIZE 4 4 4 4 4 4
TYPE F F F F F F
COUNT 1 1 1 1 1 1
WIDTH 838
HEIGHT 1
VIEWPOINT 0 0 0 1 0 0 0
POINTS 838
DATA ascii
0.037345998 0.70999998 -0.052284397 1.3165537e-38 350 282
0.038590867 0.70999998 -0.052284397 1.3257732e-38 351 282
0.039891839 0.71100003 -0.052358042 1.3351733e-38 352 282
0.041138459 0.71100003 -0.052358042 1.3720155e-38 353 282
0.042504307 0.713 -0.052505318 1.3446462e-38 354 282
0.043815799 0.71399999 -0.052578956 1.3446462e-38 355 282
0.045193922 0.71600002 -0.052726239 1.5293287e-38 356 282
0.046514176 0.71700001 -0.052799881 1.8427579e-38 357 282
0.04777132 0.71700001 -0.052799881 1.8066751e-38 358 282
-0.027618507 0.71600002 -0.053981625 1.7599619e-38 298 283
-0.026363119 0.71600002 -0.053981625 1.3266425e-38 299 283
-0.025107734 0.71600002 -0.053981625 1.3903494e-38 300 283
-0.02378572 0.71399999 -0.053830836 1.4272275e-38 301 283
-0.022533838 0.71399999 -0.053830836 1.454525e-38 302 283
-0.021341572 0.71600002 -0.053981625 1.4268304e-38 303 283
-0.020030079 0.71399999 -0.053830836 1.4176448e-38 304 283
-0.018778199 0.71399999 -0.053830836 1.3991698e-38 305 283
-0.01745268 0.71100003 -0.053604662 1.4083883e-38 306 283
-0.016183265 0.70999998 -0.053529263 1.3991688e-38 307 283
-0.01487528 0.70700002 -0.053303085 1.4175353e-38 308 283
-0.013616386 0.70599997 -0.053227689 1.3990963e-38 309 283
-0.012378532 0.70599997 -0.053227689 1.4174629e-38 310 283
-0.011109119 0.704 -0.053076904 1.4174629e-38 311 283
-0.0098747732 0.704 -0.053076904 1.4082433e-38 312 283
-0.0086281532 0.70300001 -0.053001512 1.4082433e-38 313 283
-0.0073955595 0.70300001 -0.053001512 1.3990236e-38 314 283
-0.0061454331 0.70099998 -0.052850723 1.3990236e-38 315 283
-0.0049163462 0.70099998 -0.052850723 1.3990236e-38 316 283
-0.0036872597 0.70099998 -0.052850723 1.389804e-38 317 283
-0.0024581731 0.70099998 -0.052850723 1.3990236e-38 318 283
-0.0012290865 0.70099998 -0.052850723 1.3714009e-38 319 283
0 0.69999999 -0.052775331 1.389804e-38 320 283
0.0012273333 0.69999999 -0.052775331 1.3714009e-38 321 283
0.0024546667 0.69999999 -0.052775331 1.3530707e-38 322 283
0.0036714801 0.69800001 -0.052624546 1.3807294e-38 323 283
0.0048953067 0.69800001 -0.052624546 1.3623275e-38 324 283
0.006119133 0.69800001 -0.052624546 1.3531078e-38 325 283
0.0073429602 0.69800001 -0.052624546 1.3530356e-38 326 283
0.0085545136 0.69700003 -0.052549154 1.3530356e-38 327 283
0.0097765867 0.69700003 -0.052549154 1.3345599e-38 328 283
0.01101444 0.69800001 -0.052624546 1.3160848e-38 329 283
0.012238266 0.69800001 -0.052624546 1.3251965e-38 330 283
0.013462093 0.69800001 -0.052624546 1.3251965e-38 331 283
0.01468592 0.69800001 -0.052624546 1.3434911e-38 332 283
0.015909746 0.69800001 -0.052624546 1.3434911e-38 333 283
0.017133573 0.69800001 -0.052624546 1.3251952e-38 334 283
0.018409999 0.69999999 -0.052775331 1.3159756e-38 335 283
0.019637333 0.69999999 -0.052775331 1.31594e-38 336 283
0.020864666 0.69999999 -0.052775331 1.3067205e-38 337 283
0.022091998 0.69999999 -0.052775331 1.3066855e-38 338 283
0.023319334 0.69999999 -0.052775331 1.3066855e-38 339 283
0.024581732 0.70099998 -0.052850723 1.2883189e-38 340 283
0.025810819 0.70099998 -0.052850723 1.2975385e-38 341 283
0.027039904 0.70099998 -0.052850723 1.2700243e-38 342 283
0.028268991 0.70099998 -0.052850723 1.2792438e-38 343 283
0.029582238 0.70300001 -0.053001512 1.2975753e-38 344 283
0.030814834 0.70300001 -0.053001512 1.3160146e-38 345 283
0.032093015 0.704 -0.053076904 1.3161221e-38 346 283
0.033422034 0.70599997 -0.053227689 1.3253416e-38 347 283
0.034659892 0.70599997 -0.053227689 1.307082e-38 348 283
0.035948593 0.70700002 -0.053303085 1.3255211e-38 349 283
0.0372408 0.708 -0.053378478 1.3165537e-38 350 283
0.038590867 0.70999998 -0.053529263 1.3442124e-38 351 283
0.039835732 0.70999998 -0.053529263 1.3352099e-38 352 283
0.041138459 0.71100003 -0.053604662 1.3628686e-38 353 283
0.042504307 0.713 -0.053755447 1.372197e-38 354 283
0.043815799 0.71399999 -0.053830836 1.372197e-38 355 283
0.045257039 0.71700001 -0.054057021 1.59383e-38 356 283
0.046643924 0.71899998 -0.054207806 1.9165147e-38 357 283
0.04790457 0.71899998 -0.054207806 1.8066397e-38 358 283
-0.027657079 0.71700001 -0.055314157 1.8799604e-38 298 284
-0.026363119 0.71600002 -0.055237014 1.3913596e-38 299 284
-0.025107734 0.71600002 -0.055237014 1.4179711e-38 300 284
-0.023852346 0.71600002 -0.055237014 1.4364102e-38 301 284
-0.022596961 0.71600002 -0.055237014 1.4363007e-38 302 284
-0.021341572 0.71600002 -0.055237014 1.4178615e-38 303 284
-0.020086186 0.71600002 -0.055237014 1.3993146e-38 304 284
-0.018778199 0.71399999 -0.05508272 1.3808754e-38 305 284
-0.01745268 0.71100003 -0.054851279 1.3809104e-38 306 284
-0.01620606 0.71100003 -0.054851279 1.3532877e-38 307 284
-0.014938398 0.70999998 -0.054774132 1.380837e-38 308 284
-0.013616386 0.70599997 -0.054465543 1.380837e-38 309 284
-0.012378532 0.70599997 -0.054465543 1.389984e-38 310 284
-0.011109119 0.704 -0.054311249 1.3807644e-38 311 284
-0.0098747732 0.704 -0.054311249 1.3623256e-38 312 284
-0.0086281532 0.70300001 -0.054234106 1.3623256e-38 313 284
-0.0073955595 0.70300001 -0.054234106 1.3531057e-38 314 284
-0.0061629666 0.70300001 -0.054234106 1.3623611e-38 315 284
-0.0049303733 0.70300001 -0.054234106 1.3714372e-38 316 284
-0.0036872597 0.70099998 -0.054079808 1.3622177e-38 317 284
-0.0024581731 0.70099998 -0.054079808 1.37133e-38 318 284
-0.0012290865 0.70099998 -0.054079808 1.3621105e-38 319 284
0 0.69999999 -0.054002665 1.3621107e-38 320 284
0.0012273333 0.69999999 -0.054002665 1.3621107e-38 321 284
0.0024546667 0.69999999 -0.054002665 1.3346684e-38 322 284
0.0036714801 0.69800001 -0.053848371 1.343888e-38 323 284
0.0048953067 0.69800001 -0.053848371 1.3438527e-38 324 284
0.006119133 0.69800001 -0.053848371 1.3622919e-38 325 284
0.0073429602 0.69800001 -0.053848371 1.3255933e-38 326 284
0.0085545136 0.69700003 -0.053771228 1.2979706e-38 327 284
0.0097765867 0.69700003 -0.053771228 1.3252695e-38 328 284
0.01101444 0.69800001 -0.053848371 1.3160498e-38 329 284
0.012238266 0.69800001 -0.053848371 1.3068299e-38 330 284
0.013462093 0.69800001 -0.053848371 1.3068299e-38 331 284
0.01468592 0.69800001 -0.053848371 1.3068652e-38 332 284
0.015909746 0.69800001 -0.053848371 1.2884261e-38 333 284
0.017182667 0.69999999 -0.054002665 1.3159403e-38 334 284
0.018409999 0.69999999 -0.054002665 1.3067208e-38 335 284
0.019637333 0.69999999 -0.054002665 1.3067208e-38 336 284
0.020864666 0.69999999 -0.054002665 1.2883177e-38 337 284
0.022091998 0.69999999 -0.054002665 1.2882823e-38 338 284
0.023319334 0.69999999 -0.054002665 1.2882823e-38 339 284
0.024581732 0.70099998 -0.054079808 1.2790991e-38 340 284
0.025810819 0.70099998 -0.054079808 1.2883186e-38 341 284
0.027039904 0.70099998 -0.054079808 1.2607325e-38 342 284
0.028349647 0.70300001 -0.054234106 1.2699521e-38 343 284
0.029582238 0.70300001 -0.054234106 1.2700243e-38 344 284
0.030814834 0.70300001 -0.054234106 1.2884634e-38 345 284
0.032093015 0.704 -0.054311249 1.2885353e-38 346 284
0.033422034 0.70599997 -0.054465543 1.297755e-38 347 284
0.034659892 0.70599997 -0.054465543 1.3070823e-38 348 284
0.035948593 0.70700002 -0.054542694 1.3255214e-38 349 284
0.0372408 0.708 -0.054619838 1.3165181e-38 350 284
0.038590867 0.70999998 -0.054774132 1.3442126e-38 351 284
0.039835732 0.70999998 -0.054774132 1.3535414e-38 352 284
0.041138459 0.71100003 -0.054851279 1.3812001e-38 353 284
0.042504307 0.713 -0.055005573 1.3721254e-38 354 284
0.043815799 0.71399999 -0.05508272 1.4366623e-38 355 284
0.045193922 0.71600002 -0.055237014 1.640072e-38 356 284
0.046643924 0.71899998 -0.055468451 1.9259143e-38 357 284
-0.027657079 0.71700001 -0.056571297 1.9631533e-38 298 285
-0.02639994 0.71700001 -0.056571297 1.4653329e-38 299 285
-0.0251428 0.71700001 -0.056571297 1.4641768e-38 300 285
-0.023852346 0.71600002 -0.056492399 1.4364821e-38 301 285
-0.022596961 0.71600002 -0.056492399 1.4455922e-38 302 285
-0.021341572 0.71600002 -0.056492399 1.3994944e-38 303 285
-0.020030079 0.71399999 -0.0563346 1.4085342e-38 304 285
-0.018778199 0.71399999 -0.0563346 1.3900949e-38 305 285
-0.01745268 0.71100003 -0.056097899 1.3900937e-38 306 285
-0.01620606 0.71100003 -0.056097899 1.3808741e-38 307 285
-0.014938398 0.70999998 -0.056018997 1.3991682e-38 308 285
-0.013654959 0.708 -0.055861197 1.3899486e-38 309 285
-0.012378532 0.70599997 -0.055703394 1.389984e-38 310 285
-0.011140679 0.70599997 -0.055703394 1.389984e-38 311 285
-0.0098747732 0.704 -0.055545598 1.3624332e-38 312 285
-0.0086404262 0.704 -0.055545598 1.3531776e-38 313 285
-0.0073955595 0.70300001 -0.0554667 1.3531779e-38 314 285
-0.0061629666 0.70300001 -0.0554667 1.3347387e-38 315 285
-0.0049303733 0.70300001 -0.0554667 1.3621829e-38 316 285
-0.0036977797 0.70300001 -0.0554667 1.3529275e-38 317 285
-0.0024581731 0.70099998 -0.055308893 1.3529277e-38 318 285
-0.0012290865 0.70099998 -0.055308893 1.3529277e-38 319 285
0 0.69999999 -0.055229999 1.325377e-38 320 285
0.0012273333 0.69999999 -0.055229999 1.325377e-38 321 285
0.0024546667 0.69999999 -0.055229999 1.31623e-38 322 285
0.0036714801 0.69800001 -0.0550722 1.3438527e-38 323 285
0.0048953067 0.69800001 -0.0550722 1.3254864e-38 324 285
0.006119133 0.69800001 -0.0550722 1.3347061e-38 325 285
0.0073429602 0.69800001 -0.0550722 1.3162666e-38 326 285
0.0085667865 0.69800001 -0.0550722 1.2978274e-38 327 285
0.0097906133 0.69800001 -0.0550722 1.2885357e-38 328 285
0.01101444 0.69800001 -0.0550722 1.279316e-38 329 285
0.012238266 0.69800001 -0.0550722 1.2884634e-38 330 285
0.013462093 0.69800001 -0.0550722 1.2884634e-38 331 285
0.01468592 0.69800001 -0.0550722 1.297646e-38 332 285
0.015909746 0.69800001 -0.0550722 1.2699874e-38 333 285
0.017182667 0.69999999 -0.055229999 1.3066855e-38 334 285
0.018409999 0.69999999 -0.055229999 1.3066855e-38 335 285
0.019637333 0.69999999 -0.055229999 1.2882821e-38 336 285
0.020864666 0.69999999 -0.055229999 1.2790624e-38 337 285
0.022091998 0.69999999 -0.055229999 1.2882821e-38 338 285
0.023352645 0.70099998 -0.055308893 1.2882821e-38 339 285
0.024581732 0.70099998 -0.055308893 1.2791347e-38 340 285
0.025810819 0.70099998 -0.055308893 1.2791347e-38 341 285
0.027039904 0.70099998 -0.055308893 1.2790991e-38 342 285
0.028389972 0.704 -0.055545598 1.2975741e-38 343 285
0.029582238 0.70300001 -0.0554667 1.279351e-38 344 285
0.030814834 0.70300001 -0.0554667 1.2885706e-38 345 285
0.032093015 0.704 -0.055545598 1.2794591e-38 346 285
0.033422034 0.70599997 -0.055703394 1.2978622e-38 347 285
0.034659892 0.70599997 -0.055703394 1.307082e-38 348 285
0.03599944 0.708 -0.055861197 1.3347407e-38 349 285
0.037345998 0.70999998 -0.056018997 1.3257382e-38 350 285
0.038590867 0.70999998 -0.056018997 1.353397e-38 351 285
0.039835732 0.70999998 -0.056018997 1.3444297e-38 352 285
0.041138459 0.71100003 -0.056097899 1.3628688e-38 353 285
0.042504307 0.713 -0.056255698 1.3536503e-38 354 285
0.043754432 0.713 -0.056255698 1.5472611e-38 355 285
0.045193922 0.71600002 -0.056492399 1.6955695e-38 356 285
0.046449307 0.71600002 -0.056492399 1.8983998e-38 357 285
-0.027657079 0.71700001 -0.057828441 2.0093243e-38 298 286
-0.02639994 0.71700001 -0.057828441 1.612883e-38 299 286
-0.0251428 0.71700001 -0.057828441 1.4921245e-38 300 286
-0.023852346 0.71600002 -0.057747785 1.3814537e-38 301 286
-0.022596961 0.71600002 -0.057747785 1.4457367e-38 302 286
-0.021341572 0.71600002 -0.057747785 1.3904554e-38 303 286
-0.020030079 0.71399999 -0.057586476 1.390168e-38 304 286
-0.018778199 0.71399999 -0.057586476 1.3809484e-38 305 286
-0.017501773 0.713 -0.057505824 1.3993149e-38 306 286
-0.01620606 0.71100003 -0.057344519 1.3808757e-38 307 286
-0.014938398 0.70999998 -0.057263866 1.3808741e-38 308 286
-0.013654959 0.708 -0.057102561 1.3716187e-38 309 286
-0.012378532 0.70599997 -0.056941248 1.3624697e-38 310 286
-0.011140679 0.70599997 -0.056941248 1.3624697e-38 311 286
-0.0098747732 0.704 -0.056779943 1.3441385e-38 312 286
-0.0086404262 0.704 -0.056779943 1.3441385e-38 313 286
-0.0074060797 0.704 -0.056779943 1.343923e-38 314 286
-0.0061629666 0.70300001 -0.056699295 1.3347034e-38 315 286
-0.0049303733 0.70300001 -0.056699295 1.3529628e-38 316 286
-0.0036977797 0.70300001 -0.056699295 1.3345597e-38 317 286
-0.0024581731 0.70099998 -0.056537982 1.3345597e-38 318 286
-0.0012290865 0.70099998 -0.056537982 1.3345597e-38 319 286
0 0.69999999 -0.056457333 1.3161924e-38 320 286
0.0012273333 0.69999999 -0.056457333 1.3161924e-38 321 286
0.0024546667 0.69999999 -0.056457333 1.325377e-38 322 286
0.0036714801 0.69800001 -0.056296028 1.3345965e-38 323 286
0.0048953067 0.69800001 -0.056296028 1.3070114e-38 324 286
0.006119133 0.69800001 -0.056296028 1.3162668e-38 325 286
0.0073429602 0.69800001 -0.056296028 1.2886449e-38 326 286
0.0085667865 0.69800001 -0.056296028 1.2702057e-38 327 286
0.0097906133 0.69800001 -0.056296028 1.2792804e-38 328 286
0.01101444 0.69800001 -0.056296028 1.2792804e-38 329 286
0.012238266 0.69800001 -0.056296028 1.2792794e-38 330 286
0.013462093 0.69800001 -0.056296028 1.270024e-38 331 286
0.01468592 0.69800001 -0.056296028 1.2883186e-38 332 286
0.015909746 0.69800001 -0.056296028 1.2790991e-38 333 286
0.017182667 0.69999999 -0.056457333 1.3065418e-38 334 286
0.018409999 0.69999999 -0.056457333 1.3249451e-38 335 286
0.019637333 0.69999999 -0.056457333 1.288247e-38 336 286
0.020864666 0.69999999 -0.056457333 1.3066501e-38 337 286
0.022091998 0.69999999 -0.056457333 1.288247e-38 338 286
0.023352645 0.70099998 -0.056537982 1.288247e-38 339 286
0.024581732 0.70099998 -0.056537982 1.2790991e-38 340 286
0.025810819 0.70099998 -0.056537982 1.2790991e-38 341 286
0.027039904 0.70099998 -0.056537982 1.2883189e-38 342 286
0.028389972 0.704 -0.056779943 1.306758e-38 343 286
0.029624319 0.704 -0.056779943 1.2885703e-38 344 286
0.030858666 0.704 -0.056779943 1.3070454e-38 345 286
0.032093015 0.704 -0.056779943 1.2978625e-38 346 286
0.033422034 0.70599997 -0.056941248 1.2978625e-38 347 286
0.034659892 0.70599997 -0.056941248 1.3163019e-38 348 286
0.036101133 0.70999998 -0.057263866 1.334741e-38 349 286
0.037345998 0.70999998 -0.057263866 1.3258454e-38 350 286
0.038590867 0.70999998 -0.057263866 1.3442845e-38 351 286
0.039835732 0.70999998 -0.057263866 1.3536493e-38 352 286
0.041138459 0.71100003 -0.057344519 1.3351743e-38 353 286
0.042504307 0.713 -0.057505824 1.3907816e-38 354 286
0.043754432 0.713 -0.057505824 1.676552e-38 355 286
0.045193922 0.71600002 -0.057747785 1.7417045e-38 356 286
-0.027657079 0.71700001 -0.059085581 1.9453278e-38 298 287
-0.02639994 0.71700001 -0.059085581 1.6410822e-38 299 287
-0.0251428 0.71700001 -0.059085581 1.6120154e-38 300 287
-0.023852346 0.71600002 -0.059003171 1.3723067e-38 301 287
-0.022596961 0.71600002 -0.059003171 1.4732862e-38 302 287
-0.021341572 0.71600002 -0.059003171 1.436408e-38 303 287
-0.020086186 0.71600002 -0.059003171 1.4270445e-38 304 287
-0.0188308 0.71600002 -0.059003171 1.4085695e-38 305 287
-0.017526319 0.71399999 -0.058838356 1.3993502e-38 306 287
-0.016251646 0.713 -0.058755953 1.3901305e-38 307 287
-0.014959441 0.71100003 -0.058591139 1.4175723e-38 308 287
-0.013693533 0.70999998 -0.058508728 1.3991332e-38 309 287
-0.012396066 0.70700002 -0.05826151 1.3716174e-38 310 287
-0.011140679 0.70599997 -0.058179103 1.3716174e-38 311 287
-0.0098747732 0.704 -0.058014292 1.3440666e-38 312 287
-0.0086404262 0.704 -0.058014292 1.3348111e-38 313 287
-0.0074060797 0.704 -0.058014292 1.3531063e-38 314 287
-0.0061717331 0.704 -0.058014292 1.3438508e-38 315 287
-0.0049303733 0.70300001 -0.057931885 1.3346313e-38 316 287
-0.0036977797 0.70300001 -0.057931885 1.3346313e-38 317 287
-0.0024581731 0.70099998 -0.057767071 1.3070808e-38 318 287
-0.0012290865 0.70099998 -0.057767071 1.3070808e-38 319 287
0 0.69999999 -0.05768466 1.3253764e-38 320 287
0.0012273333 0.69999999 -0.05768466 1.3161568e-38 321 287
0.0024546667 0.69999999 -0.05768466 1.3161218e-38 322 287
0.0036714801 0.69800001 -0.057519849 1.3345609e-38 323 287
0.0048953067 0.69800001 -0.057519849 1.2886802e-38 324 287
0.006119133 0.69800001 -0.057519849 1.2794606e-38 325 287
0.0073429602 0.69800001 -0.057519849 1.2794606e-38 326 287
0.0085667865 0.69800001 -0.057519849 1.2610215e-38 327 287
0.0097906133 0.69800001 -0.057519849 1.2793157e-38 328 287
0.01101444 0.69800001 -0.057519849 1.251693e-38 329 287
0.012238266 0.69800001 -0.057519849 1.2700243e-38 330 287
0.013462093 0.69800001 -0.057519849 1.2608047e-38 331 287
0.01468592 0.69800001 -0.057519849 1.2790994e-38 332 287
0.015909746 0.69800001 -0.057519849 1.2790994e-38 333 287
0.017182667 0.69999999 -0.05768466 1.2882823e-38 334 287
0.018409999 0.69999999 -0.05768466 1.3066855e-38 335 287
0.019637333 0.69999999 -0.05768466 1.3066857e-38 336 287
0.020864666 0.69999999 -0.05768466 1.3066857e-38 337 287
0.022123558 0.70099998 -0.057767071 1.2883186e-38 338 287
0.023352645 0.70099998 -0.057767071 1.2883186e-38 339 287
0.024581732 0.70099998 -0.057767071 1.2790991e-38 340 287
0.025884461 0.70300001 -0.057931885 1.2975741e-38 341 287
0.027117053 0.70300001 -0.057931885 1.297646e-38 342 287
0.028389972 0.704 -0.058014292 1.3068655e-38 343 287
0.029624319 0.704 -0.058014292 1.2885703e-38 344 287
0.030946331 0.70599997 -0.058179103 1.3070454e-38 345 287
0.032184184 0.70599997 -0.058179103 1.2978622e-38 346 287
0.033516716 0.708 -0.058343921 1.3070817e-38 347 287
0.034758076 0.708 -0.058343921 1.3255214e-38 348 287
0.036101133 0.70999998 -0.058508728 1.3623638e-38 349 287
0.037398599 0.71100003 -0.058591139 1.3350299e-38 350 287
0.038645219 0.71100003 -0.058591139 1.3626888e-38 351 287
0.039891839 0.71100003 -0.058591139 1.3629055e-38 352 287
0.041138459 0.71100003 -0.058591139 1.3721251e-38 353 287
0.042563915 0.71399999 -0.058838356 1.4645396e-38 354 287
0.043815799 0.71399999 -0.058838356 1.7595298e-38 355 287
-0.02639994 0.71700001 -0.060342718 1.7791606e-38 299 288
-0.0251428 0.71700001 -0.060342718 1.7136826e-38 300 288
-0.02388566 0.71700001 -0.060342718 1.326461e-38 301 288
-0.022596961 0.71600002 -0.06025856 1.4733584e-38 302 288
-0.021341572 0.71600002 -0.06025856 1.4549193e-38 303 288
-0.020086186 0.71600002 -0.06025856 1.4363009e-38 304 288
-0.0188308 0.71600002 -0.06025856 1.4178259e-38 305 288
-0.017526319 0.71399999 -0.060090236 1.3903105e-38 306 288
-0.016251646 0.713 -0.060006075 1.381055e-38 307 288
-0.014959441 0.71100003 -0.059837762 1.3993853e-38 308 288
-0.013693533 0.70999998 -0.059753593 1.362507e-38 309 288
-0.0124136 0.708 -0.059585281 1.3624344e-38 310 288
-0.011156459 0.70700002 -0.059501119 1.3624344e-38 311 288
-0.0099028256 0.70599997 -0.059416957 1.3623625e-38 312 288
-0.0086649731 0.70599997 -0.059416957 1.3623625e-38 313 288
-0.0074060797 0.704 -0.059248637 1.3530707e-38 314 288
-0.0061717331 0.704 -0.059248637 1.3438511e-38 315 288
-0.0049373866 0.704 -0.059248637 1.3346315e-38 316 288
-0.0037030398 0.704 -0.059248637 1.325412e-38 317 288
-0.0024581731 0.70099998 -0.058996156 1.3070454e-38 318 288
-0.0012290865 0.70099998 -0.058996156 1.2978259e-38 319 288
0 0.70099998 -0.058996156 1.3161571e-38 320 288
0.0012273333 0.69999999 -0.058911994 1.3161571e-38 321 288
0.0024546667 0.69999999 -0.058911994 1.3161218e-38 322 288
0.0036819996 0.69999999 -0.058911994 1.3161218e-38 323 288
0.0048953067 0.69800001 -0.058743682 1.2978274e-38 324 288
0.006119133 0.69800001 -0.058743682 1.2978274e-38 325 288
0.0073429602 0.69800001 -0.058743682 1.270241e-38 326 288
0.0085667865 0.69800001 -0.058743682 1.270241e-38 327 288
0.0097906133 0.69800001 -0.058743682 1.2609492e-38 328 288
0.01101444 0.69800001 -0.058743682 1.2517296e-38 329 288
0.012238266 0.69800001 -0.058743682 1.2883555e-38 330 288
0.013462093 0.69800001 -0.058743682 1.2699524e-38 331 288
0.01468592 0.69800001 -0.058743682 1.2883542e-38 332 288
0.015909746 0.69800001 -0.058743682 1.2883542e-38 333 288
0.017182667 0.69999999 -0.058911994 1.2976088e-38 334 288
0.018409999 0.69999999 -0.058911994 1.2976088e-38 335 288
0.019637333 0.69999999 -0.058911994 1.2884258e-38 336 288
0.020864666 0.69999999 -0.058911994 1.2884258e-38 337 288
0.022123558 0.70099998 -0.058996156 1.2884261e-38 338 288
0.023352645 0.70099998 -0.058996156 1.2976457e-38 339 288
0.024581732 0.70099998 -0.058996156 1.2701312e-38 340 288
0.025884461 0.70300001 -0.059164476 1.2793507e-38 341 288
0.027117053 0.70300001 -0.059164476 1.2884987e-38 342 288
0.028389972 0.704 -0.059248637 1.3161215e-38 343 288
0.029624319 0.704 -0.059248637 1.2978978e-38 344 288
0.030946331 0.70599997 -0.059416957 1.3071173e-38 345 288
0.032184184 0.70599997 -0.059416957 1.2978622e-38 346 288
0.033516716 0.708 -0.059585281 1.3163372e-38 347 288
0.034856264 0.70999998 -0.059753593 1.3255933e-38 348 288
0.036101133 0.70999998 -0.059753593 1.3440326e-38 349 288
0.037398599 0.71100003 -0.059837762 1.3442496e-38 350 288
0.038645219 0.71100003 -0.059837762 1.3903114e-38 351 288
0.039891839 0.71100003 -0.059837762 1.3814168e-38 352 288
0.041254178 0.713 -0.060006075 1.399856e-38 353 288
0.042504307 0.713 -0.060006075 1.501707e-38 354 288
-0.0251428 0.71700001 -0.061599858 1.75085e-38 300 289
-0.023952285 0.71899998 -0.061771683 1.3544088e-38 301 289
-0.02262852 0.71700001 -0.061599858 1.4733584e-38 302 289
-0.021371379 0.71700001 -0.061599858 1.4549193e-38 303 289
-0.020114239 0.71700001 -0.061599858 1.4547755e-38 304 289
-0.0188308 0.71600002 -0.061513945 1.4363004e-38 305 289
-0.017526319 0.71399999 -0.061342116 1.4087496e-38 306 289
-0.016251646 0.713 -0.061256204 1.3903105e-38 307 289
-0.014959441 0.71100003 -0.061084379 1.4085329e-38 308 289
-0.013693533 0.70999998 -0.060998458 1.3808741e-38 309 289
-0.0124136 0.708 -0.060826641 1.3808017e-38 310 289
-0.011156459 0.70700002 -0.060740728 1.3808017e-38 311 289
-0.0099028256 0.70599997 -0.060654808 1.3991682e-38 312 289
-0.0086649731 0.70599997 -0.060654808 1.3899486e-38 313 289
-0.0074271196 0.70599997 -0.060654808 1.3623258e-38 314 289
-0.0061717331 0.704 -0.060482983 1.3623258e-38 315 289
-0.0049373866 0.704 -0.060482983 1.3347037e-38 316 289
-0.0037030398 0.704 -0.060482983 1.3162647e-38 317 289
-0.0024581731 0.70099998 -0.060225245 1.2977903e-38 318 289
-0.0012290865 0.70099998 -0.060225245 1.2977903e-38 319 289
0 0.70099998 -0.060225245 1.2977903e-38 320 289
0.0012273333 0.69999999 -0.060139328 1.2977903e-38 321 289
0.0024546667 0.69999999 -0.060139328 1.297755e-38 322 289
0.0036819996 0.69999999 -0.060139328 1.3070104e-38 323 289
0.0048953067 0.69800001 -0.059967503 1.2977918e-38 324 289
0.006119133 0.69800001 -0.059967503 1.2977918e-38 325 289
0.0073429602 0.69800001 -0.059967503 1.2793887e-38 326 289
0.0085667865 0.69800001 -0.059967503 1.2701692e-38 327 289
0.0097906133 0.69800001 -0.059967503 1.2792804e-38 328 289
0.01101444 0.69800001 -0.059967503 1.2700608e-38 329 289
0.012238266 0.69800001 -0.059967503 1.2699527e-38 330 289
0.013462093 0.69800001 -0.059967503 1.2699527e-38 331 289
0.014727999 0.69999999 -0.060139328 1.2699877e-38 332 289
0.015955333 0.69999999 -0.060139328 1.2883908e-38 333 289
0.017182667 0.69999999 -0.060139328 1.2976454e-38 334 289
0.018409999 0.69999999 -0.060139328 1.306865e-38 335 289
0.019637333 0.69999999 -0.060139328 1.2793498e-38 336 289
0.020894472 0.70099998 -0.060225245 1.2793498e-38 337 289
0.022123558 0.70099998 -0.060225245 1.2885337e-38 338 289
0.023419274 0.70300001 -0.06039707 1.2977533e-38 339 289
0.024651866 0.70300001 -0.06039707 1.2885703e-38 340 289
0.025884461 0.70300001 -0.06039707 1.2885703e-38 341 289
0.027155625 0.704 -0.060482983 1.2885706e-38 342 289
0.028389972 0.704 -0.060482983 1.3070099e-38 343 289
0.029708479 0.70599997 -0.060654808 1.3162653e-38 344 289
0.030990168 0.70700002 -0.060740728 1.3162653e-38 345 289
0.03227536 0.708 -0.060826641 1.3162297e-38 346 289
0.033516716 0.708 -0.060826641 1.3438882e-38 347 289
0.034856264 0.70999998 -0.060998458 1.3164821e-38 348 289
0.036101133 0.70999998 -0.060998458 1.3533243e-38 349 289
0.037398599 0.71100003 -0.061084379 1.3351027e-38 350 289
0.038645219 0.71100003 -0.061084379 1.39042e-38 351 289
0.039891839 0.71100003 -0.061084379 1.3905661e-38 352 289
0.041254178 0.713 -0.061256204 1.5288595e-38 353 289
0.042504307 0.713 -0.061256204 1.511108e-38 354 289
-0.023952285 0.71899998 -0.063032329 1.4009041e-38 301 290
-0.02262852 0.71700001 -0.062856995 1.4643932e-38 302 290
-0.021371379 0.71700001 -0.062856995 1.4274791e-38 303 290
-0.020114239 0.71700001 -0.062856995 1.4640317e-38 304 290
-0.0188308 0.71600002 -0.062769331 1.4455925e-38 305 290
-0.017575413 0.71600002 -0.062769331 1.4087499e-38 306 290
-0.016274439 0.71399999 -0.062593997 1.3994944e-38 307 290
-0.015001519 0.713 -0.062506333 1.4269363e-38 308 290
-0.01371282 0.71100003 -0.062331002 1.3900581e-38 309 290
-0.012448666 0.70999998 -0.062243331 1.4083881e-38 310 290
-0.01117224 0.708 -0.062068 1.4083881e-38 311 290
-0.0099308798 0.708 -0.062068 1.3991682e-38 312 290
-0.008677247 0.70700002 -0.061980337 1.3991682e-38 313 290
-0.0074271196 0.70599997 -0.061892662 1.3716177e-38 314 290
-0.0061717331 0.704 -0.061717331 1.3531426e-38 315 290
-0.0049373866 0.704 -0.061717331 1.3438514e-38 316 290
-0.0037030398 0.704 -0.061717331 1.3346318e-38 317 290
-0.0024651866 0.70300001 -0.061629668 1.2978622e-38 318 290
-0.0012290865 0.70099998 -0.06145433 1.2978622e-38 319 290
0 0.70099998 -0.06145433 1.2977903e-38 320 290
0.0012273333 0.69999999 -0.061366666 1.2977903e-38 321 290
0.0024546667 0.69999999 -0.061366666 1.2702761e-38 322 290
0.0036819996 0.69999999 -0.061366666 1.2702761e-38 323 290
0.0049093333 0.69999999 -0.061366666 1.2794606e-38 324 290
0.0061366665 0.69999999 -0.061366666 1.2610215e-38 325 290
0.0073639993 0.69999999 -0.061366666 1.2701694e-38 326 290
0.0085913334 0.69999999 -0.061366666 1.2609139e-38 327 290
0.0098186666 0.69999999 -0.061366666 1.2792088e-38 328 290
0.011045999 0.69999999 -0.061366666 1.2792088e-38 329 290
0.012273333 0.69999999 -0.061366666 1.2883555e-38 330 290
0.013500666 0.69999999 -0.061366666 1.2883555e-38 331 290
0.014727999 0.69999999 -0.061366666 1.2792794e-38 332 290
0.015955333 0.69999999 -0.061366666 1.288499e-38 333 290
0.017182667 0.69999999 -0.061366666 1.2977539e-38 334 290
0.018436298 0.70099998 -0.06145433 1.2977539e-38 335 290
0.019665385 0.70099998 -0.06145433 1.2886059e-38 336 290
0.020894472 0.70099998 -0.06145433 1.2886059e-38 337 290
0.02218668 0.70300001 -0.061629668 1.2886059e-38 338 290
0.023419274 0.70300001 -0.061629668 1.2978256e-38 339 290
0.024686933 0.704 -0.061717331 1.3070099e-38 340 290
0.02592128 0.704 -0.061717331 1.3070099e-38 341 290
0.027155625 0.704 -0.061717331 1.3070101e-38 342 290
0.028470624 0.70599997 -0.061892662 1.3162297e-38 343 290
0.029708479 0.70599997 -0.061892662 1.3163016e-38 344 290
0.031034 0.708 -0.062068 1.3163016e-38 345 290
0.03227536 0.708 -0.062068 1.3163382e-38 346 290
0.033611398 0.70999998 -0.062243331 1.3255936e-38 347 290
0.034856264 0.70999998 -0.062243331 1.307407e-38 348 290
0.036151983 0.71100003 -0.062331002 1.3350297e-38 349 290
0.037398599 0.71100003 -0.062331002 1.3443941e-38 350 290
0.038753927 0.713 -0.062506333 1.3904919e-38 351 290
0.040004052 0.713 -0.062506333 1.3814914e-38 352 290
0.041254178 0.713 -0.062506333 1.5381879e-38 353 290
-0.02262852 0.71700001 -0.064114138 1.5199273e-38 302 291
-0.021371379 0.71700001 -0.064114138 1.4185122e-38 303 291
-0.020114239 0.71700001 -0.064114138 1.5008743e-38 304 291
-0.018857099 0.71700001 -0.064114138 1.4547765e-38 305 291
-0.017575413 0.71600002 -0.064024724 1.3996746e-38 306 291
-0.016274439 0.71399999 -0.063845873 1.3812354e-38 307 291
-0.015001519 0.713 -0.063756458 1.3902383e-38 308 291
-0.01371282 0.71100003 -0.063577622 1.3810187e-38 309 291
-0.0124662 0.71100003 -0.063577622 1.4084602e-38 310 291
-0.011203799 0.70999998 -0.063488193 1.4084602e-38 311 291
-0.0099308798 0.708 -0.063309364 1.3992404e-38 312 291
-0.008689519 0.708 -0.063309364 1.3808373e-38 313 291
-0.0074376399 0.70700002 -0.063219935 1.3624344e-38 314 291
-0.0061892662 0.70599997 -0.063130513 1.3440313e-38 315 291
-0.0049514128 0.70599997 -0.063130513 1.3256283e-38 316 291
-0.0037030398 0.704 -0.062951677 1.2980057e-38 317 291
-0.0024651866 0.70300001 -0.062862262 1.2887861e-38 318 291
-0.0012325933 0.70300001 -0.062862262 1.2795307e-38 319 291
0 0.70099998 -0.062683418 1.2795307e-38 320 291
0.0012290865 0.70099998 -0.062683418 1.2703111e-38 321 291
0.0024581731 0.70099998 -0.062683418 1.2794591e-38 322 291
0.0036819996 0.69999999 -0.062593997 1.2794591e-38 323 291
0.0049093333 0.69999999 -0.062593997 1.2795312e-38 324 291
0.0061366665 0.69999999 -0.062593997 1.2702758e-38 325 291
0.0073639993 0.69999999 -0.062593997 1.2792804e-38 326 291
0.0085913334 0.69999999 -0.062593997 1.2792804e-38 327 291
0.0098186666 0.69999999 -0.062593997 1.2792085e-38 328 291
0.011045999 0.69999999 -0.062593997 1.288464e-38 329 291
0.012273333 0.69999999 -0.062593997 1.2792794e-38 330 291
0.013500666 0.69999999 -0.062593997 1.288499e-38 331 291
0.014727999 0.69999999 -0.062593997 1.2885706e-38 332 291
0.015955333 0.69999999 -0.062593997 1.2977903e-38 333 291
0.017207211 0.70099998 -0.062683418 1.2794593e-38 334 291
0.018488899 0.70300001 -0.062862262 1.2978625e-38 335 291
0.019721493 0.70300001 -0.062862262 1.2795312e-38 336 291
0.020954086 0.70300001 -0.062862262 1.2795312e-38 337 291
0.022218239 0.704 -0.062951677 1.3070099e-38 338 291
0.023452586 0.704 -0.062951677 1.3162653e-38 339 291
0.024757065 0.70599997 -0.063130513 1.3162653e-38 340 291
0.025994917 0.70599997 -0.063130513 1.3162653e-38 341 291
0.027232772 0.70599997 -0.063130513 1.2887508e-38 342 291
0.028470624 0.70599997 -0.063130513 1.2887508e-38 343 291
0.029750559 0.70700002 -0.063219935 1.3162663e-38 344 291
0.031121666 0.70999998 -0.063488193 1.3255217e-38 345 291
0.032366529 0.70999998 -0.063488193 1.3072272e-38 346 291
0.033611398 0.70999998 -0.063488193 1.3164468e-38 347 291
0.034856264 0.70999998 -0.063488193 1.3074433e-38 348 291
0.036151983 0.71100003 -0.063577622 1.335138e-38 349 291
0.037503798 0.713 -0.063756458 1.3261351e-38 350 291
0.038753927 0.713 -0.063756458 1.3629774e-38 351 291
0.040004052 0.713 -0.063756458 1.2989838e-38 352 291
-0.021371379 0.71700001 -0.065371275 1.4280204e-38 303 292
-0.020114239 0.71700001 -0.065371275 1.4919777e-38 304 292
-0.018857099 0.71700001 -0.065371275 1.4458439e-38 305 292
-0.017575413 0.71600002 -0.06528011 1.4365512e-38 306 292
-0.016320027 0.71600002 -0.06528011 1.4180762e-38 307 292
-0.015022559 0.71399999 -0.065097757 1.4179316e-38 308 292
-0.013751393 0.713 -0.065006584 1.408712e-38 309 292
-0.0124662 0.71100003 -0.064824238 1.4269701e-38 310 292
-0.01121958 0.71100003 -0.064824238 1.408495e-38 311 292
-0.0099589331 0.70999998 -0.064733058 1.4084234e-38 312 292
-0.0087140659 0.70999998 -0.064733058 1.3992038e-38 313 292
-0.0074481601 0.708 -0.06455072 1.3716896e-38 314 292
-0.0061892662 0.70599997 -0.064368367 1.344031e-38 315 292
-0.0049514128 0.70599997 -0.064368367 1.344031e-38 316 292
-0.0037135598 0.70599997 -0.064368367 1.3255918e-38 317 292
-0.0024686933 0.704 -0.064186029 1.3256271e-38 318 292
-0.0012343467 0.704 -0.064186029 1.3164075e-38 319 292
0 0.70300001 -0.064094849 1.2888209e-38 320 292
0.0012325933 0.70300001 -0.064094849 1.2888209e-38 321 292
0.0024581731 0.70099998 -0.063912503 1.3161919e-38 322 292
0.0036872597 0.70099998 -0.063912503 1.3254473e-38 323 292
0.0049093333 0.69999999 -0.063821331 1.2979328e-38 324 292
0.0061366665 0.69999999 -0.063821331 1.2979328e-38 325 292
0.0073639993 0.69999999 -0.063821331 1.2978259e-38 326 292
0.0085913334 0.69999999 -0.063821331 1.2793507e-38 327 292
0.0098186666 0.69999999 -0.063821331 1.2884634e-38 328 292
0.011045999 0.69999999 -0.063821331 1.297683e-38 329 292
0.012273333 0.69999999 -0.063821331 1.2977183e-38 330 292
0.013519952 0.70099998 -0.063912503 1.3161215e-38 331 292
0.014749039 0.70099998 -0.063912503 1.3070454e-38 332 292
0.016023712 0.70300001 -0.064094849 1.3070454e-38 333 292
0.017256306 0.70300001 -0.064094849 1.3070817e-38 334 292
0.018515198 0.704 -0.064186029 1.3070817e-38 335 292
0.019749546 0.704 -0.064186029 1.307082e-38 336 292
0.020983893 0.704 -0.064186029 1.307082e-38 337 292
0.022281358 0.70599997 -0.064368367 1.3162653e-38 338 292
0.023519212 0.70599997 -0.064368367 1.3346684e-38 339 292
0.024757065 0.70599997 -0.064368367 1.3346684e-38 340 292
0.02603174 0.70700002 -0.064459547 1.3162653e-38 341 292
0.027271347 0.70700002 -0.064459547 1.3162653e-38 342 292
0.02855128 0.708 -0.06455072 1.3162653e-38 343 292
0.029876797 0.70999998 -0.064733058 1.3163382e-38 344 292
0.031121666 0.70999998 -0.064733058 1.3255936e-38 345 292
0.032366529 0.70999998 -0.064733058 1.3164831e-38 346 292
0.033611398 0.70999998 -0.064733058 1.3257026e-38 347 292
0.034905359 0.71100003 -0.064824238 1.2983683e-38 348 292
0.036151983 0.71100003 -0.064824238 1.3168433e-38 349 292
0.037556399 0.71399999 -0.065097757 1.2985867e-38 350 292
0.038808275 0.71399999 -0.065097757 1.3078421e-38 351 292
-0.020114239 0.71700001 -0.066628419 1.4920889e-38 304 293
-0.018857099 0.71700001 -0.066628419 1.4183324e-38 305 293
-0.017599959 0.71700001 -0.066628419 1.4550286e-38 306 293
-0.016320027 0.71600002 -0.066535495 1.3997112e-38 307 293
-0.01506464 0.71600002 -0.066535495 1.4088212e-38 308 293
-0.01377068 0.71399999 -0.066349633 1.3903821e-38 309 293
-0.0124662 0.71100003 -0.066070862 1.4086401e-38 310 293
-0.01121958 0.71100003 -0.066070862 1.3994206e-38 311 293
-0.0099729598 0.71100003 -0.066070862 1.4084599e-38 312 293
-0.0087140659 0.70999998 -0.065977924 1.3992404e-38 313 293
-0.0074691991 0.70999998 -0.065977924 1.3808738e-38 314 293
-0.0062067998 0.708 -0.065792084 1.3716543e-38 315 293
-0.0049584266 0.70700002 -0.065699153 1.3716543e-38 316 293
-0.0037188199 0.70700002 -0.065699153 1.3624347e-38 317 293
-0.0024757064 0.70599997 -0.065606222 1.3074045e-38 318 293
-0.0012343467 0.704 -0.065420374 1.2889653e-38 319 293
0 0.704 -0.065420374 1.2798177e-38 320 293
0.0012343467 0.704 -0.065420374 1.2705981e-38 321 293
0.0024651866 0.70300001 -0.065327443 1.298041e-38 322 293
0.0036872597 0.70099998 -0.065141588 1.298041e-38 323 293
0.0049163462 0.70099998 -0.065141588 1.298041e-38 324 293
0.0061366665 0.69999999 -0.065048665 1.2887855e-38 325 293
0.0073639993 0.69999999 -0.065048665 1.3071171e-38 326 293
0.0085913334 0.69999999 -0.065048665 1.2978975e-38 327 293
0.0098186666 0.69999999 -0.065048665 1.2978978e-38 328 293
0.011045999 0.69999999 -0.065048665 1.2978978e-38 329 293
0.012290866 0.70099998 -0.065141588 1.2887505e-38 330 293
0.013519952 0.70099998 -0.065141588 1.279531e-38 331 293
0.014791119 0.70300001 -0.065327443 1.3071173e-38 332 293
0.016046507 0.704 -0.065420374 1.3163369e-38 333 293
0.017280852 0.704 -0.065420374 1.3163372e-38 334 293
0.018567799 0.70599997 -0.065606222 1.3255567e-38 335 293
0.019805651 0.70599997 -0.065606222 1.3163016e-38 336 293
0.021043506 0.70599997 -0.065606222 1.3255211e-38 337 293
0.022281358 0.70599997 -0.065606222 1.325593e-38 338 293
0.023519212 0.70599997 -0.065606222 1.3163735e-38 339 293
0.024792133 0.70700002 -0.065699153 1.2980057e-38 340 293
0.026142199 0.70999998 -0.065977924 1.2980057e-38 341 293
0.027387066 0.70999998 -0.065977924 1.316265e-38 342 293
0.028631933 0.70999998 -0.065977924 1.3346681e-38 343 293
0.029876797 0.70999998 -0.065977924 1.3163019e-38 344 293
0.031165501 0.71100003 -0.066070862 1.334741e-38 345 293
0.032412119 0.71100003 -0.066070862 1.3072991e-38 346 293
0.033658739 0.71100003 -0.066070862 1.3349578e-38 347 293
0.034905359 0.71100003 -0.066070862 1.3167354e-38 348 293
0.036253672 0.713 -0.066256717 1.325955e-38 349 293
0.037556399 0.71399999 -0.066349633 1.2800039e-38 350 293
-0.018857099 0.71700001 -0.067885563 1.3817428e-38 305 294
-0.017599959 0.71700001 -0.067885563 1.4825781e-38 306 294
-0.016320027 0.71600002 -0.067790881 1.4549193e-38 307 294
-0.01506464 0.71600002 -0.067790881 1.4548459e-38 308 294
-0.01377068 0.71399999 -0.067601517 1.4179316e-38 309 294
-0.0124662 0.71100003 -0.067317478 1.436119e-38 310 294
-0.01121958 0.71100003 -0.067317478 1.4176798e-38 311 294
-0.0099729598 0.71100003 -0.067317478 1.3900931e-38 312 294
-0.0087263398 0.71100003 -0.067317478 1.3900931e-38 313 294
-0.0074691991 0.70999998 -0.067222796 1.3992051e-38 314 294
-0.0062243328 0.70999998 -0.067222796 1.3992051e-38 315 294
-0.0049654399 0.708 -0.067033432 1.3992407e-38 316 294
-0.00372408 0.708 -0.067033432 1.3715821e-38 317 294
-0.0024792133 0.70700002 -0.066938758 1.3624695e-38 318 294
-0.0012378532 0.70599997 -0.066844068 1.3440664e-38 319 294
0 0.70599997 -0.066844068 1.325699e-38 320 294
0.0012343467 0.704 -0.066654719 1.3164435e-38 321 294
0.0024686933 0.704 -0.066654719 1.3255915e-38 322 294
0.0037030398 0.704 -0.066654719 1.3163719e-38 323 294
0.0049373866 0.704 -0.066654719 1.3347034e-38 324 294
0.0061629666 0.70300001 -0.066560037 1.3347034e-38 325 294
0.0073955595 0.70300001 -0.066560037 1.3162647e-38 326 294
0.0086281532 0.70300001 -0.066560037 1.3162647e-38 327 294
0.0098607466 0.70300001 -0.066560037 1.3071526e-38 328 294
0.01109334 0.70300001 -0.066560037 1.3071526e-38 329 294
0.012343466 0.704 -0.066654719 1.2887855e-38 330 294
0.013577812 0.704 -0.066654719 1.298041e-38 331 294
0.014812159 0.704 -0.066654719 1.3163722e-38 332 294
0.016046507 0.704 -0.066654719 1.3163722e-38 333 294
0.017329946 0.70599997 -0.066844068 1.343923e-38 334 294
0.018567799 0.70599997 -0.066844068 1.343923e-38 335 294
0.019805651 0.70599997 -0.066844068 1.3164085e-38 336 294
0.021073313 0.70700002 -0.066938758 1.3256281e-38 337 294
0.022312919 0.70700002 -0.066938758 1.3256637e-38 338 294
0.023552528 0.70700002 -0.066938758 1.3256637e-38 339 294
0.024827199 0.708 -0.067033432 1.3164441e-38 340 294
0.026142199 0.70999998 -0.067222796 1.3164441e-38 341 294
0.027387066 0.70999998 -0.067222796 1.3163372e-38 342 294
0.028631933 0.70999998 -0.067222796 1.3255567e-38 343 294
0.029918881 0.71100003 -0.067317478 1.3072621e-38 344 294
0.031165501 0.71100003 -0.067317478 1.3164818e-38 345 294
0.032412119 0.71100003 -0.067317478 1.3165186e-38 346 294
0.033658739 0.71100003 -0.067317478 1.3257382e-38 347 294
0.034905359 0.71100003 -0.067317478 1.2706392e-38 348 294
0.036253672 0.713 -0.067506835 1.2706392e-38 349 294
-0.017599959 0.71700001 -0.069142699 1.4552105e-38 306 295
-0.016320027 0.71600002 -0.069046266 1.3998932e-38 307 295
-0.01506464 0.71600002 -0.069046266 1.4365528e-38 308 295
-0.01377068 0.71399999 -0.068853401 1.3904549e-38 309 295
-0.012501267 0.713 -0.068756968 1.4177896e-38 310 295
-0.011251139 0.713 -0.068756968 1.3993146e-38 311 295
-0.0099729598 0.71100003 -0.068564095 1.3901303e-38 312 295
-0.0087263398 0.71100003 -0.068564095 1.39935e-38 313 295
-0.0074797203 0.71100003 -0.068564095 1.3901656e-38 314 295
-0.0062243328 0.70999998 -0.068467662 1.380946e-38 315 295
-0.0049794666 0.70999998 -0.068467662 1.3808385e-38 316 295
-0.0037345996 0.70999998 -0.068467662 1.371619e-38 317 295
-0.00248272 0.708 -0.068274796 1.3532875e-38 318 295
-0.0012396066 0.70700002 -0.068178371 1.3440679e-38 319 295
0 0.70599997 -0.06808193 1.3440676e-38 320 295
0.0012378532 0.70599997 -0.06808193 1.3348481e-38 321 295
0.0024686933 0.704 -0.067889065 1.3348483e-38 322 295
0.0037030398 0.704 -0.067889065 1.3256286e-38 323 295
0.0049373866 0.704 -0.067889065 1.3255211e-38 324 295
0.0061629666 0.70300001 -0.067792632 1.3255211e-38 325 295
0.0073955595 0.70300001 -0.067792632 1.3164091e-38 326 295
0.0086281532 0.70300001 -0.067792632 1.3164091e-38 327 295
0.0098607466 0.70300001 -0.067792632 1.2980057e-38 328 295
0.011109119 0.704 -0.067889065 1.3164088e-38 329 295
0.012343466 0.704 -0.067889065 1.2980776e-38 330 295
0.013577812 0.704 -0.067889065 1.3072971e-38 331 295
0.014812159 0.704 -0.067889065 1.3256286e-38 332 295
0.016092092 0.70599997 -0.06808193 1.3256286e-38 333 295
0.017329946 0.70599997 -0.06808193 1.3256286e-38 334 295
0.018567799 0.70599997 -0.06808193 1.3348483e-38 335 295
0.019833706 0.70700002 -0.068178371 1.3165168e-38 336 295
0.021073313 0.70700002 -0.068178371 1.3165168e-38 337 295
0.022312919 0.70700002 -0.068178371 1.334776e-38 338 295
0.023552528 0.70700002 -0.068178371 1.334776e-38 339 295
0.024827199 0.708 -0.068274796 1.325593e-38 340 295
0.026142199 0.70999998 -0.068467662 1.325593e-38 341 295
0.027387066 0.70999998 -0.068467662 1.3163019e-38 342 295
0.028631933 0.70999998 -0.068467662 1.334741e-38 343 295
0.029876797 0.70999998 -0.068467662 1.3072265e-38 344 295
0.031165501 0.71100003 -0.068564095 1.3072265e-38 345 295
0.032412119 0.71100003 -0.068564095 1.2888604e-38 346 295
0.033658739 0.71100003 -0.068564095 1.2888604e-38 347 295
0.034905359 0.71100003 -0.068564095 1.2154304e-38 348 295
-0.016320027 0.71600002 -0.070301652 1.3357544e-38 307 296
-0.01506464 0.71600002 -0.070301652 1.3997481e-38 308 296
-0.01377068 0.71399999 -0.070105277 1.3721254e-38 309 296
-0.012501267 0.713 -0.070007093 1.4178259e-38 310 296
-0.011251139 0.713 -0.070007093 1.4086064e-38 311 296
-0.010001013 0.713 -0.070007093 1.39935e-38 312 296
-0.0087263398 0.71100003 -0.069810718 1.4085695e-38 313 296
-0.0074797203 0.71100003 -0.069810718 1.3993853e-38 314 296
-0.0062330998 0.71100003 -0.069810718 1.3901656e-38 315 296
-0.0049794666 0.70999998 -0.069712527 1.3809104e-38 316 296
-0.0037345996 0.70999998 -0.069712527 1.3625073e-38 317 296
-0.00248272 0.708 -0.069516152 1.3533596e-38 318 296
-0.0012396066 0.70700002 -0.069417976 1.3441401e-38 319 296
0 0.70700002 -0.069417976 1.3440676e-38 320 296
0.0012378532 0.70599997 -0.069319785 1.3440676e-38 321 296
0.0024757064 0.70599997 -0.069319785 1.3440676e-38 322 296
0.0037030398 0.704 -0.06912341 1.3440676e-38 323 296
0.0049373866 0.704 -0.06912341 1.3348481e-38 324 296
0.0061717331 0.704 -0.06912341 1.3348481e-38 325 296
0.0074060797 0.704 -0.06912341 1.2980776e-38 326 296
0.0086404262 0.704 -0.06912341 1.3072971e-38 327 296
0.0098747732 0.704 -0.06912341 1.3164088e-38 328 296
0.011109119 0.704 -0.06912341 1.3164088e-38 329 296
0.012343466 0.704 -0.06912341 1.3256283e-38 330 296
0.013577812 0.704 -0.06912341 1.3348481e-38 331 296
0.014854239 0.70599997 -0.069319785 1.343996e-38 332 296
0.016092092 0.70599997 -0.069319785 1.343996e-38 333 296
0.017329946 0.70599997 -0.069319785 1.3623991e-38 334 296
0.018594101 0.70700002 -0.069417976 1.343996e-38 335 296
0.019833706 0.70700002 -0.069417976 1.3348481e-38 336 296
0.021073313 0.70700002 -0.069417976 1.3256283e-38 337 296
0.022312919 0.70700002 -0.069417976 1.3255211e-38 338 296
0.023552528 0.70700002 -0.069417976 1.3347407e-38 339 296
0.024827199 0.708 -0.069516152 1.3255217e-38 340 296
0.026142199 0.70999998 -0.069712527 1.3162663e-38 341 296
0.027387066 0.70999998 -0.069712527 1.3162663e-38 342 296
0.028631933 0.70999998 -0.069712527 1.3162663e-38 343 296
0.029876797 0.70999998 -0.069712527 1.2887521e-38 344 296
0.031121666 0.70999998 -0.069712527 1.2795325e-38 345 296
0.032366529 0.70999998 -0.069712527 1.1876988e-38 346 296
0.033658739 0.71100003 -0.069810718 1.2061019e-38 347 296
-0.01506464 0.71600002 -0.071557038 1.3447559e-38 308 297
-0.01377068 0.71399999 -0.071357153 1.3262809e-38 309 297
-0.012501267 0.713 -0.071257219 1.3995669e-38 310 297
-0.011251139 0.713 -0.071257219 1.3903114e-38 311 297
-0.010001013 0.713 -0.071257219 1.390203e-38 312 297
-0.0087508867 0.713 -0.071257219 1.3809834e-38 313 297
-0.0074797203 0.71100003 -0.071057342 1.3810187e-38 314 297
-0.0062330998 0.71100003 -0.071057342 1.371799e-38 315 297
-0.0049794666 0.70999998 -0.070957392 1.3900581e-38 316 297
-0.0037345996 0.70999998 -0.070957392 1.3900581e-38 317 297
-0.0024897333 0.70999998 -0.070957392 1.353324e-38 318 297
-0.00124136 0.708 -0.070757516 1.353324e-38 319 297
0 0.708 -0.070757516 1.362507e-38 320 297
0.0012378532 0.70599997 -0.070557632 1.3532875e-38 321 297
0.0024757064 0.70599997 -0.070557632 1.353323e-38 322 297
0.0037135598 0.70599997 -0.070557632 1.3440676e-38 323 297
0.0049514128 0.70599997 -0.070557632 1.3348481e-38 324 297
0.0061717331 0.704 -0.070357755 1.3348481e-38 325 297
0.0074060797 0.704 -0.070357755 1.3256283e-38 326 297
0.0086404262 0.704 -0.070357755 1.3256283e-38 327 297
0.0098747732 0.704 -0.070357755 1.3256283e-38 328 297
0.011140679 0.70599997 -0.070557632 1.3348481e-38 329 297
0.012378532 0.70599997 -0.070557632 1.3256286e-38 330 297
0.013616386 0.70599997 -0.070557632 1.3348483e-38 331 297
0.01487528 0.70700002 -0.070657574 1.3439607e-38 332 297
0.016114887 0.70700002 -0.070657574 1.3439607e-38 333 297
0.017354494 0.70700002 -0.070657574 1.3164818e-38 334 297
0.0186204 0.708 -0.070757516 1.3164818e-38 335 297
0.01986176 0.708 -0.070757516 1.334813e-38 336 297
0.021103119 0.708 -0.070757516 1.3163738e-38 337 297
0.022344479 0.708 -0.070757516 1.3163382e-38 338 297
0.023585839 0.708 -0.070757516 1.3163382e-38 339 297
0.024827199 0.708 -0.070757516 1.3163387e-38 340 297
0.026068559 0.708 -0.070757516 1.2886802e-38 341 297
0.027309919 0.708 -0.070757516 1.2794606e-38 342 297
0.02855128 0.708 -0.070757516 1.2794606e-38 343 297
0.02979264 0.708 -0.070757516 1.2059935e-38 344 297
0.031034 0.708 -0.070757516 1.1875542e-38 345 297
0.032366529 0.70999998 -0.070957392 1.0865375e-38 346 297
-0.01377068 0.71399999 -0.072609037 1.3080584e-38 309 298
-0.012518799 0.71399999 -0.072609037 1.3721254e-38 310 298
-0.011266919 0.71399999 -0.072609037 1.3536503e-38 311 298
-0.01001504 0.71399999 -0.072609037 1.4085711e-38 312 298
-0.0087508867 0.713 -0.072507344 1.390168e-38 313 298
-0.0075007593 0.713 -0.072507344 1.3993146e-38 314 298
-0.0062330998 0.71100003 -0.072303966 1.3900949e-38 315 298
-0.0049864799 0.71100003 -0.072303966 1.3901303e-38 316 298
-0.0037345996 0.70999998 -0.072202265 1.3901303e-38 317 298
-0.0024897333 0.70999998 -0.072202265 1.3625792e-38 318 298
-0.0012448666 0.70999998 -0.072202265 1.3625792e-38 319 298
0 0.708 -0.071998879 1.3625792e-38 320 298
0.0012396066 0.70700002 -0.071897186 1.3533596e-38 321 298
0.0024792133 0.70700002 -0.071897186 1.3441401e-38 322 298
0.0037188199 0.70700002 -0.071897186 1.3257011e-38 323 298
0.0049514128 0.70599997 -0.071795486 1.3440682e-38 324 298
0.0061892662 0.70599997 -0.071795486 1.3348127e-38 325 298
0.0074271196 0.70599997 -0.071795486 1.3348483e-38 326 298
0.0086649731 0.70599997 -0.071795486 1.3348483e-38 327 298
0.0099028256 0.70599997 -0.071795486 1.3348483e-38 328 298
0.011140679 0.70599997 -0.071795486 1.3348483e-38 329 298
0.012396066 0.70700002 -0.071897186 1.3256286e-38 330 298
0.013635674 0.70700002 -0.071897186 1.3256286e-38 331 298
0.01487528 0.70700002 -0.071897186 1.3531075e-38 332 298
0.01613768 0.708 -0.071998879 1.3531075e-38 333 298
0.017379038 0.708 -0.071998879 1.3255567e-38 334 298
0.0186204 0.708 -0.071998879 1.3255567e-38 335 298
0.019917866 0.70999998 -0.072202265 1.3438882e-38 336 298
0.021162732 0.70999998 -0.072202265 1.3162297e-38 337 298
0.022407599 0.70999998 -0.072202265 1.3161944e-38 338 298
0.023652466 0.70999998 -0.072202265 1.3346334e-38 339 298
0.024827199 0.708 -0.071998879 1.2794609e-38 340 298
0.026068559 0.708 -0.071998879 1.2702413e-38 341 298
0.027309919 0.708 -0.071998879 1.2426199e-38 342 298
0.02855128 0.708 -0.071998879 1.2333643e-38 343 298
0.029750559 0.70700002 -0.071897186 1.1690091e-38 344 298
0.030990168 0.70700002 -0.071897186 1.1597896e-38 345 298
-0.011266919 0.71399999 -0.073860914 1.2710345e-38 311 299
-0.010001013 0.713 -0.07375747 1.3351392e-38 312 299
-0.0087508867 0.713 -0.07375747 1.3167001e-38 313 299
-0.0074797203 0.71100003 -0.073550582 1.3442496e-38 314 299
-0.0062330998 0.71100003 -0.073550582 1.3534692e-38 315 299
-0.0049864799 0.71100003 -0.073550582 1.3717634e-38 316 299
-0.0037345996 0.70999998 -0.073447131 1.3625439e-38 317 299
-0.0024897333 0.70999998 -0.073447131 1.3625795e-38 318 299
-0.0012448666 0.70999998 -0.073447131 1.3625795e-38 319 299
0 0.70999998 -0.073447131 1.3625789e-38 320 299
0.00124136 0.708 -0.073240235 1.3625789e-38 321 299
0.00248272 0.708 -0.073240235 1.3532877e-38 322 299
0.00372408 0.708 -0.073240235 1.3532877e-38 323 299
0.0049584266 0.70700002 -0.073136792 1.3623994e-38 324 299
0.0061980332 0.70700002 -0.073136792 1.3623994e-38 325 299
