# .PCD v.7 - Point Cloud Data file format
FIELDS x y z rgb imX imY
SIZE 4 4 4 4 4 4
TYPE F F F F F F
COUNT 1 1 1 1 1 1
WIDTH 825
HEIGHT 1
VIEWPOINT 0 0 0 1 0 0 0
POINTS 825
DATA ascii
-0.0119928 0.68400002 -0.01319208 1.3621069e-38 310 251
-0.01079352 0.68400002 -0.01319208 1.3528875e-38 311 251
-0.0095802136 0.68300003 -0.013172794 1.3528875e-38 312 251
-0.0083826864 0.68300003 -0.013172794 1.3528875e-38 313 251
-0.0071851597 0.68300003 -0.013172794 1.3437398e-38 314 251
-0.0059876335 0.68300003 -0.013172794 1.3529593e-38 315 251
-0.0047901068 0.68300003 -0.013172794 1.3529234e-38 316 251
-0.00359784 0.68400002 -0.01319208 1.3529234e-38 317 251
-0.0023985601 0.68400002 -0.01319208 1.3621428e-38 318 251
-0.0012027866 0.68599999 -0.013230653 1.3713622e-38 319 251
0 0.68599999 -0.013230653 1.3530316e-38 320 251
0.0012027866 0.68599999 -0.013230653 1.3714707e-38 321 251
0.0024090798 0.68699998 -0.013249939 1.3715432e-38 322 251
0.0036136196 0.68699998 -0.013249939 1.399202e-38 323 251
0.0048251734 0.68800002 -0.013269227 1.3810864e-38 324 251
0.0060314666 0.68800002 -0.013269227 1.390306e-38 325 251
0.0072377604 0.68800002 -0.013269227 1.3721194e-38 326 251
0.0084686 0.69 -0.0133078 1.3905225e-38 327 251
0.0096924258 0.69099998 -0.013327086 1.4089269e-38 328 251
0.01090398 0.69099998 -0.013327086 1.4181466e-38 329 251
0.012115533 0.69099998 -0.013327086 1.4181831e-38 330 251
0.01336566 0.69300002 -0.01336566 1.4366581e-38 331 251
0.014580719 0.69300002 -0.01336566 1.4091789e-38 332 251
0.015864158 0.69599998 -0.013423519 1.3999594e-38 333 251
0.017084479 0.69599998 -0.013423519 1.3814827e-38 334 251
0.018331099 0.69700003 -0.013442807 1.3354209e-38 335 251
0.019581227 0.69800001 -0.013462093 1.3351706e-38 336 251
0.020805053 0.69800001 -0.013462093 1.2982925e-38 337 251
-0.053529263 0.70999998 -0.014938398 1.6411188e-38 277 252
-0.052284397 0.70999998 -0.014938398 1.2256217e-38 278 252
-0.050895758 0.708 -0.01489632 9.9513252e-39 279 252
-0.049373865 0.704 -0.014812159 1.2978239e-38 280 252
-0.048139516 0.704 -0.014812159 1.3254467e-38 281 252
-0.046705291 0.70099998 -0.014749039 1.3438116e-38 282 252
-0.04541133 0.69999999 -0.014727999 1.3345922e-38 283 252
-0.04405776 0.69800001 -0.01468592 1.3620352e-38 284 252
-0.042772565 0.69700003 -0.01466488 1.3620352e-38 285 252
-0.041490879 0.69599998 -0.014643839 1.3712188e-38 286 252
-0.040154841 0.69400001 -0.01460176 1.3712188e-38 287 252
-0.03888192 0.69300002 -0.014580719 1.3621069e-38 288 252
-0.03755815 0.69099998 -0.014538639 1.3713264e-38 289 252
-0.036293998 0.69 -0.014517599 1.3713264e-38 290 252
-0.03498251 0.68800002 -0.014475521 1.3621069e-38 291 252
-0.033776212 0.68800002 -0.014475521 1.3621069e-38 292 252
-0.032522578 0.68699998 -0.014454478 1.3621069e-38 293 252
-0.031318039 0.68699998 -0.014454478 1.3529593e-38 294 252
-0.030113498 0.68699998 -0.014454478 1.3529593e-38 295 252
-0.028908957 0.68699998 -0.014454478 1.3621787e-38 296 252
-0.027704418 0.68699998 -0.014454478 1.3529593e-38 297 252
-0.02638416 0.68400002 -0.01439136 1.3529593e-38 298 252
-0.025184879 0.68400002 -0.01439136 1.3621787e-38 299 252
-0.0239856 0.68400002 -0.01439136 1.3529593e-38 300 252
-0.022753006 0.68300003 -0.014370319 1.3437398e-38 301 252
-0.02155548 0.68300003 -0.014370319 1.3621787e-38 302 252
-0.020357953 0.68300003 -0.014370319 1.3529593e-38 303 252
-0.019160427 0.68300003 -0.014370319 1.3438475e-38 304 252
-0.017962901 0.68300003 -0.014370319 1.3530669e-38 305 252
-0.016765373 0.68300003 -0.014370319 1.3530669e-38 306 252
-0.015567848 0.68300003 -0.014370319 1.3438475e-38 307 252
-0.01439136 0.68400002 -0.01439136 1.334628e-38 308 252
-0.01319208 0.68400002 -0.01439136 1.334628e-38 309 252
-0.011975267 0.68300003 -0.014370319 1.3345922e-38 310 252
-0.01077774 0.68300003 -0.014370319 1.3253728e-38 311 252
-0.0095802136 0.68300003 -0.014370319 1.3345922e-38 312 252
-0.0083826864 0.68300003 -0.014370319 1.3345922e-38 313 252
-0.0071851597 0.68300003 -0.014370319 1.3254804e-38 314 252
-0.0059876335 0.68300003 -0.014370319 1.3254804e-38 315 252
-0.0047901068 0.68300003 -0.014370319 1.3254445e-38 316 252
-0.00359784 0.68400002 -0.01439136 1.3254445e-38 317 252
-0.0023985601 0.68400002 -0.01439136 1.334628e-38 318 252
-0.0012027866 0.68599999 -0.01443344 1.3438475e-38 319 252
0 0.68599999 -0.01443344 1.3347004e-38 320 252
0.0012027866 0.68599999 -0.01443344 1.3531035e-38 321 252
0.0024090798 0.68699998 -0.014454478 1.3440284e-38 322 252
0.0036136196 0.68699998 -0.014454478 1.3717231e-38 323 252
0.0048181596 0.68699998 -0.014454478 1.3534647e-38 324 252
0.0060314666 0.68800002 -0.014475521 1.3811593e-38 325 252
0.0072377604 0.68800002 -0.014475521 1.3629367e-38 326 252
0.0084440531 0.68800002 -0.014475521 1.3721562e-38 327 252
0.0096924258 0.69099998 -0.014538639 1.3630092e-38 328 252
0.01090398 0.69099998 -0.014538639 1.3814124e-38 329 252
0.012115533 0.69099998 -0.014538639 1.390597e-38 330 252
0.01336566 0.69300002 -0.014580719 1.3998166e-38 331 252
0.014580719 0.69300002 -0.014580719 1.3815207e-38 332 252
0.015886955 0.69700003 -0.01466488 1.3723011e-38 333 252
0.017109027 0.69700003 -0.01466488 1.3721565e-38 334 252
0.0183574 0.69800001 -0.01468592 1.3536815e-38 335 252
0.019637333 0.69999999 -0.014727999 1.3260587e-38 336 252
0.020954086 0.70300001 -0.014791119 1.2707414e-38 337 252
0.02218668 0.70300001 -0.014791119 1.3172767e-38 338 252
-0.052284397 0.70999998 -0.016183265 1.2623561e-38 278 253
-0.050823875 0.70700002 -0.016114887 1.031831e-38 279 253
-0.049373865 0.704 -0.016046507 1.2978253e-38 280 253
-0.048071139 0.70300001 -0.016023712 1.2886056e-38 281 253
-0.046705291 0.70099998 -0.015978126 1.334557e-38 282 253
-0.04541133 0.69999999 -0.015955333 1.3253374e-38 283 253
-0.04405776 0.69800001 -0.015909746 1.3528158e-38 284 253
-0.042772565 0.69700003 -0.015886955 1.3528158e-38 285 253
-0.041490879 0.69599998 -0.015864158 1.3436322e-38 286 253
-0.040154841 0.69400001 -0.015818574 1.3436322e-38 287 253
-0.03888192 0.69300002 -0.015795778 1.3528875e-38 288 253
-0.03755815 0.69099998 -0.015750192 1.3621069e-38 289 253
-0.036293998 0.69 -0.015727401 1.3621069e-38 290 253
-0.03498251 0.68800002 -0.015681813 1.3621069e-38 291 253
-0.033727121 0.68699998 -0.015659019 1.3621787e-38 292 253
-0.032522578 0.68699998 -0.015659019 1.3621787e-38 293 253
-0.031318039 0.68699998 -0.015659019 1.3621787e-38 294 253
-0.030113498 0.68699998 -0.015659019 1.3437398e-38 295 253
-0.02886688 0.68599999 -0.015636226 1.3437398e-38 296 253
-0.027583439 0.68400002 -0.01559064 1.3437398e-38 297 253
-0.02638416 0.68400002 -0.01559064 1.3529593e-38 298 253
-0.025184879 0.68400002 -0.01559064 1.3621787e-38 299 253
-0.0239856 0.68400002 -0.01559064 1.3346998e-38 300 253
-0.022753006 0.68300003 -0.015567848 1.3346998e-38 301 253
-0.02155548 0.68300003 -0.015567848 1.3529593e-38 302 253
-0.020357953 0.68300003 -0.015567848 1.3529593e-38 303 253
-0.019160427 0.68300003 -0.015567848 1.3529234e-38 304 253
-0.017962901 0.68300003 -0.015567848 1.3621428e-38 305 253
-0.016765373 0.68300003 -0.015567848 1.3529234e-38 306 253
-0.015567848 0.68300003 -0.015567848 1.3529234e-38 307 253
-0.014370319 0.68300003 -0.015567848 1.3437398e-38 308 253
-0.013172794 0.68300003 -0.015567848 1.3437398e-38 309 253
-0.011975267 0.68300003 -0.015567848 1.3253728e-38 310 253
-0.01077774 0.68300003 -0.015567848 1.3253728e-38 311 253
-0.0095802136 0.68300003 -0.015567848 1.3161533e-38 312 253
-0.0083826864 0.68300003 -0.015567848 1.3161533e-38 313 253
-0.0071851597 0.68300003 -0.015567848 1.3253728e-38 314 253
-0.0059876335 0.68300003 -0.015567848 1.3253728e-38 315 253
-0.0047901068 0.68300003 -0.015567848 1.3253728e-38 316 253
-0.00359784 0.68400002 -0.01559064 1.3253728e-38 317 253
-0.0023985601 0.68400002 -0.01559064 1.3253728e-38 318 253
-0.0012027866 0.68599999 -0.015636226 1.3438116e-38 319 253
0 0.68599999 -0.015636226 1.3254445e-38 320 253
0.0012027866 0.68599999 -0.015636226 1.3531028e-38 321 253
0.0024090798 0.68699998 -0.015659019 1.3348433e-38 322 253
0.0036136196 0.68699998 -0.015659019 1.353318e-38 323 253
0.0048181596 0.68699998 -0.015659019 1.3442422e-38 324 253
0.0060226996 0.68699998 -0.015659019 1.371865e-38 325 253
0.0072377604 0.68800002 -0.015681813 1.3720466e-38 326 253
0.0084440531 0.68800002 -0.015681813 1.3812663e-38 327 253
0.0096924258 0.69099998 -0.015750192 1.390523e-38 328 253
0.01090398 0.69099998 -0.015750192 1.3720841e-38 329 253
0.012115533 0.69099998 -0.015750192 1.399707e-38 330 253
0.01336566 0.69300002 -0.015795778 1.399707e-38 331 253
0.014643839 0.69599998 -0.015864158 1.399742e-38 332 253
0.015886955 0.69700003 -0.015886955 1.3628998e-38 333 253
0.017109027 0.69700003 -0.015886955 1.3812666e-38 334 253
0.0183574 0.69800001 -0.015909746 1.3536079e-38 335 253
0.019637333 0.69999999 -0.015955333 1.3719408e-38 336 253
0.020894472 0.70099998 -0.015978126 1.3719408e-38 337 253
0.02218668 0.70300001 -0.016023712 1.3172414e-38 338 253
0.023419274 0.70300001 -0.016023712 1.833537e-38 339 253
-0.05206348 0.70700002 -0.017354494 1.3175654e-38 278 254
-0.050751984 0.70599997 -0.017329946 1.0686372e-38 279 254
-0.049373865 0.704 -0.017280852 1.2886409e-38 280 254
-0.048071139 0.70300001 -0.017256306 1.3070802e-38 281 254
-0.046705291 0.70099998 -0.017207211 1.3253728e-38 282 254
-0.04541133 0.69999999 -0.017182667 1.3253728e-38 283 254
-0.04405776 0.69800001 -0.017133573 1.3253728e-38 284 254
-0.042772565 0.69700003 -0.017109027 1.2977504e-38 285 254
-0.041490879 0.69599998 -0.017084479 1.3161533e-38 286 254
-0.040154841 0.69400001 -0.017035386 1.3161533e-38 287 254
-0.03888192 0.69300002 -0.01701084 1.3254445e-38 288 254
-0.03755815 0.69099998 -0.016961746 1.3254445e-38 289 254
-0.036293998 0.69 -0.0169372 1.3529593e-38 290 254
-0.03498251 0.68800002 -0.016888106 1.3529593e-38 291 254
-0.033727121 0.68699998 -0.01686356 1.3621787e-38 292 254
-0.032522578 0.68699998 -0.01686356 1.3529593e-38 293 254
-0.031318039 0.68699998 -0.01686356 1.3529593e-38 294 254
-0.030069664 0.68599999 -0.016839013 1.3529593e-38 295 254
-0.02886688 0.68599999 -0.016839013 1.3529593e-38 296 254
-0.027583439 0.68400002 -0.016789921 1.3529593e-38 297 254
-0.026345588 0.68300003 -0.016765373 1.3163686e-38 298 254
-0.02514806 0.68300003 -0.016765373 1.3163686e-38 299 254
-0.023950534 0.68300003 -0.016765373 1.3163686e-38 300 254
-0.022753006 0.68300003 -0.016765373 1.3071491e-38 301 254
-0.02155548 0.68300003 -0.016765373 1.3254445e-38 302 254
-0.020357953 0.68300003 -0.016765373 1.3070415e-38 303 254
-0.019160427 0.68300003 -0.016765373 1.3254086e-38 304 254
-0.017962901 0.68300003 -0.016765373 1.334628e-38 305 254
-0.016765373 0.68300003 -0.016765373 1.3254086e-38 306 254
-0.015567848 0.68300003 -0.016765373 1.3254086e-38 307 254
-0.014370319 0.68300003 -0.016765373 1.3253369e-38 308 254
-0.013172794 0.68300003 -0.016765373 1.3253369e-38 309 254
-0.011975267 0.68300003 -0.016765373 1.3161175e-38 310 254
-0.01077774 0.68300003 -0.016765373 1.306898e-38 311 254
-0.0095802136 0.68300003 -0.016765373 1.306898e-38 312 254
-0.0083704125 0.68199998 -0.016740825 1.306898e-38 313 254
-0.00717464 0.68199998 -0.016740825 1.2885668e-38 314 254
-0.0059876335 0.68300003 -0.016765373 1.2885668e-38 315 254
-0.0047901068 0.68300003 -0.016765373 1.2977504e-38 316 254
-0.0035925799 0.68300003 -0.016765373 1.2977504e-38 317 254
-0.0023985601 0.68400002 -0.016789921 1.3069698e-38 318 254
-0.00119928 0.68400002 -0.016789921 1.3253728e-38 319 254
0 0.68599999 -0.016839013 1.2887463e-38 320 254
0.0012027866 0.68599999 -0.016839013 1.3071856e-38 321 254
0.0024055731 0.68599999 -0.016839013 1.2889265e-38 322 254
0.0036136196 0.68699998 -0.01686356 1.3165492e-38 323 254
0.0048181596 0.68699998 -0.01686356 1.3166221e-38 324 254
0.0060226996 0.68699998 -0.01686356 1.3258418e-38 325 254
0.0072377604 0.68800002 -0.016888106 1.3168035e-38 326 254
0.0084686 0.69 -0.0169372 1.3352787e-38 327 254
0.0096924258 0.69099998 -0.016961746 1.3352434e-38 328 254
0.01090398 0.69099998 -0.016961746 1.3536465e-38 329 254
0.012115533 0.69099998 -0.016961746 1.372014e-38 330 254
0.01336566 0.69300002 -0.01701084 1.372014e-38 331 254
0.014643839 0.69599998 -0.017084479 1.3719411e-38 332 254
0.015886955 0.69700003 -0.017109027 1.3719411e-38 333 254
0.017133573 0.69800001 -0.017133573 1.3535729e-38 334 254
0.0183574 0.69800001 -0.017133573 1.3535729e-38 335 254
0.019637333 0.69999999 -0.017182667 1.3536462e-38 336 254
0.020894472 0.70099998 -0.017207211 1.3352431e-38 337 254
0.02218668 0.70300001 -0.017256306 1.3538676e-38 338 254
0.023419274 0.70300001 -0.017256306 1.8240653e-38 339 254
0.024651866 0.70300001 -0.017256306 1.7424254e-38 340 254
-0.05206348 0.70700002 -0.018594101 1.3452608e-38 278 255
-0.050751984 0.70599997 -0.018567799 1.1055881e-38 279 255
-0.049373865 0.704 -0.018515198 1.2702744e-38 280 255
-0.048071139 0.70300001 -0.018488899 1.2794941e-38 281 255
-0.046705291 0.70099998 -0.018436298 1.3162609e-38 282 255
-0.04541133 0.69999999 -0.018409999 1.2978221e-38 283 255
-0.04405776 0.69800001 -0.0183574 1.3161175e-38 284 255
-0.042772565 0.69700003 -0.018331099 1.3161175e-38 285 255
-0.041490879 0.69599998 -0.018304799 1.3253369e-38 286 255
-0.04009698 0.69300002 -0.018225901 1.3253369e-38 287 255
-0.03888192 0.69300002 -0.018225901 1.3254445e-38 288 255
-0.03755815 0.69099998 -0.0181733 1.3254445e-38 289 255
-0.036293998 0.69 -0.018146999 1.334628e-38 290 255
-0.03498251 0.68800002 -0.0180944 1.334628e-38 291 255
-0.033727121 0.68699998 -0.018068098 1.3529593e-38 292 255
-0.032522578 0.68699998 -0.018068098 1.3621787e-38 293 255
-0.031318039 0.68699998 -0.018068098 1.3438475e-38 294 255
-0.030069664 0.68599999 -0.018041799 1.334628e-38 295 255
-0.02878272 0.68400002 -0.0179892 1.3346998e-38 296 255
-0.027583439 0.68400002 -0.0179892 1.3254804e-38 297 255
-0.026345588 0.68300003 -0.017962901 1.3254445e-38 298 255
-0.02514806 0.68300003 -0.017962901 1.3254445e-38 299 255
-0.023950534 0.68300003 -0.017962901 1.3254445e-38 300 255
-0.022753006 0.68300003 -0.017962901 1.3070415e-38 301 255
-0.02155548 0.68300003 -0.017962901 1.3070057e-38 302 255
-0.020357953 0.68300003 -0.017962901 1.3254086e-38 303 255
-0.019132372 0.68199998 -0.017936599 1.3070774e-38 304 255
-0.017936599 0.68199998 -0.017936599 1.3162968e-38 305 255
-0.016740825 0.68199998 -0.017936599 1.3070774e-38 306 255
-0.015545053 0.68199998 -0.017936599 1.297858e-38 307 255
-0.014370319 0.68300003 -0.017962901 1.3070057e-38 308 255
-0.013172794 0.68300003 -0.017962901 1.2977862e-38 309 255
-0.011957732 0.68199998 -0.017936599 1.3069339e-38 310 255
-0.010761959 0.68199998 -0.017936599 1.2884951e-38 311 255
-0.009566186 0.68199998 -0.017936599 1.2884951e-38 312 255
-0.0083704125 0.68199998 -0.017936599 1.2884951e-38 313 255
-0.00717464 0.68199998 -0.017936599 1.2884951e-38 314 255
-0.0059876335 0.68300003 -0.017962901 1.2884951e-38 315 255
-0.0047901068 0.68300003 -0.017962901 1.2884951e-38 316 255
-0.0035925799 0.68300003 -0.017962901 1.2884951e-38 317 255
-0.0023950534 0.68300003 -0.017962901 1.2885309e-38 318 255
-0.00119928 0.68400002 -0.0179892 1.2977504e-38 319 255
0 0.68400002 -0.0179892 1.2794551e-38 320 255
0.0012027866 0.68599999 -0.018041799 1.2978943e-38 321 255
0.0024055731 0.68599999 -0.018041799 1.2795993e-38 322 255
0.0036136196 0.68699998 -0.018068098 1.307258e-38 323 255
0.0048181596 0.68699998 -0.018068098 1.3165139e-38 324 255
0.0060226996 0.68699998 -0.018068098 1.3257693e-38 325 255
0.0072272392 0.68699998 -0.018068098 1.3075471e-38 326 255
0.0084440531 0.68800002 -0.0180944 1.3075471e-38 327 255
0.0096924258 0.69099998 -0.0181733 1.3443183e-38 328 255
0.01090398 0.69099998 -0.0181733 1.3443183e-38 329 255
0.012150601 0.69300002 -0.018225901 1.3535023e-38 330 255
0.01336566 0.69300002 -0.018225901 1.3535023e-38 331 255
0.01460176 0.69400001 -0.0182522 1.3810514e-38 332 255
0.015886955 0.69700003 -0.018331099 1.3810514e-38 333 255
0.017133573 0.69800001 -0.0183574 1.3627552e-38 334 255
0.0183574 0.69800001 -0.0183574 1.3627552e-38 335 255
0.019637333 0.69999999 -0.018409999 1.3628292e-38 336 255
0.020864666 0.69999999 -0.018409999 1.3720846e-38 337 255
0.022123558 0.70099998 -0.018436298 1.3724141e-38 338 255
0.023419274 0.70300001 -0.018488899 1.7780748e-38 339 255
0.024651866 0.70300001 -0.018488899 1.7332055e-38 340 255
-0.051989835 0.70599997 -0.019805651 1.3637002e-38 278 256
-0.050751984 0.70599997 -0.019805651 1.114772e-38 279 256
-0.049373865 0.704 -0.019749546 1.2612345e-38 280 256
-0.048071139 0.70300001 -0.019721493 1.2612345e-38 281 256
-0.046705291 0.70099998 -0.019665385 1.2887103e-38 282 256
-0.04541133 0.69999999 -0.019637333 1.2794909e-38 283 256
-0.04405776 0.69800001 -0.019581227 1.2977504e-38 284 256
-0.042772565 0.69700003 -0.019553173 1.2977504e-38 285 256
-0.041490879 0.69599998 -0.019525118 1.2886386e-38 286 256
-0.04009698 0.69300002 -0.01944096 1.297858e-38 287 256
-0.03888192 0.69300002 -0.01944096 1.3163686e-38 288 256
-0.03755815 0.69099998 -0.019384852 1.3163686e-38 289 256
-0.036293998 0.69 -0.019356798 1.3254804e-38 290 256
-0.03498251 0.68800002 -0.019300694 1.3254804e-38 291 256
-0.033727121 0.68699998 -0.019272638 1.334628e-38 292 256
-0.032522578 0.68699998 -0.019272638 1.334628e-38 293 256
-0.031272452 0.68599999 -0.019244585 1.3254804e-38 294 256
-0.030069664 0.68599999 -0.019244585 1.3254804e-38 295 256
-0.02878272 0.68400002 -0.01918848 1.3070415e-38 296 256
-0.027583439 0.68400002 -0.01918848 1.3070415e-38 297 256
-0.026345588 0.68300003 -0.019160427 1.3070415e-38 298 256
-0.02514806 0.68300003 -0.019160427 1.3070415e-38 299 256
-0.023950534 0.68300003 -0.019160427 1.297858e-38 300 256
-0.022753006 0.68300003 -0.019160427 1.297858e-38 301 256
-0.02155548 0.68300003 -0.019160427 1.2979297e-38 302 256
-0.020357953 0.68300003 -0.019160427 1.3163327e-38 303 256
-0.019132372 0.68199998 -0.019132372 1.2979664e-38 304 256
-0.017936599 0.68199998 -0.019132372 1.2979664e-38 305 256
-0.016740825 0.68199998 -0.019132372 1.2887463e-38 306 256
-0.015545053 0.68199998 -0.019132372 1.2703073e-38 307 256
-0.014370319 0.68300003 -0.019160427 1.2795267e-38 308 256
-0.013172794 0.68300003 -0.019160427 1.2703073e-38 309 256
-0.011957732 0.68199998 -0.019132372 1.2885668e-38 310 256
-0.010761959 0.68199998 -0.019132372 1.2793474e-38 311 256
-0.009566186 0.68199998 -0.019132372 1.2793474e-38 312 256
-0.0083704125 0.68199998 -0.019132372 1.2793474e-38 313 256
-0.00717464 0.68199998 -0.019132372 1.2884951e-38 314 256
-0.0059876335 0.68300003 -0.019160427 1.2792398e-38 315 256
-0.0047901068 0.68300003 -0.019160427 1.2793115e-38 316 256
-0.0035925799 0.68300003 -0.019160427 1.2793115e-38 317 256
-0.0023950534 0.68300003 -0.019160427 1.2701997e-38 318 256
-0.00119928 0.68400002 -0.01918848 1.2886027e-38 319 256
0 0.68400002 -0.01918848 1.251869e-38 320 256
0.0012027866 0.68599999 -0.019244585 1.2702722e-38 321 256
0.0024055731 0.68599999 -0.019244585 1.2611971e-38 322 256
0.0036136196 0.68699998 -0.019272638 1.2796363e-38 323 256
0.0048181596 0.68699998 -0.019272638 1.2797082e-38 324 256
0.0060226996 0.68699998 -0.019272638 1.2889278e-38 325 256
0.0072272392 0.68699998 -0.019272638 1.279853e-38 326 256
0.0084440531 0.68800002 -0.019300694 1.2890727e-38 327 256
0.0096783992 0.69 -0.019356798 1.3166237e-38 328 256
0.01090398 0.69099998 -0.019384852 1.3166237e-38 329 256
0.012150601 0.69300002 -0.01944096 1.3258789e-38 330 256
0.01336566 0.69300002 -0.01944096 1.3350985e-38 331 256
0.01460176 0.69400001 -0.019469013 1.3442452e-38 332 256
0.015886955 0.69700003 -0.019553173 1.3626843e-38 333 256
0.017133573 0.69800001 -0.019581227 1.3443884e-38 334 256
0.0183574 0.69800001 -0.019581227 1.3443884e-38 335 256
0.019581227 0.69800001 -0.019581227 1.3536815e-38 336 256
0.020805053 0.69800001 -0.019581227 1.3721565e-38 337 256
0.022091998 0.69999999 -0.019637333 1.3633024e-38 338 256
0.023319334 0.69999999 -0.019637333 1.7965858e-38 339 256
0.024546666 0.69999999 -0.019637333 1.7699763e-38 340 256
-0.051989835 0.70599997 -0.021043506 1.3638802e-38 278 257
-0.050751984 0.70599997 -0.021043506 1.0780736e-38 279 257
-0.049373865 0.704 -0.020983893 1.2705618e-38 280 257
-0.048071139 0.70300001 -0.020954086 1.2520868e-38 281 257
-0.046705291 0.70099998 -0.020894472 1.2795267e-38 282 257
-0.04541133 0.69999999 -0.020864666 1.2703073e-38 283 257
-0.04405776 0.69800001 -0.020805053 1.2885668e-38 284 257
-0.042772565 0.69700003 -0.020775247 1.2977862e-38 285 257
-0.041490879 0.69599998 -0.020745439 1.297858e-38 286 257
-0.04009698 0.69300002 -0.020656019 1.3070774e-38 287 257
-0.038769703 0.69099998 -0.020596405 1.3071491e-38 288 257
-0.037503798 0.69 -0.020566599 1.3071491e-38 289 257
-0.0361888 0.68800002 -0.020506985 1.3071133e-38 290 257
-0.03498251 0.68800002 -0.020506985 1.2978938e-38 291 257
-0.033727121 0.68699998 -0.020477179 1.3070415e-38 292 257
-0.032522578 0.68699998 -0.020477179 1.3254445e-38 293 257
-0.031272452 0.68599999 -0.020447372 1.3070415e-38 294 257
-0.029982001 0.68400002 -0.020387759 1.3070415e-38 295 257
-0.02878272 0.68400002 -0.020387759 1.3070415e-38 296 257
-0.027543113 0.68300003 -0.020357953 1.2978221e-38 297 257
-0.026345588 0.68300003 -0.020357953 1.2978221e-38 298 257
-0.02514806 0.68300003 -0.020357953 1.3070415e-38 299 257
-0.023950534 0.68300003 -0.020357953 1.2978221e-38 300 257
-0.022753006 0.68300003 -0.020357953 1.3162968e-38 301 257
-0.02155548 0.68300003 -0.020357953 1.2796716e-38 302 257
-0.020357953 0.68300003 -0.020357953 1.2888912e-38 303 257
-0.019132372 0.68199998 -0.020328145 1.2796732e-38 304 257
-0.017936599 0.68199998 -0.020328145 1.2612701e-38 305 257
-0.016740825 0.68199998 -0.020328145 1.2704163e-38 306 257
-0.015545053 0.68199998 -0.020328145 1.2611968e-38 307 257
-0.01434928 0.68199998 -0.020328145 1.2794909e-38 308 257
-0.013153506 0.68199998 -0.020328145 1.261052e-38 309 257
-0.011957732 0.68199998 -0.020328145 1.2610162e-38 310 257
-0.010761959 0.68199998 -0.020328145 1.2517967e-38 311 257
-0.009566186 0.68199998 -0.020328145 1.2793115e-38 312 257
-0.0083704125 0.68199998 -0.020328145 1.2793115e-38 313 257
-0.00717464 0.68199998 -0.020328145 1.2609803e-38 314 257
-0.0059876335 0.68300003 -0.020357953 1.2609803e-38 315 257
-0.0047901068 0.68300003 -0.020357953 1.2609803e-38 316 257
-0.0035925799 0.68300003 -0.020357953 1.2609803e-38 317 257
-0.0023985601 0.68400002 -0.020387759 1.2609444e-38 318 257
-0.00119928 0.68400002 -0.020387759 1.2609444e-38 319 257
0 0.68400002 -0.020387759 1.2426492e-38 320 257
0.0012027866 0.68599999 -0.020447372 1.2518688e-38 321 257
0.0024055731 0.68599999 -0.020447372 1.2519056e-38 322 257
0.00360836 0.68599999 -0.020447372 1.2611252e-38 323 257
0.0048181596 0.68699998 -0.020477179 1.2704168e-38 324 257
0.0060226996 0.68699998 -0.020477179 1.2796363e-38 325 257
0.0072272392 0.68699998 -0.020477179 1.2614123e-38 326 257
0.0084440531 0.68800002 -0.020506985 1.2706319e-38 327 257
0.0096783992 0.69 -0.020566599 1.3074022e-38 328 257
0.01090398 0.69099998 -0.020596405 1.3074022e-38 329 257
0.012150601 0.69300002 -0.020656019 1.3166221e-38 330 257
0.013384946 0.69400001 -0.020685827 1.3166221e-38 331 257
0.014643839 0.69599998 -0.020745439 1.3258774e-38 332 257
0.015886955 0.69700003 -0.020775247 1.3442805e-38 333 257
0.017109027 0.69700003 -0.020775247 1.3443884e-38 334 257
0.0183574 0.69800001 -0.020805053 1.3536079e-38 335 257
0.019581227 0.69800001 -0.020805053 1.3354222e-38 336 257
0.020805053 0.69800001 -0.020805053 1.3538613e-38 337 257
0.022091998 0.69999999 -0.020864666 1.3816336e-38 338 257
0.023319334 0.69999999 -0.020864666 1.8610509e-38 339 257
-0.051989835 0.70599997 -0.022281358 1.4009026e-38 278 258
-0.050751984 0.70599997 -0.022281358 1.0505591e-38 279 258
-0.049373865 0.704 -0.022218239 1.2521962e-38 280 258
-0.048071139 0.70300001 -0.02218668 1.2521962e-38 281 258
-0.046705291 0.70099998 -0.022123558 1.2980031e-38 282 258
-0.04541133 0.69999999 -0.022091998 1.2611249e-38 283 258
-0.04405776 0.69800001 -0.02202888 1.2794195e-38 284 258
-0.042772565 0.69700003 -0.02199732 1.2886391e-38 285 258
-0.041490879 0.69599998 -0.021965759 1.2794909e-38 286 258
-0.04009698 0.69300002 -0.021871079 1.2794909e-38 287 258
-0.038713597 0.69 -0.021776399 1.2795626e-38 288 258
-0.037503798 0.69 -0.021776399 1.288782e-38 289 258
-0.0361888 0.68800002 -0.021713281 1.2978938e-38 290 258
-0.03498251 0.68800002 -0.021713281 1.2978938e-38 291 258
-0.033727121 0.68699998 -0.021681719 1.3070415e-38 292 258
-0.032522578 0.68699998 -0.021681719 1.3070415e-38 293 258
-0.031272452 0.68599999 -0.021650158 1.2978221e-38 294 258
-0.029982001 0.68400002 -0.02158704 1.2978221e-38 295 258
-0.02878272 0.68400002 -0.02158704 1.2978221e-38 296 258
-0.027543113 0.68300003 -0.02155548 1.2978221e-38 297 258
-0.026345588 0.68300003 -0.02155548 1.2886386e-38 298 258
-0.02514806 0.68300003 -0.02155548 1.2886386e-38 299 258
-0.023950534 0.68300003 -0.02155548 1.2795267e-38 300 258
-0.022753006 0.68300003 -0.02155548 1.288782e-38 301 258
-0.02155548 0.68300003 -0.02155548 1.2613417e-38 302 258
-0.020357953 0.68300003 -0.02155548 1.2705612e-38 303 258
-0.019132372 0.68199998 -0.021523919 1.2613435e-38 304 258
-0.017936599 0.68199998 -0.021523919 1.233685e-38 305 258
-0.016740825 0.68199998 -0.021523919 1.2520868e-38 306 258
-0.015545053 0.68199998 -0.021523919 1.2152444e-38 307 258
-0.01434928 0.68199998 -0.021523919 1.2703073e-38 308 258
-0.013153506 0.68199998 -0.021523919 1.2242461e-38 309 258
-0.011957732 0.68199998 -0.021523919 1.270128e-38 310 258
-0.010761959 0.68199998 -0.021523919 1.270128e-38 311 258
-0.009566186 0.68199998 -0.021523919 1.2700921e-38 312 258
-0.0083704125 0.68199998 -0.021523919 1.2608727e-38 313 258
-0.00717464 0.68199998 -0.021523919 1.2700921e-38 314 258
-0.0059876335 0.68300003 -0.02155548 1.2608727e-38 315 258
-0.0047901068 0.68300003 -0.02155548 1.2700921e-38 316 258
-0.0035925799 0.68300003 -0.02155548 1.2700921e-38 317 258
-0.0023985601 0.68400002 -0.02158704 1.251725e-38 318 258
-0.00119928 0.68400002 -0.02158704 1.251725e-38 319 258
0 0.68400002 -0.02158704 1.2334296e-38 320 258
0.0012027866 0.68599999 -0.021650158 1.2426491e-38 321 258
0.0024055731 0.68599999 -0.021650158 1.2427211e-38 322 258
0.00360836 0.68599999 -0.021650158 1.2519406e-38 323 258
0.0048181596 0.68699998 -0.021681719 1.2520478e-38 324 258
0.0060226996 0.68699998 -0.021681719 1.2612674e-38 325 258
0.0072272392 0.68699998 -0.021681719 1.279742e-38 326 258
0.0084440531 0.68800002 -0.021713281 1.279742e-38 327 258
0.0096503468 0.68800002 -0.021713281 1.2890334e-38 328 258
0.01090398 0.69099998 -0.021807959 1.298253e-38 329 258
0.012150601 0.69300002 -0.021871079 1.3165492e-38 330 258
0.013384946 0.69400001 -0.021902639 1.3257688e-38 331 258
0.014643839 0.69599998 -0.021965759 1.3074378e-38 332 258
0.015886955 0.69700003 -0.02199732 1.3442802e-38 333 258
0.017109027 0.69700003 -0.02199732 1.3351688e-38 334 258
0.0183574 0.69800001 -0.02202888 1.3536079e-38 335 258
0.019581227 0.69800001 -0.02202888 1.3536815e-38 336 258
0.020805053 0.69800001 -0.02202888 1.3905956e-38 337 258
0.022091998 0.69999999 -0.022091998 1.4369154e-38 338 258
0.023319334 0.69999999 -0.022091998 1.9163686e-38 339 258
-0.051989835 0.70599997 -0.023519212 1.4471449e-38 278 259
-0.050751984 0.70599997 -0.023519212 1.0691787e-38 279 259
-0.049373865 0.704 -0.023452586 1.2706364e-38 280 259
-0.048071139 0.70300001 -0.023419274 1.2613809e-38 281 259
-0.046705291 0.70099998 -0.023352645 1.2979678e-38 282 259
-0.04541133 0.69999999 -0.023319334 1.270345e-38 283 259
-0.04405776 0.69800001 -0.023252707 1.2795267e-38 284 259
-0.042772565 0.69700003 -0.023219392 1.2703073e-38 285 259
-0.041490879 0.69599998 -0.023186078 1.2795267e-38 286 259
-0.04009698 0.69300002 -0.02308614 1.2795267e-38 287 259
-0.038713597 0.69 -0.022986198 1.2796344e-38 288 259
-0.037503798 0.69 -0.022986198 1.2796344e-38 289 259
-0.0361888 0.68800002 -0.022919573 1.2978938e-38 290 259
-0.03498251 0.68800002 -0.022919573 1.2978938e-38 291 259
-0.033727121 0.68699998 -0.022886258 1.2795626e-38 292 259
-0.032522578 0.68699998 -0.022886258 1.2703432e-38 293 259
-0.031272452 0.68599999 -0.022852944 1.2886744e-38 294 259
-0.030069664 0.68599999 -0.022852944 1.2978938e-38 295 259
-0.02878272 0.68400002 -0.022786319 1.2795267e-38 296 259
-0.027583439 0.68400002 -0.022786319 1.2703073e-38 297 259
-0.026345588 0.68300003 -0.022753006 1.2702715e-38 298 259
-0.02514806 0.68300003 -0.022753006 1.2794909e-38 299 259
-0.023950534 0.68300003 -0.022753006 1.2794564e-38 300 259
-0.022753006 0.68300003 -0.022753006 1.2978957e-38 301 259
-0.02155548 0.68300003 -0.022753006 1.2429404e-38 302 259
-0.020357953 0.68300003 -0.022753006 1.2705631e-38 303 259
-0.019132372 0.68199998 -0.022719691 1.242977e-38 304 259
-0.017936599 0.68199998 -0.022719691 1.2337574e-38 305 259
-0.016691733 0.68000001 -0.022653066 1.2519796e-38 306 259
-0.015499466 0.68000001 -0.022653066 1.2243208e-38 307 259
-0.014307199 0.68000001 -0.022653066 1.2426492e-38 308 259
-0.013114933 0.68000001 -0.022653066 1.2241743e-38 309 259
-0.011957732 0.68199998 -0.022719691 1.2425414e-38 310 259
-0.010761959 0.68199998 -0.022719691 1.2425414e-38 311 259
-0.009566186 0.68199998 -0.022719691 1.2608727e-38 312 259
-0.0083704125 0.68199998 -0.022719691 1.2608727e-38 313 259
-0.00717464 0.68199998 -0.022719691 1.2425056e-38 314 259
-0.0059876335 0.68300003 -0.022753006 1.2332861e-38 315 259
-0.0047901068 0.68300003 -0.022753006 1.2608368e-38 316 259
-0.00359784 0.68400002 -0.022786319 1.2608368e-38 317 259
-0.0023985601 0.68400002 -0.022786319 1.2149908e-38 318 259
-0.0012027866 0.68599999 -0.022852944 1.2242102e-38 319 259
0 0.68599999 -0.022852944 1.2241026e-38 320 259
0.0012027866 0.68599999 -0.022852944 1.2517609e-38 321 259
0.0024055731 0.68599999 -0.022852944 1.2334296e-38 322 259
0.00360836 0.68599999 -0.022852944 1.2518688e-38 323 259
0.0048181596 0.68699998 -0.022886258 1.2519761e-38 324 259
0.0060226996 0.68699998 -0.022886258 1.2704151e-38 325 259
0.0072272392 0.68699998 -0.022886258 1.2430081e-38 326 259
0.0084440531 0.68800002 -0.022919573 1.2430081e-38 327 259
0.0096503468 0.68800002 -0.022919573 1.2889262e-38 328 259
0.01090398 0.69099998 -0.023019511 1.2981458e-38 329 259
0.012150601 0.69300002 -0.02308614 1.298218e-38 330 259
0.013384946 0.69400001 -0.023119451 1.3074375e-38 331 259
0.014643839 0.69599998 -0.023186078 1.3074741e-38 332 259
0.015886955 0.69700003 -0.023219392 1.3167297e-38 333 259
0.017133573 0.69800001 -0.023252707 1.3259858e-38 334 259
0.0183574 0.69800001 -0.023252707 1.3444249e-38 335 259
0.019637333 0.69999999 -0.023319334 1.3536462e-38 336 259
0.020864666 0.69999999 -0.023319334 1.4274386e-38 337 259
0.022123558 0.70099998 -0.023352645 1.4647902e-38 338 259
0.023352645 0.70099998 -0.023352645 1.9165127e-38 339 259
-0.051842559 0.704 -0.024686933 1.5484883e-38 278 260
-0.050608214 0.704 -0.024686933 1.179706e-38 279 260
-0.049303733 0.70300001 -0.024651866 1.298259e-38 280 260
-0.048071139 0.70300001 -0.024651866 1.2706364e-38 281 260
-0.046705291 0.70099998 -0.024581732 1.2797814e-38 282 260
-0.04541133 0.69999999 -0.024546666 1.2520868e-38 283 260
-0.04405776 0.69800001 -0.024476532 1.2704168e-38 284 260
-0.042772565 0.69700003 -0.024441468 1.2611971e-38 285 260
-0.041490879 0.69599998 -0.0244064 1.279455e-38 286 260
-0.040154841 0.69400001 -0.024336265 1.279455e-38 287 260
-0.038769703 0.69099998 -0.024231065 1.2795267e-38 288 260
-0.037503798 0.69 -0.024195999 1.2795267e-38 289 260
-0.0361888 0.68800002 -0.024125867 1.2795267e-38 290 260
-0.03498251 0.68800002 -0.024125867 1.2795267e-38 291 260
-0.033727121 0.68699998 -0.024090799 1.2795626e-38 292 260
-0.032522578 0.68699998 -0.024090799 1.2795626e-38 293 260
-0.031272452 0.68599999 -0.024055731 1.2795267e-38 294 260
-0.030069664 0.68599999 -0.024055731 1.2610879e-38 295 260
-0.02878272 0.68400002 -0.0239856 1.2886386e-38 296 260
-0.027583439 0.68400002 -0.0239856 1.2886386e-38 297 260
-0.02638416 0.68400002 -0.0239856 1.2702715e-38 298 260
-0.02514806 0.68300003 -0.023950534 1.261052e-38 299 260
-0.023950534 0.68300003 -0.023950534 1.2611602e-38 300 260
-0.022753006 0.68300003 -0.023950534 1.2795993e-38 301 260
-0.02155548 0.68300003 -0.023950534 1.2429401e-38 302 260
-0.020357953 0.68300003 -0.023950534 1.2705628e-38 303 260
-0.019132372 0.68199998 -0.023915464 1.2429414e-38 304 260
-0.017883999 0.68000001 -0.023845334 1.2337218e-38 305 260
-0.016691733 0.68000001 -0.023845334 1.2429404e-38 306 260
-0.015499466 0.68000001 -0.023845334 1.1968066e-38 307 260
-0.014307199 0.68000001 -0.023845334 1.2425789e-38 308 260
-0.013114933 0.68000001 -0.023845334 1.2333593e-38 309 260
-0.011957732 0.68199998 -0.023915464 1.2425056e-38 310 260
-0.010761959 0.68199998 -0.023915464 1.2425056e-38 311 260
-0.009566186 0.68199998 -0.023915464 1.2425414e-38 312 260
-0.0083704125 0.68199998 -0.023915464 1.2425414e-38 313 260
-0.00717464 0.68199998 -0.023915464 1.2424697e-38 314 260
-0.0059876335 0.68300003 -0.023950534 1.2424697e-38 315 260
-0.0047901068 0.68300003 -0.023950534 1.2515815e-38 316 260
-0.00359784 0.68400002 -0.0239856 1.2515815e-38 317 260
-0.0023985601 0.68400002 -0.0239856 1.2240667e-38 318 260
-0.00119928 0.68400002 -0.0239856 1.2332861e-38 319 260
0 0.68599999 -0.024055731 1.2332144e-38 320 260
0.0012027866 0.68599999 -0.024055731 1.2424697e-38 321 260
0.0024055731 0.68599999 -0.024055731 1.2608368e-38 322 260
0.0036136196 0.68699998 -0.024090799 1.2700921e-38 323 260
0.0048181596 0.68699998 -0.024090799 1.261052e-38 324 260
0.0060226996 0.68699998 -0.024090799 1.261052e-38 325 260
0.0072272392 0.68699998 -0.024090799 1.2612314e-38 326 260
0.0084440531 0.68800002 -0.024125867 1.2612314e-38 327 260
0.0096503468 0.68800002 -0.024125867 1.3072568e-38 328 260
0.01090398 0.69099998 -0.024231065 1.3072568e-38 329 260
0.012150601 0.69300002 -0.024301201 1.298253e-38 330 260
0.01336566 0.69300002 -0.024301201 1.3074726e-38 331 260
0.014643839 0.69599998 -0.0244064 1.2891066e-38 332 260
0.015909746 0.69800001 -0.024476532 1.3167294e-38 333 260
0.017133573 0.69800001 -0.024476532 1.3351338e-38 334 260
0.0183574 0.69800001 -0.024476532 1.3535729e-38 335 260
0.019637333 0.69999999 -0.024546666 1.3443549e-38 336 260
0.020864666 0.69999999 -0.024546666 1.4642092e-38 337 260
0.022123558 0.70099998 -0.024581732 1.5203236e-38 338 260
0.023352645 0.70099998 -0.024581732 1.9075453e-38 339 260
-0.051842559 0.704 -0.02592128 1.5763635e-38 278 261
-0.050608214 0.704 -0.02592128 1.2352397e-38 279 261
-0.049303733 0.70300001 -0.025884461 1.2981871e-38 280 261
-0.047934376 0.70099998 -0.025810819 1.2889676e-38 281 261
-0.046705291 0.70099998 -0.025810819 1.3256621e-38 282 261
-0.04541133 0.69999999 -0.025773998 1.307223e-38 283 261
-0.04405776 0.69800001 -0.025700359 1.3162974e-38 284 261
-0.042772565 0.69700003 -0.025663542 1.2978943e-38 285 261
-0.041490879 0.69599998 -0.025626717 1.3070057e-38 286 261
-0.040154841 0.69400001 -0.025553079 1.3070057e-38 287 261
-0.03888192 0.69300002 -0.02551626 1.288782e-38 288 261
-0.03755815 0.69099998 -0.025442619 1.288782e-38 289 261
-0.0361888 0.68800002 -0.02533216 1.2795626e-38 290 261
-0.03498251 0.68800002 -0.02533216 1.2795626e-38 291 261
-0.033727121 0.68699998 -0.025295338 1.2795626e-38 292 261
-0.032522578 0.68699998 -0.025295338 1.2795626e-38 293 261
-0.031272452 0.68599999 -0.025258519 1.2703073e-38 294 261
-0.030069664 0.68599999 -0.025258519 1.2610879e-38 295 261
-0.02886688 0.68599999 -0.025258519 1.2610879e-38 296 261
-0.027583439 0.68400002 -0.025184879 1.2703073e-38 297 261
-0.02638416 0.68400002 -0.025184879 1.2702356e-38 298 261
-0.02514806 0.68300003 -0.02514806 1.279455e-38 299 261
-0.023950534 0.68300003 -0.02514806 1.251835e-38 300 261
-0.022753006 0.68300003 -0.02514806 1.2610546e-38 301 261
-0.02155548 0.68300003 -0.02514806 1.2519814e-38 302 261
-0.020357953 0.68300003 -0.02514806 1.2704206e-38 303 261
-0.019132372 0.68199998 -0.025111238 1.2429416e-38 304 261
-0.017883999 0.68000001 -0.025037598 1.2245025e-38 305 261
-0.016691733 0.68000001 -0.025037598 1.2427599e-38 306 261
-0.015499466 0.68000001 -0.025037598 1.2243208e-38 307 261
-0.014307199 0.68000001 -0.025037598 1.2334309e-38 308 261
-0.013114933 0.68000001 -0.025037598 1.2150278e-38 309 261
-0.011957732 0.68199998 -0.025111238 1.2425056e-38 310 261
-0.010761959 0.68199998 -0.025111238 1.2425056e-38 311 261
-0.009566186 0.68199998 -0.025111238 1.2426132e-38 312 261
-0.0083704125 0.68199998 -0.025111238 1.2242102e-38 313 261
-0.00717464 0.68199998 -0.025111238 1.2332861e-38 314 261
-0.0059876335 0.68300003 -0.02514806 1.2240667e-38 315 261
-0.0047901068 0.68300003 -0.02514806 1.2515815e-38 316 261
-0.00359784 0.68400002 -0.025184879 1.2515815e-38 317 261
-0.0023985601 0.68400002 -0.025184879 1.2332144e-38 318 261
-0.00119928 0.68400002 -0.025184879 1.2424697e-38 319 261
0 0.68599999 -0.025258519 1.2424697e-38 320 261
0.0012027866 0.68599999 -0.025258519 1.2424697e-38 321 261
0.0024055731 0.68599999 -0.025258519 1.2425414e-38 322 261
0.0036136196 0.68699998 -0.025295338 1.2517609e-38 323 261
0.0048181596 0.68699998 -0.025295338 1.2335014e-38 324 261
0.0060226996 0.68699998 -0.025295338 1.2519402e-38 325 261
0.0072272392 0.68699998 -0.025295338 1.2519761e-38 326 261
0.0084440531 0.68800002 -0.02533216 1.2612314e-38 327 261
0.0096503468 0.68800002 -0.02533216 1.279742e-38 328 261
0.01090398 0.69099998 -0.025442619 1.2889616e-38 329 261
0.012150601 0.69300002 -0.02551626 1.298253e-38 330 261
0.01336566 0.69300002 -0.02551626 1.3074726e-38 331 261
0.014643839 0.69599998 -0.025626717 1.3074741e-38 332 261
0.015909746 0.69800001 -0.025700359 1.3167297e-38 333 261
0.017133573 0.69800001 -0.025700359 1.3169107e-38 334 261
0.0183574 0.69800001 -0.025700359 1.3261304e-38 335 261
0.019637333 0.69999999 -0.025773998 1.3260237e-38 336 261
0.020864666 0.69999999 -0.025773998 1.5196345e-38 337 261
0.022123558 0.70099998 -0.025810819 1.5666375e-38 338 261
0.023352645 0.70099998 -0.025810819 1.9077974e-38 339 261
-0.050608214 0.704 -0.027155625 1.345947e-38 279 262
-0.049303733 0.70300001 -0.027117053 1.3074085e-38 280 262
-0.047934376 0.70099998 -0.027039904 1.3074085e-38 281 262
-0.046705291 0.70099998 -0.027039904 1.3165519e-38 282 262
-0.04541133 0.69999999 -0.027001332 1.2981126e-38 283 262
-0.044183996 0.69999999 -0.027001332 1.3164426e-38 284 262
-0.042772565 0.69700003 -0.026885614 1.2979676e-38 285 262
-0.041490879 0.69599998 -0.026847038 1.3162611e-38 286 262
-0.040154841 0.69400001 -0.026769891 1.3162611e-38 287 262
-0.03888192 0.69300002 -0.02673132 1.2887462e-38 288 262
-0.03755815 0.69099998 -0.026654173 1.2979656e-38 289 262
-0.036293998 0.69 -0.026615599 1.288782e-38 290 262
-0.03498251 0.68800002 -0.026538454 1.2795626e-38 291 262
-0.033727121 0.68699998 -0.026499879 1.2795626e-38 292 262
-0.032522578 0.68699998 -0.026499879 1.2795626e-38 293 262
-0.031272452 0.68599999 -0.026461305 1.2703073e-38 294 262
-0.030069664 0.68599999 -0.026461305 1.2610879e-38 295 262
-0.02886688 0.68599999 -0.026461305 1.261052e-38 296 262
-0.027664091 0.68599999 -0.026461305 1.261052e-38 297 262
-0.026461305 0.68599999 -0.026461305 1.2701997e-38 298 262
-0.025258519 0.68599999 -0.026461305 1.2701997e-38 299 262
-0.023950534 0.68300003 -0.026345588 1.2518337e-38 300 262
-0.022753006 0.68300003 -0.026345588 1.2702368e-38 301 262
-0.02155548 0.68300003 -0.026345588 1.2335775e-38 302 262
-0.020357953 0.68300003 -0.026345588 1.2520167e-38 303 262
-0.019132372 0.68199998 -0.026307013 1.2336499e-38 304 262
-0.017883999 0.68000001 -0.026229866 1.2244304e-38 305 262
-0.016691733 0.68000001 -0.026229866 1.2334685e-38 306 262
-0.015499466 0.68000001 -0.026229866 1.2150293e-38 307 262
-0.014307199 0.68000001 -0.026229866 1.233359e-38 308 262
-0.013114933 0.68000001 -0.026229866 1.2241393e-38 309 262
-0.011957732 0.68199998 -0.026307013 1.2241385e-38 310 262
-0.010761959 0.68199998 -0.026307013 1.2241385e-38 311 262
-0.009566186 0.68199998 -0.026307013 1.2426132e-38 312 262
-0.0083704125 0.68199998 -0.026307013 1.2241743e-38 313 262
-0.0071851597 0.68300003 -0.026345588 1.2425414e-38 314 262
-0.0059876335 0.68300003 -0.026345588 1.233322e-38 315 262
-0.0047901068 0.68300003 -0.026345588 1.2332503e-38 316 262
-0.00359784 0.68400002 -0.02638416 1.2608727e-38 317 262
-0.0023985601 0.68400002 -0.02638416 1.2425414e-38 318 262
-0.0012027866 0.68599999 -0.026461305 1.2425414e-38 319 262
0 0.68599999 -0.026461305 1.2242102e-38 320 262
0.0012027866 0.68599999 -0.026461305 1.2242102e-38 321 262
0.0024090798 0.68699998 -0.026499879 1.2242102e-38 322 262
0.0036136196 0.68699998 -0.026499879 1.2518326e-38 323 262
0.0048181596 0.68699998 -0.026499879 1.2518326e-38 324 262
0.0060226996 0.68699998 -0.026499879 1.2518326e-38 325 262
0.0072272392 0.68699998 -0.026499879 1.252012e-38 326 262
0.0084440531 0.68800002 -0.026538454 1.252012e-38 327 262
0.0096503468 0.68800002 -0.026538454 1.2796702e-38 328 262
0.01090398 0.69099998 -0.026654173 1.2980732e-38 329 262
0.012150601 0.69300002 -0.02673132 1.2981458e-38 330 262
0.01336566 0.69300002 -0.02673132 1.3258044e-38 331 262
0.01466488 0.69700003 -0.026885614 1.3166577e-38 332 262
0.015909746 0.69800001 -0.026924185 1.3535e-38 333 262
0.017133573 0.69800001 -0.026924185 1.316911e-38 334 262
0.0183574 0.69800001 -0.026924185 1.3353503e-38 335 262
0.019637333 0.69999999 -0.027001332 1.3260253e-38 336 262
0.020864666 0.69999999 -0.027001332 1.5933927e-38 337 262
0.022123558 0.70099998 -0.027039904 1.631248e-38 338 262
0.023352645 0.70099998 -0.027039904 1.8986154e-38 339 262
-0.050608214 0.704 -0.028389972 1.4565099e-38 279 263
-0.049303733 0.70300001 -0.028349647 1.3073729e-38 280 263
-0.047934376 0.70099998 -0.028268991 1.3165925e-38 281 263
-0.046705291 0.70099998 -0.028268991 1.3533581e-38 282 263
-0.04541133 0.69999999 -0.028228667 1.3348831e-38 283 263
-0.044183996 0.69999999 -0.028228667 1.3256618e-38 284 263
-0.042772565 0.69700003 -0.028107686 1.2980031e-38 285 263
-0.041490879 0.69599998 -0.028067358 1.3162977e-38 286 263
-0.040154841 0.69400001 -0.027986705 1.2978945e-38 287 263
-0.03888192 0.69300002 -0.027946379 1.2887103e-38 288 263
-0.03755815 0.69099998 -0.027865725 1.2979297e-38 289 263
-0.036293998 0.69 -0.027825398 1.2887103e-38 290 263
-0.03498251 0.68800002 -0.027744746 1.2794909e-38 291 263
-0.033727121 0.68699998 -0.027704418 1.2703073e-38 292 263
-0.032522578 0.68699998 -0.027704418 1.2610879e-38 293 263
-0.031272452 0.68599999 -0.027664091 1.2609803e-38 294 263
-0.030069664 0.68599999 -0.027664091 1.2609803e-38 295 263
-0.02886688 0.68599999 -0.027664091 1.261052e-38 296 263
-0.027664091 0.68599999 -0.027664091 1.2518326e-38 297 263
-0.026461305 0.68599999 -0.027664091 1.2425773e-38 298 263
-0.025258519 0.68599999 -0.027664091 1.2425773e-38 299 263
-0.023950534 0.68300003 -0.027543113 1.2334662e-38 300 263
-0.022753006 0.68300003 -0.027543113 1.2519053e-38 301 263
-0.02155548 0.68300003 -0.027543113 1.2336122e-38 302 263
-0.020387759 0.68400002 -0.027583439 1.2336122e-38 303 263
-0.019132372 0.68199998 -0.027502786 1.2335772e-38 304 263
-0.017936599 0.68199998 -0.027502786 1.2151741e-38 305 263
-0.016740825 0.68199998 -0.027502786 1.2335035e-38 306 263
-0.015499466 0.68000001 -0.027422134 1.2150644e-38 307 263
-0.014307199 0.68000001 -0.027422134 1.2241746e-38 308 263
-0.013153506 0.68199998 -0.027502786 1.2149192e-38 309 263
-0.011957732 0.68199998 -0.027502786 1.2241385e-38 310 263
-0.01077774 0.68300003 -0.027543113 1.2241385e-38 311 263
-0.0095802136 0.68300003 -0.027543113 1.2425056e-38 312 263
-0.0083826864 0.68300003 -0.027543113 1.2425056e-38 313 263
-0.0071851597 0.68300003 -0.027543113 1.2241743e-38 314 263
-0.0059876335 0.68300003 -0.027543113 1.2149549e-38 315 263
-0.0047971201 0.68400002 -0.027583439 1.233322e-38 316 263
-0.00360836 0.68599999 -0.027664091 1.2425414e-38 317 263
-0.0024055731 0.68599999 -0.027664091 1.2242102e-38 318 263
-0.0012027866 0.68599999 -0.027664091 1.2242102e-38 319 263
0 0.68599999 -0.027664091 1.2425414e-38 320 263
0.0012027866 0.68599999 -0.027664091 1.2425414e-38 321 263
0.0024090798 0.68699998 -0.027704418 1.2426132e-38 322 263
0.0036136196 0.68699998 -0.027704418 1.2518326e-38 323 263
0.0048181596 0.68699998 -0.027704418 1.2335014e-38 324 263
0.0060226996 0.68699998 -0.027704418 1.2427208e-38 325 263
0.0072377604 0.68800002 -0.027744746 1.2703432e-38 326 263
0.0084686 0.69 -0.027825398 1.2703432e-38 327 263
0.0096783992 0.69 -0.027825398 1.2796702e-38 328 263
0.01090398 0.69099998 -0.027865725 1.2980732e-38 329 263
0.012150601 0.69300002 -0.027946379 1.2981458e-38 330 263
0.01336566 0.69300002 -0.027946379 1.3258044e-38 331 263
0.01466488 0.69700003 -0.028107686 1.3166223e-38 332 263
0.015909746 0.69800001 -0.028148014 1.3534647e-38 333 263
0.017133573 0.69800001 -0.028148014 1.3260957e-38 334 263
0.018409999 0.69999999 -0.028228667 1.3353152e-38 335 263
0.019637333 0.69999999 -0.028228667 1.3259547e-38 336 263
0.020894472 0.70099998 -0.028268991 1.6670785e-38 337 263
0.02218668 0.70300001 -0.028349647 1.7142607e-38 338 263
0.023419274 0.70300001 -0.028349647 1.8802128e-38 339 263
-0.050608214 0.704 -0.029624319 1.5393784e-38 279 264
-0.049303733 0.70300001 -0.029582238 1.3166998e-38 280 264
-0.047934376 0.70099998 -0.029498078 1.289077e-38 281 264
-0.046705291 0.70099998 -0.029498078 1.3350985e-38 282 264
-0.04541133 0.69999999 -0.029455997 1.3166593e-38 283 264
-0.044183996 0.69999999 -0.029455997 1.334882e-38 284 264
-0.042833932 0.69800001 -0.029371841 1.3071874e-38 285 264
-0.041550495 0.69700003 -0.02932976 1.3162621e-38 286 264
-0.040270556 0.69599998 -0.029287677 1.3162621e-38 287 264
-0.038938027 0.69400001 -0.029203519 1.2978943e-38 288 264
-0.037666857 0.69300002 -0.029161438 1.2978943e-38 289 264
-0.036293998 0.69 -0.029035198 1.2887103e-38 290 264
-0.03498251 0.68800002 -0.028951041 1.2794909e-38 291 264
-0.033776212 0.68800002 -0.028951041 1.2703073e-38 292 264
-0.032522578 0.68699998 -0.028908957 1.2703073e-38 293 264
-0.031272452 0.68599999 -0.02886688 1.2610879e-38 294 264
-0.030069664 0.68599999 -0.02886688 1.2610879e-38 295 264
-0.02886688 0.68599999 -0.02886688 1.2518326e-38 296 264
-0.027664091 0.68599999 -0.02886688 1.2518326e-38 297 264
-0.026461305 0.68599999 -0.02886688 1.2151343e-38 298 264
-0.025258519 0.68599999 -0.02886688 1.2059149e-38 299 264
-0.023950534 0.68300003 -0.028740639 1.2335014e-38 300 264
-0.022753006 0.68300003 -0.028740639 1.2335014e-38 301 264
-0.02155548 0.68300003 -0.028740639 1.2243561e-38 302 264
-0.020387759 0.68400002 -0.02878272 1.2335756e-38 303 264
-0.019160427 0.68300003 -0.028740639 1.2335406e-38 304 264
-0.017936599 0.68199998 -0.02869856 1.2243211e-38 305 264
-0.016740825 0.68199998 -0.02869856 1.2335391e-38 306 264
-0.015545053 0.68199998 -0.02869856 1.2150641e-38 307 264
-0.01434928 0.68199998 -0.02869856 1.2242102e-38 308 264
-0.013153506 0.68199998 -0.02869856 1.2149908e-38 309 264
-0.011975267 0.68300003 -0.028740639 1.2425773e-38 310 264
-0.01077774 0.68300003 -0.028740639 1.2425773e-38 311 264
-0.0095802136 0.68300003 -0.028740639 1.2425056e-38 312 264
-0.0083826864 0.68300003 -0.028740639 1.2425056e-38 313 264
-0.0071956799 0.68400002 -0.02878272 1.2425414e-38 314 264
-0.0059964 0.68400002 -0.02878272 1.2517609e-38 315 264
-0.0047971201 0.68400002 -0.02878272 1.2517967e-38 316 264
-0.00360836 0.68599999 -0.02886688 1.2517967e-38 317 264
-0.0024055731 0.68599999 -0.02886688 1.2426132e-38 318 264
-0.0012027866 0.68599999 -0.02886688 1.2518326e-38 319 264
0 0.68599999 -0.02886688 1.2517967e-38 320 264
0.0012027866 0.68599999 -0.02886688 1.2517967e-38 321 264
0.0024090798 0.68699998 -0.028908957 1.2517609e-38 322 264
0.0036136196 0.68699998 -0.028908957 1.2517609e-38 323 264
0.0048181596 0.68699998 -0.028908957 1.2427208e-38 324 264
0.0060226996 0.68699998 -0.028908957 1.2519402e-38 325 264
0.0072377604 0.68800002 -0.028951041 1.2703432e-38 326 264
0.0084686 0.69 -0.029035198 1.2795985e-38 327 264
0.0096783992 0.69 -0.029035198 1.2705226e-38 328 264
0.01090398 0.69099998 -0.029077278 1.2889614e-38 329 264
0.012150601 0.69300002 -0.029161438 1.2982177e-38 330 264
