# .PCD v.7 - Point Cloud Data file format
FIELDS x y z rgb imX imY
SIZE 4 4 4 4 4 4
TYPE F F F F F F
COUNT 1 1 1 1 1 1
WIDTH 822
HEIGHT 1
VIEWPOINT 0 0 0 1 0 0 0
POINTS 822
DATA ascii
-0.04560595 0.70300001 -0.0061629666 1.3990586e-38 283 245
-0.044247117 0.70099998 -0.0061454331 1.4083485e-38 284 245
-0.042956665 0.69999999 -0.0061366665 1.4083485e-38 285 245
-0.041610107 0.69800001 -0.006119133 1.4451899e-38 286 245
-0.040386278 0.69800001 -0.006119133 1.4451899e-38 287 245
-0.039050236 0.69599998 -0.0061015999 1.4819255e-38 288 245
-0.037721213 0.69400001 -0.0060840664 1.5003647e-38 289 245
-0.036451802 0.69300002 -0.0060753003 1.4638111e-38 290 245
-0.035236739 0.69300002 -0.0060753003 1.4730307e-38 291 245
-0.033923492 0.69099998 -0.0060577663 1.4913268e-38 292 245
-0.032664597 0.69 -0.0060489997 1.4913268e-38 293 245
-0.031363625 0.68800002 -0.0060314666 1.5186262e-38 294 245
-0.030157333 0.68800002 -0.0060314666 1.5278458e-38 295 245
-0.028951041 0.68800002 -0.0060314666 1.5186593e-38 296 245
-0.027744746 0.68800002 -0.0060314666 1.5002202e-38 297 245
-0.026538454 0.68800002 -0.0060314666 1.5002548e-38 298 245
-0.02533216 0.68800002 -0.0060314666 1.4910354e-38 299 245
-0.024090799 0.68699998 -0.0060226996 1.4725965e-38 300 245
-0.022886258 0.68699998 -0.0060226996 1.4725965e-38 301 245
-0.021681719 0.68699998 -0.0060226996 1.4725965e-38 302 245
-0.020477179 0.68699998 -0.0060226996 1.4818518e-38 303 245
-0.019272638 0.68699998 -0.0060226996 1.4635565e-38 304 245
-0.018041799 0.68599999 -0.0060139326 1.4727759e-38 305 245
-0.016839013 0.68599999 -0.0060139326 1.4820312e-38 306 245
-0.015636226 0.68599999 -0.0060139326 1.4912506e-38 307 245
-0.01443344 0.68599999 -0.0060139326 1.5186936e-38 308 245
-0.013230653 0.68599999 -0.0060139326 1.5186936e-38 309 245
-0.012027865 0.68599999 -0.0060139326 1.4912147e-38 310 245
-0.010825079 0.68599999 -0.0060139326 1.4912147e-38 311 245
-0.0096222926 0.68599999 -0.0060139326 1.4635923e-38 312 245
-0.0084195063 0.68599999 -0.0060139326 1.4635923e-38 313 245
-0.0072167199 0.68599999 -0.0060139326 1.4542653e-38 314 245
-0.0060139326 0.68599999 -0.0060139326 1.4450459e-38 315 245
-0.0048111463 0.68599999 -0.0060139326 1.4541936e-38 316 245
-0.00360836 0.68599999 -0.0060139326 1.4449741e-38 317 245
-0.0024055731 0.68599999 -0.0060139326 1.4541577e-38 318 245
-0.0012027866 0.68599999 -0.0060139326 1.4909995e-38 319 245
0 0.68699998 -0.0060226996 1.47274e-38 320 245
0.0012062934 0.68800002 -0.0060314666 1.4911789e-38 321 245
0.0024195998 0.69 -0.0060489997 1.4729558e-38 322 245
0.0036346598 0.69099998 -0.0060577663 1.4821754e-38 323 245
0.0048462129 0.69099998 -0.0060577663 1.4455146e-38 324 245
0.0060753003 0.69300002 -0.0060753003 1.4639177e-38 325 245
0.0072903596 0.69300002 -0.0060753003 1.4272919e-38 326 245
0.0085176928 0.69400001 -0.0060840664 1.4365114e-38 327 245
0.0097625591 0.69599998 -0.0061015999 1.4550579e-38 328 245
0.010982879 0.69599998 -0.0061015999 1.4827524e-38 329 245
0.0122032 0.69599998 -0.0061015999 1.482931e-38 330 245
0.013442807 0.69700003 -0.0061103669 1.4645279e-38 331 245
0.01468592 0.69800001 -0.006119133 1.473638e-38 332 245
0.015955333 0.69999999 -0.0061366665 1.4183206e-38 333 245
0.017256306 0.70300001 -0.0061629666 1.3534647e-38 334 245
0.018488899 0.70300001 -0.0061629666 1.3534647e-38 335 245
0.019721493 0.70300001 -0.0061629666 1.3087796e-38 336 245
-0.04951413 0.70599997 -0.0074271196 1.0859945e-38 280 246
-0.048139516 0.704 -0.0074060797 1.1505315e-38 281 246
-0.046905171 0.704 -0.0074060797 1.3806177e-38 282 246
-0.04560595 0.70300001 -0.0073955595 1.3898372e-38 283 246
-0.044247117 0.70099998 -0.0073745195 1.4174594e-38 284 246
-0.042956665 0.69999999 -0.0073639993 1.4266788e-38 285 246
-0.041610107 0.69800001 -0.0073429602 1.4542294e-38 286 246
-0.040270556 0.69599998 -0.0073219193 1.44501e-38 287 246
-0.039050236 0.69599998 -0.0073219193 1.4542294e-38 288 246
-0.037721213 0.69400001 -0.0073008798 1.4726683e-38 289 246
-0.036451802 0.69300002 -0.0072903596 1.4451535e-38 290 246
-0.035135046 0.69099998 -0.0072693196 1.4727759e-38 291 246
-0.033923492 0.69099998 -0.0072693196 1.5002549e-38 292 246
-0.032664597 0.69 -0.0072587994 1.5002549e-38 293 246
-0.031363625 0.68800002 -0.0072377604 1.5001836e-38 294 246
-0.030157333 0.68800002 -0.0072377604 1.5001836e-38 295 246
-0.028951041 0.68800002 -0.0072377604 1.4909636e-38 296 246
-0.027744746 0.68800002 -0.0072377604 1.4817442e-38 297 246
-0.026538454 0.68800002 -0.0072377604 1.4725965e-38 298 246
-0.025295338 0.68699998 -0.0072272392 1.4725965e-38 299 246
-0.024090799 0.68699998 -0.0072272392 1.4725965e-38 300 246
-0.022886258 0.68699998 -0.0072272392 1.4725965e-38 301 246
-0.021681719 0.68699998 -0.0072272392 1.4634847e-38 302 246
-0.020477179 0.68699998 -0.0072272392 1.4634847e-38 303 246
-0.019272638 0.68699998 -0.0072272392 1.4542653e-38 304 246
-0.0179892 0.68400002 -0.0071956799 1.4634847e-38 305 246
-0.016789921 0.68400002 -0.0071956799 1.4909636e-38 306 246
-0.01559064 0.68400002 -0.0071956799 1.5370607e-38 307 246
-0.01439136 0.68400002 -0.0071956799 1.5095101e-38 308 246
-0.01319208 0.68400002 -0.0071956799 1.5095101e-38 309 246
-0.0119928 0.68400002 -0.0071956799 1.4820312e-38 310 246
-0.01079352 0.68400002 -0.0071956799 1.4635923e-38 311 246
-0.0095942402 0.68400002 -0.0071956799 1.4541936e-38 312 246
-0.0083949603 0.68400002 -0.0071956799 1.4541936e-38 313 246
-0.0072167199 0.68599999 -0.0072167199 1.4266788e-38 314 246
-0.0060139326 0.68599999 -0.0072167199 1.4082399e-38 315 246
-0.0048111463 0.68599999 -0.0072167199 1.4357906e-38 316 246
-0.00360836 0.68599999 -0.0072167199 1.4357906e-38 317 246
-0.0024055731 0.68599999 -0.0072167199 1.4541577e-38 318 246
-0.0012027866 0.68599999 -0.0072167199 1.4725965e-38 319 246
0 0.68699998 -0.0072272392 1.4725965e-38 320 246
0.0012062934 0.68800002 -0.0072377604 1.5094742e-38 321 246
0.0024195998 0.69 -0.0072587994 1.4637e-38 322 246
0.0036293997 0.69 -0.0072587994 1.4729194e-38 323 246
0.0048462129 0.69099998 -0.0072693196 1.4454769e-38 324 246
0.0060577663 0.69099998 -0.0072693196 1.4546965e-38 325 246
0.0072903596 0.69300002 -0.0072903596 1.4456218e-38 326 246
0.0085054198 0.69300002 -0.0072903596 1.4548414e-38 327 246
0.0097345067 0.69400001 -0.0073008798 1.4550932e-38 328 246
0.01095132 0.69400001 -0.0073008798 1.4827878e-38 329 246
0.012168133 0.69400001 -0.0073008798 1.4828959e-38 330 246
0.013423519 0.69599998 -0.0073219193 1.4828959e-38 331 246
0.01466488 0.69700003 -0.00733244 1.4645647e-38 332 246
0.015909746 0.69800001 -0.0073429602 1.4092475e-38 333 246
0.017207211 0.70099998 -0.0073745195 1.3722263e-38 334 246
0.018488899 0.70300001 -0.0073955595 1.20631e-38 335 246
0.019721493 0.70300001 -0.0073955595 1.1514685e-38 336 246
0.020954086 0.70300001 -0.0073955595 1.6954229e-38 337 246
-0.04951413 0.70599997 -0.0086649731 1.150387e-38 280 247
-0.048276275 0.70599997 -0.0086649731 1.2333631e-38 281 247
-0.046905171 0.704 -0.0086404262 1.3622863e-38 282 247
-0.045476202 0.70099998 -0.0086036054 1.3899447e-38 283 247
-0.044183996 0.69999999 -0.0085913334 1.3991999e-38 284 247
-0.042833932 0.69800001 -0.0085667865 1.3899805e-38 285 247
-0.041550495 0.69700003 -0.0085545136 1.4357547e-38 286 247
-0.040270556 0.69599998 -0.0085422397 1.4265353e-38 287 247
-0.038938027 0.69400001 -0.0085176928 1.4082043e-38 288 247
-0.037666857 0.69300002 -0.0085054198 1.4082043e-38 289 247
-0.036346599 0.69099998 -0.008480873 1.4174612e-38 290 247
-0.035135046 0.69099998 -0.008480873 1.4358644e-38 291 247
-0.0338744 0.69 -0.0084686 1.445083e-38 292 247
-0.032569919 0.68800002 -0.0084440531 1.445083e-38 293 247
-0.031363625 0.68800002 -0.0084440531 1.4358633e-38 294 247
-0.030157333 0.68800002 -0.0084440531 1.445083e-38 295 247
-0.028951041 0.68800002 -0.0084440531 1.4176387e-38 296 247
-0.027744746 0.68800002 -0.0084440531 1.4084193e-38 297 247
-0.026538454 0.68800002 -0.0084440531 1.4359341e-38 298 247
-0.025295338 0.68699998 -0.0084317802 1.4359341e-38 299 247
-0.024090799 0.68699998 -0.0084317802 1.4267864e-38 300 247
-0.022852944 0.68599999 -0.0084195063 1.4267864e-38 301 247
-0.021650158 0.68599999 -0.0084195063 1.4359341e-38 302 247
-0.020447372 0.68599999 -0.0084195063 1.4266788e-38 303 247
-0.01918848 0.68400002 -0.0083949603 1.4449741e-38 304 247
-0.017962901 0.68300003 -0.0083826864 1.4542294e-38 305 247
-0.016765373 0.68300003 -0.0083826864 1.445118e-38 306 247
-0.015567848 0.68300003 -0.0083826864 1.4543376e-38 307 247
-0.01439136 0.68400002 -0.0083949603 1.4358983e-38 308 247
-0.01319208 0.68400002 -0.0083949603 1.445118e-38 309 247
-0.0119928 0.68400002 -0.0083949603 1.4267147e-38 310 247
-0.01079352 0.68400002 -0.0083949603 1.4174952e-38 311 247
-0.0095942402 0.68400002 -0.0083949603 1.4082041e-38 312 247
-0.0083949603 0.68400002 -0.0083949603 1.3989846e-38 313 247
-0.0071956799 0.68400002 -0.0083949603 1.4081682e-38 314 247
-0.0060139326 0.68599999 -0.0084195063 1.4265712e-38 315 247
-0.0048111463 0.68599999 -0.0084195063 1.4082399e-38 316 247
-0.00360836 0.68599999 -0.0084195063 1.4082399e-38 317 247
-0.0024055731 0.68599999 -0.0084195063 1.4265353e-38 318 247
-0.0012027866 0.68599999 -0.0084195063 1.4542294e-38 319 247
0 0.68599999 -0.0084195063 1.417567e-38 320 247
0.0012045399 0.68699998 -0.0084317802 1.4451897e-38 321 247
0.0024125867 0.68800002 -0.0084440531 1.4085638e-38 322 247
0.0036293997 0.69 -0.0084686 1.4270029e-38 323 247
0.0048391996 0.69 -0.0084686 1.4271104e-38 324 247
0.0060577663 0.69099998 -0.008480873 1.4455496e-38 325 247
0.0072693196 0.69099998 -0.008480873 1.4273272e-38 326 247
0.008480873 0.69099998 -0.008480873 1.4457663e-38 327 247
0.0097204801 0.69300002 -0.0085054198 1.4367635e-38 328 247
0.010935539 0.69300002 -0.0085054198 1.4644222e-38 329 247
0.012168133 0.69400001 -0.0085176928 1.4644942e-38 330 247
0.013384946 0.69400001 -0.0085176928 1.4644942e-38 331 247
0.01466488 0.69700003 -0.0085545136 1.455273e-38 332 247
0.015909746 0.69800001 -0.0085667865 1.4368339e-38 333 247
0.017182667 0.69999999 -0.0085913334 1.3999183e-38 334 247
0.018436298 0.70099998 -0.0086036054 1.261626e-38 335 247
0.019665385 0.70099998 -0.0086036054 1.1966643e-38 336 247
0.020954086 0.70300001 -0.0086281532 1.666862e-38 337 247
-0.050751984 0.70599997 -0.0099028256 1.0693964e-38 279 248
-0.04951413 0.70599997 -0.0099028256 1.1964125e-38 280 248
-0.048276275 0.70599997 -0.0099028256 1.2793887e-38 281 248
-0.046905171 0.704 -0.0098747732 1.3530313e-38 282 248
-0.045476202 0.70099998 -0.0098326923 1.3530313e-38 283 248
-0.044183996 0.69999999 -0.0098186666 1.389837e-38 284 248
-0.042833932 0.69800001 -0.0097906133 1.389837e-38 285 248
-0.041550495 0.69700003 -0.0097765867 1.4264277e-38 286 248
-0.040154841 0.69400001 -0.0097345067 1.4264277e-38 287 248
-0.038938027 0.69400001 -0.0097345067 1.4172082e-38 288 248
-0.037666857 0.69300002 -0.0097204801 1.4172082e-38 289 248
-0.036346599 0.69099998 -0.0096924258 1.4265353e-38 290 248
-0.035135046 0.69099998 -0.0096924258 1.4449741e-38 291 248
-0.0338744 0.69 -0.0096783992 1.44501e-38 292 248
-0.032569919 0.68800002 -0.0096503468 1.44501e-38 293 248
-0.031363625 0.68800002 -0.0096503468 1.44501e-38 294 248
-0.030157333 0.68800002 -0.0096503468 1.44501e-38 295 248
-0.028951041 0.68800002 -0.0096503468 1.4266788e-38 296 248
-0.027744746 0.68800002 -0.0096503468 1.4174594e-38 297 248
-0.026538454 0.68800002 -0.0096503468 1.4357906e-38 298 248
-0.025295338 0.68699998 -0.0096363192 1.44501e-38 299 248
-0.024090799 0.68699998 -0.0096363192 1.4266788e-38 300 248
-0.022852944 0.68599999 -0.0096222926 1.4266788e-38 301 248
-0.02158704 0.68400002 -0.0095942402 1.4449383e-38 302 248
-0.020387759 0.68400002 -0.0095942402 1.4357188e-38 303 248
-0.019160427 0.68300003 -0.0095802136 1.4265353e-38 304 248
-0.017962901 0.68300003 -0.0095802136 1.4265353e-38 305 248
-0.016765373 0.68300003 -0.0095802136 1.4357188e-38 306 248
-0.015567848 0.68300003 -0.0095802136 1.4357188e-38 307 248
-0.014370319 0.68300003 -0.0095802136 1.4263918e-38 308 248
-0.013172794 0.68300003 -0.0095802136 1.4263918e-38 309 248
-0.011975267 0.68300003 -0.0095802136 1.4264277e-38 310 248
-0.01077774 0.68300003 -0.0095802136 1.4172082e-38 311 248
-0.0095802136 0.68300003 -0.0095802136 1.4080247e-38 312 248
-0.0083826864 0.68300003 -0.0095802136 1.4080247e-38 313 248
-0.0071851597 0.68300003 -0.0095802136 1.3989129e-38 314 248
-0.0059964 0.68400002 -0.0095942402 1.3989129e-38 315 248
-0.0047971201 0.68400002 -0.0095942402 1.3989129e-38 316 248
-0.00359784 0.68400002 -0.0095942402 1.4081323e-38 317 248
-0.0024055731 0.68599999 -0.0096222926 1.4081323e-38 318 248
-0.0012027866 0.68599999 -0.0096222926 1.4357906e-38 319 248
0 0.68599999 -0.0096222926 1.4083834e-38 320 248
0.0012027866 0.68599999 -0.0096222926 1.4360058e-38 321 248
0.0024090798 0.68699998 -0.0096363192 1.4177108e-38 322 248
0.0036188802 0.68800002 -0.0096503468 1.4453694e-38 323 248
0.0048251734 0.68800002 -0.0096503468 1.4270748e-38 324 248
0.0060489997 0.69 -0.0096783992 1.4455499e-38 325 248
0.0072587994 0.69 -0.0096783992 1.4273272e-38 326 248
0.008480873 0.69099998 -0.0096924258 1.4273272e-38 327 248
0.0096924258 0.69099998 -0.0096924258 1.4274721e-38 328 248
0.010935539 0.69300002 -0.0097204801 1.4643143e-38 329 248
0.012150601 0.69300002 -0.0097204801 1.4644592e-38 330 248
0.01336566 0.69300002 -0.0097204801 1.4644592e-38 331 248
0.014643839 0.69599998 -0.0097625591 1.446163e-38 332 248
0.015886955 0.69700003 -0.0097765867 1.4277237e-38 333 248
0.017182667 0.69999999 -0.0098186666 1.4000275e-38 334 248
0.018436298 0.70099998 -0.0098326923 1.3078319e-38 335 248
0.019721493 0.70300001 -0.0098607466 1.2794603e-38 336 248
0.020954086 0.70300001 -0.0098607466 1.5837058e-38 337 248
-0.051989835 0.70599997 -0.011140679 1.3826085e-38 278 249
-0.050751984 0.70599997 -0.011140679 9.3084992e-39 279 249
-0.04951413 0.70599997 -0.011140679 1.2515846e-38 280 249
-0.048276275 0.70599997 -0.011140679 1.3345965e-38 281 249
-0.046838548 0.70300001 -0.01109334 1.3530313e-38 282 249
-0.045476202 0.70099998 -0.011061779 1.3622867e-38 283 249
-0.044183996 0.69999999 -0.011045999 1.3805817e-38 284 249
-0.042833932 0.69800001 -0.01101444 1.3713264e-38 285 249
-0.041550495 0.69700003 -0.01099866 1.4080606e-38 286 249
-0.040154841 0.69400001 -0.01095132 1.3896217e-38 287 249
-0.038938027 0.69400001 -0.01095132 1.3895859e-38 288 249
-0.037666857 0.69300002 -0.010935539 1.3895859e-38 289 249
-0.036346599 0.69099998 -0.01090398 1.3897293e-38 290 249
-0.035084199 0.69 -0.010888199 1.4081682e-38 291 249
-0.033776212 0.68800002 -0.010856641 1.4265353e-38 292 249
-0.032569919 0.68800002 -0.010856641 1.4265353e-38 293 249
-0.031363625 0.68800002 -0.010856641 1.4081323e-38 294 249
-0.030157333 0.68800002 -0.010856641 1.4265353e-38 295 249
-0.028908957 0.68699998 -0.010840859 1.4082041e-38 296 249
-0.027704418 0.68699998 -0.010840859 1.3897652e-38 297 249
-0.026499879 0.68699998 -0.010840859 1.4265353e-38 298 249
-0.025295338 0.68699998 -0.010840859 1.4265353e-38 299 249
-0.024055731 0.68599999 -0.010825079 1.4265712e-38 300 249
-0.022786319 0.68400002 -0.01079352 1.4265712e-38 301 249
-0.02158704 0.68400002 -0.01079352 1.4082041e-38 302 249
-0.020387759 0.68400002 -0.01079352 1.4082041e-38 303 249
-0.019160427 0.68300003 -0.01077774 1.4082041e-38 304 249
-0.017962901 0.68300003 -0.01077774 1.4082041e-38 305 249
-0.016765373 0.68300003 -0.01077774 1.3896935e-38 306 249
-0.015567848 0.68300003 -0.01077774 1.3989129e-38 307 249
-0.014370319 0.68300003 -0.01077774 1.3895501e-38 308 249
-0.013172794 0.68300003 -0.01077774 1.3895501e-38 309 249
-0.011975267 0.68300003 -0.01077774 1.3712546e-38 310 249
-0.01077774 0.68300003 -0.01077774 1.3620352e-38 311 249
-0.0095802136 0.68300003 -0.01077774 1.3804382e-38 312 249
-0.0083826864 0.68300003 -0.01077774 1.3896576e-38 313 249
-0.0071851597 0.68300003 -0.01077774 1.3713264e-38 314 249
-0.0059964 0.68400002 -0.01079352 1.3713264e-38 315 249
-0.0047971201 0.68400002 -0.01079352 1.3713264e-38 316 249
-0.00359784 0.68400002 -0.01079352 1.3897652e-38 317 249
-0.0023985601 0.68400002 -0.01079352 1.3897293e-38 318 249
-0.00119928 0.68400002 -0.01079352 1.4082041e-38 319 249
0 0.68599999 -0.010825079 1.3898728e-38 320 249
0.0012027866 0.68599999 -0.010825079 1.4175315e-38 321 249
0.0024090798 0.68699998 -0.010840859 1.3992739e-38 322 249
0.0036136196 0.68699998 -0.010840859 1.417713e-38 323 249
0.0048251734 0.68800002 -0.010856641 1.3995255e-38 324 249
0.0060314666 0.68800002 -0.010856641 1.4179648e-38 325 249
0.0072377604 0.68800002 -0.010856641 1.418037e-38 326 249
0.0084686 0.69 -0.010888199 1.4364761e-38 327 249
0.0096924258 0.69099998 -0.01090398 1.4274014e-38 328 249
0.01090398 0.69099998 -0.01090398 1.4550241e-38 329 249
0.012115533 0.69099998 -0.01090398 1.4276178e-38 330 249
0.01336566 0.69300002 -0.010935539 1.4368732e-38 331 249
0.014643839 0.69599998 -0.010982879 1.436908e-38 332 249
0.015886955 0.69700003 -0.01099866 1.4276884e-38 333 249
0.017133573 0.69800001 -0.01101444 1.4000282e-38 334 249
0.0183574 0.69800001 -0.01101444 1.3170161e-38 335 249
0.019665385 0.70099998 -0.011061779 1.2979704e-38 336 249
0.020894472 0.70099998 -0.011061779 1.5008007e-38 337 249
-0.051989835 0.70599997 -0.012378532 1.3270018e-38 278 250
-0.050751984 0.70599997 -0.012378532 9.3056055e-39 279 250
-0.04951413 0.70599997 -0.012378532 1.3068287e-38 280 250
-0.048276275 0.70599997 -0.012378532 1.3529265e-38 281 250
-0.046838548 0.70300001 -0.012325933 1.3530319e-38 282 250
-0.045476202 0.70099998 -0.012290866 1.3530319e-38 283 250
-0.044183996 0.69999999 -0.012273333 1.3713264e-38 284 250
-0.042833932 0.69800001 -0.012238266 1.3621069e-38 285 250
-0.041550495 0.69700003 -0.012220734 1.3986977e-38 286 250
-0.040154841 0.69400001 -0.012168133 1.3986977e-38 287 250
-0.03888192 0.69300002 -0.012150601 1.371147e-38 288 250
-0.037666857 0.69300002 -0.012150601 1.3803664e-38 289 250
-0.036346599 0.69099998 -0.012115533 1.3713264e-38 290 250
-0.035084199 0.69 -0.012097999 1.3897652e-38 291 250
-0.033776212 0.68800002 -0.012062933 1.3713264e-38 292 250
-0.032569919 0.68800002 -0.012062933 1.3713264e-38 293 250
-0.031363625 0.68800002 -0.012062933 1.3713264e-38 294 250
-0.030113498 0.68699998 -0.012045399 1.3713264e-38 295 250
-0.028908957 0.68699998 -0.012045399 1.3897652e-38 296 250
-0.027704418 0.68699998 -0.012045399 1.3989846e-38 297 250
-0.026499879 0.68699998 -0.012045399 1.3898728e-38 298 250
-0.025258519 0.68599999 -0.012027865 1.3898728e-38 299 250
-0.024055731 0.68599999 -0.012027865 1.3806534e-38 300 250
-0.022786319 0.68400002 -0.0119928 1.371434e-38 301 250
-0.02158704 0.68400002 -0.0119928 1.3713981e-38 302 250
-0.020357953 0.68300003 -0.011975267 1.3806534e-38 303 250
-0.019132372 0.68199998 -0.011957732 1.3713981e-38 304 250
-0.017936599 0.68199998 -0.011957732 1.3621787e-38 305 250
-0.016765373 0.68300003 -0.011975267 1.3713264e-38 306 250
-0.015567848 0.68300003 -0.011975267 1.3713264e-38 307 250
-0.014370319 0.68300003 -0.011975267 1.3804382e-38 308 250
-0.013172794 0.68300003 -0.011975267 1.3804382e-38 309 250
-0.011975267 0.68300003 -0.011975267 1.3528875e-38 310 250
-0.01077774 0.68300003 -0.011975267 1.3528875e-38 311 250
-0.0095802136 0.68300003 -0.011975267 1.3529593e-38 312 250
-0.0083826864 0.68300003 -0.011975267 1.3529593e-38 313 250
-0.0071851597 0.68300003 -0.011975267 1.3528875e-38 314 250
-0.0059876335 0.68300003 -0.011975267 1.3528875e-38 315 250
-0.0047901068 0.68300003 -0.011975267 1.3529234e-38 316 250
-0.00359784 0.68400002 -0.0119928 1.3621428e-38 317 250
-0.0023985601 0.68400002 -0.0119928 1.3621428e-38 318 250
-0.00119928 0.68400002 -0.0119928 1.3805817e-38 319 250
0 0.68599999 -0.012027865 1.3622867e-38 320 250
0.0012027866 0.68599999 -0.012027865 1.399129e-38 321 250
0.0024090798 0.68699998 -0.012045399 1.371688e-38 322 250
0.0036136196 0.68699998 -0.012045399 1.3993107e-38 323 250
0.0048251734 0.68800002 -0.012062933 1.3994908e-38 324 250
0.0060314666 0.68800002 -0.012062933 1.4179301e-38 325 250
0.0072377604 0.68800002 -0.012062933 1.3997426e-38 326 250
0.0084686 0.69 -0.012097999 1.3997426e-38 327 250
0.0096924258 0.69099998 -0.012115533 1.3998149e-38 328 250
0.01090398 0.69099998 -0.012115533 1.418254e-38 329 250
0.012115533 0.69099998 -0.012115533 1.4091789e-38 330 250
0.01336566 0.69300002 -0.012150601 1.4183985e-38 331 250
0.01460176 0.69400001 -0.012168133 1.4092868e-38 332 250
0.015864158 0.69599998 -0.0122032 1.3908477e-38 333 250
0.017109027 0.69700003 -0.012220734 1.3999578e-38 334 250
0.018331099 0.69700003 -0.012220734 1.3446405e-38 335 250
0.019637333 0.69999999 -0.012273333 1.3257367e-38 336 250
0.020864666 0.69999999 -0.012273333 1.4271158e-38 337 250
-0.05206348 0.70700002 -0.013635674 1.2532084e-38 278 251
-0.050823875 0.70700002 -0.013635674 9.5818239e-39 279 251
-0.04951413 0.70599997 -0.013616386 1.3069359e-38 280 251
-0.048276275 0.70599997 -0.013616386 1.3253751e-38 281 251
-0.046905171 0.704 -0.013577812 1.3529596e-38 282 251
-0.04541133 0.69999999 -0.013500666 1.3529596e-38 283 251
-0.04405776 0.69800001 -0.013462093 1.3712905e-38 284 251
-0.042772565 0.69700003 -0.013442807 1.3528517e-38 285 251
-0.041490879 0.69599998 -0.013423519 1.3986618e-38 286 251
-0.040154841 0.69400001 -0.013384946 1.3986618e-38 287 251
-0.03888192 0.69300002 -0.01336566 1.3711829e-38 288 251
-0.03755815 0.69099998 -0.013327086 1.3804382e-38 289 251
-0.036293998 0.69 -0.0133078 1.3713264e-38 290 251
-0.035084199 0.69 -0.0133078 1.3713264e-38 291 251
-0.033776212 0.68800002 -0.013269227 1.3621069e-38 292 251
-0.032569919 0.68800002 -0.013269227 1.3713264e-38 293 251
-0.031363625 0.68800002 -0.013269227 1.3621787e-38 294 251
-0.030113498 0.68699998 -0.013249939 1.3621787e-38 295 251
-0.028908957 0.68699998 -0.013249939 1.3621787e-38 296 251
-0.027664091 0.68599999 -0.013230653 1.3713981e-38 297 251
-0.02638416 0.68400002 -0.01319208 1.3713981e-38 298 251
-0.025184879 0.68400002 -0.01319208 1.3621787e-38 299 251
-0.0239856 0.68400002 -0.01319208 1.3621787e-38 300 251
-0.022753006 0.68300003 -0.013172794 1.3529593e-38 301 251
-0.02155548 0.68300003 -0.013172794 1.3529593e-38 302 251
-0.020357953 0.68300003 -0.013172794 1.3621787e-38 303 251
-0.019132372 0.68199998 -0.013153506 1.3621069e-38 304 251
-0.017936599 0.68199998 -0.013153506 1.3897652e-38 305 251
-0.016765373 0.68300003 -0.013172794 1.3531028e-38 306 251
-0.015567848 0.68300003 -0.013172794 1.3531028e-38 307 251
-0.014370319 0.68300003 -0.013172794 1.3621787e-38 308 251
-0.013172794 0.68300003 -0.013172794 1.3529593e-38 309 251
-0.011975267 0.68300003 -0.013172794 1.3528875e-38 310 251
-0.01077774 0.68300003 -0.013172794 1.3621069e-38 311 251
-0.0095802136 0.68300003 -0.013172794 1.3345922e-38 312 251
-0.0083704125 0.68199998 -0.013153506 1.3253728e-38 313 251
-0.00717464 0.68199998 -0.013153506 1.3529593e-38 314 251
-0.0059876335 0.68300003 -0.013172794 1.3529593e-38 315 251
-0.0047901068 0.68300003 -0.013172794 1.3253728e-38 316 251
-0.0035925799 0.68300003 -0.013172794 1.3345922e-38 317 251
-0.0023985601 0.68400002 -0.01319208 1.3529234e-38 318 251
-0.00119928 0.68400002 -0.01319208 1.3713622e-38 319 251
0 0.68599999 -0.013230653 1.3347357e-38 320 251
0.0012027866 0.68599999 -0.013230653 1.3623583e-38 321 251
0.0024090798 0.68699998 -0.013249939 1.3532116e-38 322 251
0.0036136196 0.68699998 -0.013249939 1.390054e-38 323 251
0.0048181596 0.68699998 -0.013249939 1.3810864e-38 324 251
0.0060314666 0.68800002 -0.013269227 1.3995255e-38 325 251
0.0072377604 0.68800002 -0.013269227 1.3996702e-38 326 251
0.0084686 0.69 -0.0133078 1.3996702e-38 327 251
0.0096783992 0.69 -0.0133078 1.3813758e-38 328 251
0.01090398 0.69099998 -0.013327086 1.3998149e-38 329 251
0.012115533 0.69099998 -0.013327086 1.3998875e-38 330 251
0.01336566 0.69300002 -0.01336566 1.4091071e-38 331 251
0.01460176 0.69400001 -0.013384946 1.4091787e-38 332 251
0.015864158 0.69599998 -0.013423519 1.3999591e-38 333 251
0.017109027 0.69700003 -0.013442807 1.3814827e-38 334 251
0.018331099 0.69700003 -0.013442807 1.3446405e-38 335 251
0.019637333 0.69999999 -0.013500666 1.3258436e-38 336 251
0.020864666 0.69999999 -0.013500666 1.3258436e-38 337 251
-0.05206348 0.70700002 -0.01487528 1.2437365e-38 278 252
-0.050823875 0.70700002 -0.01487528 1.0316865e-38 279 252
-0.04951413 0.70599997 -0.014854239 1.3254823e-38 280 252
-0.048276275 0.70599997 -0.014854239 1.3347019e-38 281 252
-0.046905171 0.704 -0.014812159 1.3438116e-38 282 252
-0.04541133 0.69999999 -0.014727999 1.3345922e-38 283 252
-0.04405776 0.69800001 -0.01468592 1.3620711e-38 284 252
-0.042772565 0.69700003 -0.01466488 1.3620711e-38 285 252
-0.041490879 0.69599998 -0.014643839 1.3712188e-38 286 252
-0.040154841 0.69400001 -0.01460176 1.3712188e-38 287 252
-0.03888192 0.69300002 -0.014580719 1.3713264e-38 288 252
-0.03755815 0.69099998 -0.014538639 1.3897652e-38 289 252
-0.036293998 0.69 -0.014517599 1.3621787e-38 290 252
-0.035084199 0.69 -0.014517599 1.3621787e-38 291 252
-0.033776212 0.68800002 -0.014475521 1.3438475e-38 292 252
-0.032569919 0.68800002 -0.014475521 1.3438475e-38 293 252
-0.031318039 0.68699998 -0.014454478 1.3438475e-38 294 252
-0.030113498 0.68699998 -0.014454478 1.3438475e-38 295 252
-0.028908957 0.68699998 -0.014454478 1.3621787e-38 296 252
-0.027664091 0.68599999 -0.01443344 1.3529593e-38 297 252
-0.02638416 0.68400002 -0.01439136 1.3529234e-38 298 252
-0.025184879 0.68400002 -0.01439136 1.3529234e-38 299 252
-0.0239856 0.68400002 -0.01439136 1.3346639e-38 300 252
-0.022753006 0.68300003 -0.014370319 1.3254445e-38 301 252
-0.02155548 0.68300003 -0.014370319 1.3529593e-38 302 252
-0.020357953 0.68300003 -0.014370319 1.3437398e-38 303 252
-0.019132372 0.68199998 -0.01434928 1.3529593e-38 304 252
-0.017936599 0.68199998 -0.01434928 1.3621787e-38 305 252
-0.016765373 0.68300003 -0.014370319 1.3439192e-38 306 252
-0.015567848 0.68300003 -0.014370319 1.3439192e-38 307 252
-0.014370319 0.68300003 -0.014370319 1.3346998e-38 308 252
-0.013172794 0.68300003 -0.014370319 1.3254804e-38 309 252
-0.011975267 0.68300003 -0.014370319 1.334628e-38 310 252
-0.01077774 0.68300003 -0.014370319 1.334628e-38 311 252
-0.009566186 0.68199998 -0.01434928 1.3345922e-38 312 252
-0.0083704125 0.68199998 -0.01434928 1.3345922e-38 313 252
-0.00717464 0.68199998 -0.01434928 1.3254445e-38 314 252
-0.005978866 0.68199998 -0.01434928 1.3254445e-38 315 252
-0.004783093 0.68199998 -0.01434928 1.3254445e-38 316 252
-0.0035925799 0.68300003 -0.014370319 1.3254445e-38 317 252
-0.0023950534 0.68300003 -0.014370319 1.334628e-38 318 252
-0.0011975267 0.68300003 -0.014370319 1.3438475e-38 319 252
0 0.68400002 -0.01439136 1.3072212e-38 320 252
0.0012027866 0.68599999 -0.01443344 1.3164407e-38 321 252
0.0024090798 0.68699998 -0.014454478 1.3256972e-38 322 252
0.0036136196 0.68699998 -0.014454478 1.3441363e-38 323 252
0.0048181596 0.68699998 -0.014454478 1.3351335e-38 324 252
0.0060226996 0.68699998 -0.014454478 1.3720116e-38 325 252
0.0072377604 0.68800002 -0.014475521 1.3629367e-38 326 252
0.0084440531 0.68800002 -0.014475521 1.3629367e-38 327 252
0.0096783992 0.69 -0.014517599 1.3630448e-38 328 252
0.01090398 0.69099998 -0.014538639 1.3630448e-38 329 252
0.012115533 0.69099998 -0.014538639 1.3906323e-38 330 252
0.01336566 0.69300002 -0.014580719 1.3998519e-38 331 252
0.01460176 0.69400001 -0.01460176 1.3906326e-38 332 252
0.015864158 0.69599998 -0.014643839 1.3906326e-38 333 252
0.017109027 0.69700003 -0.01466488 1.3721212e-38 334 252
0.018331099 0.69700003 -0.01466488 1.3536462e-38 335 252
0.019581227 0.69800001 -0.01468592 1.3351706e-38 336 252
0.020805053 0.69800001 -0.01468592 1.289073e-38 337 252
-0.05206348 0.70700002 -0.016114887 1.2712512e-38 278 253
-0.050823875 0.70700002 -0.016114887 1.068385e-38 279 253
-0.04951413 0.70599997 -0.016092092 1.2977886e-38 280 253
-0.048139516 0.704 -0.016046507 1.3161919e-38 281 253
-0.046838548 0.70300001 -0.016023712 1.3345567e-38 282 253
-0.04541133 0.69999999 -0.015955333 1.3253372e-38 283 253
-0.04405776 0.69800001 -0.015909746 1.3528517e-38 284 253
-0.042772565 0.69700003 -0.015886955 1.3528517e-38 285 253
-0.041490879 0.69599998 -0.015864158 1.3528875e-38 286 253
-0.040154841 0.69400001 -0.015818574 1.3528875e-38 287 253
-0.03888192 0.69300002 -0.015795778 1.3528875e-38 288 253
-0.03755815 0.69099998 -0.015750192 1.3621069e-38 289 253
-0.036346599 0.69099998 -0.015750192 1.3621787e-38 290 253
-0.035084199 0.69 -0.015727401 1.3621787e-38 291 253
-0.033776212 0.68800002 -0.015681813 1.3346998e-38 292 253
-0.032522578 0.68699998 -0.015659019 1.3439192e-38 293 253
-0.031318039 0.68699998 -0.015659019 1.3439192e-38 294 253
-0.030113498 0.68699998 -0.015659019 1.3254804e-38 295 253
-0.02886688 0.68599999 -0.015636226 1.3529593e-38 296 253
-0.027543113 0.68300003 -0.015567848 1.3437398e-38 297 253
-0.026345588 0.68300003 -0.015567848 1.3529593e-38 298 253
-0.02514806 0.68300003 -0.015567848 1.3621787e-38 299 253
-0.0239856 0.68400002 -0.01559064 1.3439192e-38 300 253
-0.022786319 0.68400002 -0.01559064 1.3346998e-38 301 253
-0.02158704 0.68400002 -0.01559064 1.334628e-38 302 253
-0.020357953 0.68300003 -0.015567848 1.334628e-38 303 253
-0.019160427 0.68300003 -0.015567848 1.3438475e-38 304 253
-0.017962901 0.68300003 -0.015567848 1.3438475e-38 305 253
-0.016765373 0.68300003 -0.015567848 1.3621787e-38 306 253
-0.015567848 0.68300003 -0.015567848 1.3437398e-38 307 253
-0.014370319 0.68300003 -0.015567848 1.3437398e-38 308 253
-0.013172794 0.68300003 -0.015567848 1.325301e-38 309 253
-0.011975267 0.68300003 -0.015567848 1.3253728e-38 310 253
-0.01077774 0.68300003 -0.015567848 1.3161533e-38 311 253
-0.009566186 0.68199998 -0.015545053 1.325301e-38 312 253
-0.0083704125 0.68199998 -0.015545053 1.3437398e-38 313 253
-0.00717464 0.68199998 -0.015545053 1.3253728e-38 314 253
-0.005978866 0.68199998 -0.015545053 1.3161533e-38 315 253
-0.004783093 0.68199998 -0.015545053 1.3253728e-38 316 253
-0.0035925799 0.68300003 -0.015567848 1.3253728e-38 317 253
-0.0023950534 0.68300003 -0.015567848 1.3254445e-38 318 253
-0.0011975267 0.68300003 -0.015567848 1.3254445e-38 319 253
0 0.68400002 -0.01559064 1.3254445e-38 320 253
0.0012027866 0.68599999 -0.015636226 1.3438833e-38 321 253
0.0024090798 0.68699998 -0.015659019 1.3348074e-38 322 253
0.0036136196 0.68699998 -0.015659019 1.3532464e-38 323 253
0.0048181596 0.68699998 -0.015659019 1.3441719e-38 324 253
0.0060226996 0.68699998 -0.015659019 1.3717947e-38 325 253
0.0072377604 0.68800002 -0.015681813 1.3536798e-38 326 253
0.0084440531 0.68800002 -0.015681813 1.3536798e-38 327 253
0.0096783992 0.69 -0.015727401 1.3538603e-38 328 253
0.010888199 0.69 -0.015727401 1.3538603e-38 329 253
0.012115533 0.69099998 -0.015750192 1.3814111e-38 330 253
0.01336566 0.69300002 -0.015795778 1.3814111e-38 331 253
0.01460176 0.69400001 -0.015818574 1.3996702e-38 332 253
0.015864158 0.69599998 -0.015864158 1.381231e-38 333 253
0.017109027 0.69700003 -0.015886955 1.3811593e-38 334 253
0.018331099 0.69700003 -0.015886955 1.3719397e-38 335 253
0.019581227 0.69800001 -0.015909746 1.3719414e-38 336 253
0.020864666 0.69999999 -0.015955333 1.3719414e-38 337 253
-0.051989835 0.70599997 -0.017329946 1.2897267e-38 278 254
-0.050751984 0.70599997 -0.017329946 1.0868963e-38 279 254
-0.049373865 0.704 -0.017280852 1.2795291e-38 280 254
-0.048139516 0.704 -0.017280852 1.2979681e-38 281 254
-0.046838548 0.70300001 -0.017256306 1.3345922e-38 282 254
-0.04541133 0.69999999 -0.017182667 1.3253728e-38 283 254
-0.04405776 0.69800001 -0.017133573 1.3253369e-38 284 254
-0.042772565 0.69700003 -0.017109027 1.3253369e-38 285 254
-0.041490879 0.69599998 -0.017084479 1.3253728e-38 286 254
-0.040154841 0.69400001 -0.017035386 1.3253728e-38 287 254
-0.03888192 0.69300002 -0.01701084 1.3345922e-38 288 254
-0.03755815 0.69099998 -0.016961746 1.3345922e-38 289 254
-0.036293998 0.69 -0.0169372 1.3438475e-38 290 254
-0.035084199 0.69 -0.0169372 1.3438475e-38 291 254
-0.033776212 0.68800002 -0.016888106 1.3439192e-38 292 254
-0.032522578 0.68699998 -0.01686356 1.3439192e-38 293 254
-0.031318039 0.68699998 -0.01686356 1.3438475e-38 294 254
-0.030113498 0.68699998 -0.01686356 1.334628e-38 295 254
-0.02886688 0.68599999 -0.016839013 1.3528875e-38 296 254
-0.027543113 0.68300003 -0.016765373 1.3621069e-38 297 254
-0.026345588 0.68300003 -0.016765373 1.3438475e-38 298 254
-0.02514806 0.68300003 -0.016765373 1.3438475e-38 299 254
-0.023950534 0.68300003 -0.016765373 1.3163686e-38 300 254
-0.022753006 0.68300003 -0.016765373 1.3163686e-38 301 254
-0.02158704 0.68400002 -0.016789921 1.3345922e-38 302 254
-0.020357953 0.68300003 -0.016765373 1.3345922e-38 303 254
-0.019160427 0.68300003 -0.016765373 1.3254445e-38 304 254
-0.017962901 0.68300003 -0.016765373 1.3254445e-38 305 254
-0.016765373 0.68300003 -0.016765373 1.3070057e-38 306 254
-0.015567848 0.68300003 -0.016765373 1.3070057e-38 307 254
-0.014370319 0.68300003 -0.016765373 1.3070057e-38 308 254
-0.013172794 0.68300003 -0.016765373 1.3070057e-38 309 254
-0.011975267 0.68300003 -0.016765373 1.306898e-38 310 254
-0.01077774 0.68300003 -0.016765373 1.306898e-38 311 254
-0.009566186 0.68199998 -0.016740825 1.306898e-38 312 254
-0.0083704125 0.68199998 -0.016740825 1.306898e-38 313 254
-0.00717464 0.68199998 -0.016740825 1.2978221e-38 314 254
-0.005978866 0.68199998 -0.016740825 1.2978221e-38 315 254
-0.004783093 0.68199998 -0.016740825 1.2977862e-38 316 254
-0.0035925799 0.68300003 -0.016765373 1.3070057e-38 317 254
-0.0023950534 0.68300003 -0.016765373 1.2977862e-38 318 254
-0.0011975267 0.68300003 -0.016765373 1.3254086e-38 319 254
0 0.68400002 -0.016789921 1.2980373e-38 320 254
0.0012027866 0.68599999 -0.016839013 1.2980373e-38 321 254
0.0024055731 0.68599999 -0.016839013 1.3072575e-38 322 254
0.0036136196 0.68699998 -0.01686356 1.3257325e-38 323 254
0.0048181596 0.68699998 -0.01686356 1.3349184e-38 324 254
0.0060226996 0.68699998 -0.01686356 1.3533934e-38 325 254
0.0072272392 0.68699998 -0.01686356 1.3168391e-38 326 254
0.0084440531 0.68800002 -0.016888106 1.3352784e-38 327 254
0.0096783992 0.69 -0.0169372 1.3260951e-38 328 254
0.010888199 0.69 -0.0169372 1.3353506e-38 329 254
0.012115533 0.69099998 -0.016961746 1.3536818e-38 330 254
0.01336566 0.69300002 -0.01701084 1.3629013e-38 331 254
0.01460176 0.69400001 -0.017035386 1.3719411e-38 332 254
0.015864158 0.69599998 -0.017084479 1.3719411e-38 333 254
0.017109027 0.69700003 -0.017109027 1.3535732e-38 334 254
0.018331099 0.69700003 -0.017109027 1.3535732e-38 335 254
0.019581227 0.69800001 -0.017133573 1.3445348e-38 336 254
0.020805053 0.69800001 -0.017133573 1.3537544e-38 337 254
0.02202888 0.69800001 -0.017133573 1.3356807e-38 338 254
-0.051989835 0.70599997 -0.018567799 1.3082384e-38 278 255
-0.050751984 0.70599997 -0.018567799 1.1238471e-38 279 255
-0.049373865 0.704 -0.018515198 1.2796016e-38 280 255
-0.048139516 0.704 -0.018515198 1.2703461e-38 281 255
-0.046838548 0.70300001 -0.018488899 1.3162611e-38 282 255
-0.04541133 0.69999999 -0.018409999 1.2977862e-38 283 255
-0.04405776 0.69800001 -0.0183574 1.3161175e-38 284 255
-0.042772565 0.69700003 -0.018331099 1.3068622e-38 285 255
-0.041490879 0.69599998 -0.018304799 1.3253728e-38 286 255
-0.040154841 0.69400001 -0.0182522 1.3161533e-38 287 255
-0.03888192 0.69300002 -0.018225901 1.3253728e-38 288 255
-0.03755815 0.69099998 -0.0181733 1.3345922e-38 289 255
-0.036293998 0.69 -0.018146999 1.334628e-38 290 255
-0.03498251 0.68800002 -0.0180944 1.334628e-38 291 255
-0.033727121 0.68699998 -0.018068098 1.3254804e-38 292 255
-0.032522578 0.68699998 -0.018068098 1.3439192e-38 293 255
-0.031272452 0.68599999 -0.018041799 1.3346998e-38 294 255
-0.029982001 0.68400002 -0.0179892 1.3254804e-38 295 255
-0.02878272 0.68400002 -0.0179892 1.3345922e-38 296 255
-0.027583439 0.68400002 -0.0179892 1.3253728e-38 297 255
-0.026345588 0.68300003 -0.017962901 1.3253728e-38 298 255
-0.02514806 0.68300003 -0.017962901 1.3253728e-38 299 255
-0.023950534 0.68300003 -0.017962901 1.3254445e-38 300 255
-0.022753006 0.68300003 -0.017962901 1.3070415e-38 301 255
-0.02155548 0.68300003 -0.017962901 1.3070057e-38 302 255
-0.020357953 0.68300003 -0.017962901 1.3254445e-38 303 255
-0.019160427 0.68300003 -0.017962901 1.3070774e-38 304 255
-0.017962901 0.68300003 -0.017962901 1.3162968e-38 305 255
-0.016765373 0.68300003 -0.017962901 1.3162968e-38 306 255
-0.015567848 0.68300003 -0.017962901 1.297858e-38 307 255
-0.014370319 0.68300003 -0.017962901 1.2978938e-38 308 255
-0.013172794 0.68300003 -0.017962901 1.2886386e-38 309 255
-0.011957732 0.68199998 -0.017936599 1.3160457e-38 310 255
-0.010761959 0.68199998 -0.017936599 1.3068263e-38 311 255
-0.009566186 0.68199998 -0.017936599 1.2976069e-38 312 255
-0.0083704125 0.68199998 -0.017936599 1.2976069e-38 313 255
-0.00717464 0.68199998 -0.017936599 1.2884951e-38 314 255
-0.005978866 0.68199998 -0.017936599 1.2884951e-38 315 255
-0.004783093 0.68199998 -0.017936599 1.2884951e-38 316 255
-0.0035925799 0.68300003 -0.017962901 1.306898e-38 317 255
-0.0023950534 0.68300003 -0.017962901 1.2884951e-38 318 255
-0.0011975267 0.68300003 -0.017962901 1.3161175e-38 319 255
0 0.68400002 -0.0179892 1.2887462e-38 320 255
0.0012027866 0.68599999 -0.018041799 1.2887462e-38 321 255
0.0024055731 0.68599999 -0.018041799 1.2979659e-38 322 255
0.0036136196 0.68699998 -0.018068098 1.3348441e-38 323 255
0.0048181596 0.68699998 -0.018068098 1.3165142e-38 324 255
0.0060226996 0.68699998 -0.018068098 1.3349533e-38 325 255
0.0072272392 0.68699998 -0.018068098 1.3075827e-38 326 255
0.0084317802 0.68699998 -0.018068098 1.3075827e-38 327 255
0.0096503468 0.68800002 -0.0180944 1.3351701e-38 328 255
0.010888199 0.69 -0.018146999 1.3259505e-38 329 255
0.012115533 0.69099998 -0.0181733 1.3351703e-38 330 255
0.01336566 0.69300002 -0.018225901 1.3443899e-38 331 255
0.01460176 0.69400001 -0.0182522 1.3626843e-38 332 255
0.015864158 0.69599998 -0.018304799 1.3626843e-38 333 255
0.017109027 0.69700003 -0.018331099 1.3443884e-38 334 255
0.018331099 0.69700003 -0.018331099 1.3536079e-38 335 255
0.019581227 0.69800001 -0.0183574 1.3536818e-38 336 255
0.020805053 0.69800001 -0.0183574 1.3813405e-38 337 255
0.02202888 0.69800001 -0.0183574 1.363339e-38 338 255
-0.05206348 0.70700002 -0.019833706 1.2991633e-38 278 256
-0.050751984 0.70599997 -0.019805651 1.114772e-38 279 256
-0.049373865 0.704 -0.019749546 1.2613066e-38 280 256
-0.048139516 0.704 -0.019749546 1.2428675e-38 281 256
-0.046705291 0.70099998 -0.019665385 1.297894e-38 282 256
-0.04541133 0.69999999 -0.019637333 1.279455e-38 283 256
-0.043994639 0.69700003 -0.019553173 1.2977504e-38 284 256
-0.042711195 0.69599998 -0.019525118 1.2977504e-38 285 256
-0.041490879 0.69599998 -0.019525118 1.2977862e-38 286 256
-0.040154841 0.69400001 -0.019469013 1.3070057e-38 287 256
-0.03888192 0.69300002 -0.01944096 1.2978938e-38 288 256
-0.037666857 0.69300002 -0.01944096 1.3071133e-38 289 256
-0.036346599 0.69099998 -0.019384852 1.3254804e-38 290 256
-0.03498251 0.68800002 -0.019300694 1.3346998e-38 291 256
-0.033727121 0.68699998 -0.019272638 1.3163686e-38 292 256
-0.032522578 0.68699998 -0.019272638 1.3071491e-38 293 256
-0.031272452 0.68599999 -0.019244585 1.3163686e-38 294 256
-0.029982001 0.68400002 -0.01918848 1.3071491e-38 295 256
-0.02878272 0.68400002 -0.01918848 1.3253728e-38 296 256
-0.027583439 0.68400002 -0.01918848 1.3161533e-38 297 256
-0.026345588 0.68300003 -0.019160427 1.3253369e-38 298 256
-0.02514806 0.68300003 -0.019160427 1.3253369e-38 299 256
-0.0239856 0.68400002 -0.01918848 1.297858e-38 300 256
-0.022753006 0.68300003 -0.019160427 1.297858e-38 301 256
-0.02155548 0.68300003 -0.019160427 1.2887103e-38 302 256
-0.020357953 0.68300003 -0.019160427 1.3163327e-38 303 256
-0.019160427 0.68300003 -0.019160427 1.2796349e-38 304 256
-0.017962901 0.68300003 -0.019160427 1.2980382e-38 305 256
-0.016765373 0.68300003 -0.019160427 1.288782e-38 306 256
-0.015567848 0.68300003 -0.019160427 1.2703073e-38 307 256
-0.014370319 0.68300003 -0.019160427 1.2795267e-38 308 256
-0.013153506 0.68199998 -0.019132372 1.2703073e-38 309 256
-0.011957732 0.68199998 -0.019132372 1.3069339e-38 310 256
-0.010761959 0.68199998 -0.019132372 1.2792756e-38 311 256
-0.009566186 0.68199998 -0.019132372 1.2792398e-38 312 256
-0.0083704125 0.68199998 -0.019132372 1.2792398e-38 313 256
-0.00717464 0.68199998 -0.019132372 1.2976069e-38 314 256
-0.005978866 0.68199998 -0.019132372 1.3068263e-38 315 256
-0.004783093 0.68199998 -0.019132372 1.2609803e-38 316 256
-0.0035925799 0.68300003 -0.019160427 1.2701997e-38 317 256
-0.0023950534 0.68300003 -0.019160427 1.2793115e-38 318 256
-0.00119928 0.68400002 -0.01918848 1.2885309e-38 319 256
0 0.68400002 -0.01918848 1.2701997e-38 320 256
0.0012027866 0.68599999 -0.019244585 1.2794551e-38 321 256
0.0024055731 0.68599999 -0.019244585 1.2887116e-38 322 256
0.0036136196 0.68699998 -0.019272638 1.3071508e-38 323 256
0.0048181596 0.68699998 -0.019272638 1.2797082e-38 324 256
0.0060226996 0.68699998 -0.019272638 1.2981473e-38 325 256
0.0072272392 0.68699998 -0.019272638 1.2798527e-38 326 256
0.0084317802 0.68699998 -0.019272638 1.2798527e-38 327 256
0.0096503468 0.68800002 -0.019300694 1.2982922e-38 328 256
0.01090398 0.69099998 -0.019384852 1.2982922e-38 329 256
0.012150601 0.69300002 -0.01944096 1.3166593e-38 330 256
0.01336566 0.69300002 -0.01944096 1.3258789e-38 331 256
0.01460176 0.69400001 -0.019469013 1.3259142e-38 332 256
0.015864158 0.69599998 -0.019525118 1.3351338e-38 333 256
0.017109027 0.69700003 -0.019553173 1.3352051e-38 334 256
0.018331099 0.69700003 -0.019553173 1.3536801e-38 335 256
0.019581227 0.69800001 -0.019581227 1.3536462e-38 336 256
0.020805053 0.69800001 -0.019581227 1.3813408e-38 337 256
0.02202888 0.69800001 -0.019581227 1.3633387e-38 338 256
0.023252707 0.69800001 -0.019581227 1.8058777e-38 339 256
-0.05206348 0.70700002 -0.021073313 1.3085631e-38 278 257
-0.050751984 0.70599997 -0.021043506 1.078038e-38 279 257
-0.049373865 0.704 -0.020983893 1.2613788e-38 280 257
-0.048071139 0.70300001 -0.020954086 1.2245007e-38 281 257
-0.046705291 0.70099998 -0.020894472 1.2796349e-38 282 257
-0.04541133 0.69999999 -0.020864666 1.2519404e-38 283 257
-0.043994639 0.69700003 -0.020775247 1.2885668e-38 284 257
-0.042711195 0.69599998 -0.020745439 1.2885668e-38 285 257
-0.041371655 0.69400001 -0.020685827 1.2795267e-38 286 257
-0.040154841 0.69400001 -0.020685827 1.2887462e-38 287 257
-0.03888192 0.69300002 -0.020656019 1.2888538e-38 288 257
-0.03755815 0.69099998 -0.020596405 1.2888538e-38 289 257
-0.036293998 0.69 -0.020566599 1.3163686e-38 290 257
-0.03498251 0.68800002 -0.020506985 1.3163686e-38 291 257
-0.033727121 0.68699998 -0.020477179 1.3071133e-38 292 257
-0.032522578 0.68699998 -0.020477179 1.2978938e-38 293 257
-0.031272452 0.68599999 -0.020447372 1.3070415e-38 294 257
-0.029982001 0.68400002 -0.020387759 1.3070415e-38 295 257
-0.02878272 0.68400002 -0.020387759 1.3070057e-38 296 257
-0.027583439 0.68400002 -0.020387759 1.2977862e-38 297 257
-0.02638416 0.68400002 -0.020387759 1.2977504e-38 298 257
-0.025184879 0.68400002 -0.020387759 1.3069698e-38 299 257
-0.023950534 0.68300003 -0.020357953 1.2794551e-38 300 257
-0.022753006 0.68300003 -0.020357953 1.2886747e-38 301 257
-0.02155548 0.68300003 -0.020357953 1.2704168e-38 302 257
-0.020357953 0.68300003 -0.020357953 1.2888559e-38 303 257
-0.019132372 0.68199998 -0.020328145 1.261342e-38 304 257
-0.017936599 0.68199998 -0.020328145 1.2521224e-38 305 257
-0.016740825 0.68199998 -0.020328145 1.2795993e-38 306 257
-0.015545053 0.68199998 -0.020328145 1.2611602e-38 307 257
-0.01434928 0.68199998 -0.020328145 1.2886386e-38 308 257
-0.013153506 0.68199998 -0.020328145 1.2886386e-38 309 257
-0.011957732 0.68199998 -0.020328145 1.2609803e-38 310 257
-0.010761959 0.68199998 -0.020328145 1.2517609e-38 311 257
-0.009566186 0.68199998 -0.020328145 1.2700203e-38 312 257
-0.0083704125 0.68199998 -0.020328145 1.2700203e-38 313 257
-0.00717464 0.68199998 -0.020328145 1.2792398e-38 314 257
-0.005978866 0.68199998 -0.020328145 1.2792398e-38 315 257
-0.004783093 0.68199998 -0.020328145 1.2793115e-38 316 257
-0.0035925799 0.68300003 -0.020357953 1.2793115e-38 317 257
-0.0023950534 0.68300003 -0.020357953 1.270128e-38 318 257
-0.00119928 0.68400002 -0.020387759 1.270128e-38 319 257
0 0.68400002 -0.020387759 1.2609807e-38 320 257
0.0012027866 0.68599999 -0.020447372 1.2609807e-38 321 257
0.0024055731 0.68599999 -0.020447372 1.2519053e-38 322 257
0.00360836 0.68599999 -0.020447372 1.2703445e-38 323 257
0.0048181596 0.68699998 -0.020477179 1.2704168e-38 324 257
0.0060226996 0.68699998 -0.020477179 1.2796363e-38 325 257
0.0072272392 0.68699998 -0.020477179 1.2706319e-38 326 257
0.0084317802 0.68699998 -0.020477179 1.2706319e-38 327 257
0.0096503468 0.68800002 -0.020506985 1.2798517e-38 328 257
0.01090398 0.69099998 -0.020596405 1.2890713e-38 329 257
0.012150601 0.69300002 -0.020656019 1.3073672e-38 330 257
0.01336566 0.69300002 -0.020656019 1.3165869e-38 331 257
0.01460176 0.69400001 -0.020685827 1.3166941e-38 332 257
0.015864158 0.69599998 -0.020745439 1.3351332e-38 333 257
0.017109027 0.69700003 -0.020775247 1.3351332e-38 334 257
0.018331099 0.69700003 -0.020775247 1.3536082e-38 335 257
0.019581227 0.69800001 -0.020805053 1.3536462e-38 336 257
0.020805053 0.69800001 -0.020805053 1.3813408e-38 337 257
0.02202888 0.69800001 -0.020805053 1.3909254e-38 338 257
0.023252707 0.69800001 -0.020805053 1.8703426e-38 339 257
-0.053227689 0.70599997 -0.022281358 1.7240953e-38 277 258
-0.051842559 0.704 -0.022218239 1.3455855e-38 278 258
-0.050608214 0.704 -0.022218239 1.0321204e-38 279 258
-0.049373865 0.704 -0.022218239 1.2337221e-38 280 258
-0.048071139 0.70300001 -0.02218668 1.2429416e-38 281 258
-0.046705291 0.70099998 -0.022123558 1.2520149e-38 282 258
-0.04541133 0.69999999 -0.022091998 1.2335756e-38 283 258
-0.04405776 0.69800001 -0.02202888 1.2702366e-38 284 258
-0.042772565 0.69700003 -0.02199732 1.2702366e-38 285 258
-0.041371655 0.69400001 -0.021902639 1.2795267e-38 286 258
-0.04009698 0.69300002 -0.021871079 1.2795267e-38 287 258
-0.03888192 0.69300002 -0.021871079 1.288782e-38 288 258
-0.03755815 0.69099998 -0.021807959 1.288782e-38 289 258
-0.036293998 0.69 -0.021776399 1.2795626e-38 290 258
-0.03498251 0.68800002 -0.021713281 1.2795626e-38 291 258
-0.033727121 0.68699998 -0.021681719 1.3070415e-38 292 258
-0.032522578 0.68699998 -0.021681719 1.2978221e-38 293 258
-0.031272452 0.68599999 -0.021650158 1.3070415e-38 294 258
-0.029982001 0.68400002 -0.02158704 1.3070415e-38 295 258
-0.02878272 0.68400002 -0.02158704 1.2978221e-38 296 258
-0.027583439 0.68400002 -0.02158704 1.3070415e-38 297 258
-0.02638416 0.68400002 -0.02158704 1.2886027e-38 298 258
-0.02514806 0.68300003 -0.02155548 1.2978221e-38 299 258
-0.023950534 0.68300003 -0.02155548 1.2702003e-38 300 258
-0.022753006 0.68300003 -0.02155548 1.2794198e-38 301 258
-0.02155548 0.68300003 -0.02155548 1.2612348e-38 302 258
-0.020357953 0.68300003 -0.02155548 1.2981129e-38 303 258
-0.019132372 0.68199998 -0.021523919 1.2521965e-38 304 258
-0.017936599 0.68199998 -0.021523919 1.242977e-38 305 258
-0.016740825 0.68199998 -0.021523919 1.2520868e-38 306 258
-0.015545053 0.68199998 -0.021523919 1.2336475e-38 307 258
-0.01434928 0.68199998 -0.021523919 1.2703073e-38 308 258
-0.013153506 0.68199998 -0.021523919 1.2334296e-38 309 258
-0.011957732 0.68199998 -0.021523919 1.2700921e-38 310 258
-0.010761959 0.68199998 -0.021523919 1.2608727e-38 311 258
-0.009566186 0.68199998 -0.021523919 1.2700203e-38 312 258
-0.0083704125 0.68199998 -0.021523919 1.2608009e-38 313 258
-0.0071535995 0.68000001 -0.0214608 1.2700203e-38 314 258
-0.0059613334 0.68000001 -0.0214608 1.2700203e-38 315 258
-0.004783093 0.68199998 -0.021523919 1.2608727e-38 316 258
-0.0035925799 0.68300003 -0.02155548 1.2700921e-38 317 258
-0.0023985601 0.68400002 -0.02158704 1.2700203e-38 318 258
-0.00119928 0.68400002 -0.02158704 1.2792756e-38 319 258
0 0.68599999 -0.021650158 1.2333939e-38 320 258
0.0012027866 0.68599999 -0.021650158 1.2333939e-38 321 258
0.0024055731 0.68599999 -0.021650158 1.2426491e-38 322 258
0.00360836 0.68599999 -0.021650158 1.2702716e-38 323 258
