# .PCD v.7 - Point Cloud Data file format
FIELDS x y z rgb imX imY
SIZE 4 4 4 4 4 4
TYPE F F F F F F
COUNT 1 1 1 1 1 1
WIDTH 832
HEIGHT 1
VIEWPOINT 0 0 0 1 0 0 0
POINTS 832
DATA ascii
0.034168959 0.69599998 -0.061015997 1.2334352e-38 348 290
0.035440128 0.69700003 -0.061103668 1.2610941e-38 349 290
0.0367148 0.69800001 -0.061191335 1.2521985e-38 350 290
0.038047329 0.69999999 -0.061366666 1.3074799e-38 351 290
0.039442986 0.70300001 -0.061629668 1.3627256e-38 352 290
0.040675577 0.70300001 -0.061629668 1.4272626e-38 353 290
0.041908171 0.70300001 -0.061629668 1.529365e-38 354 290
0.043140765 0.70300001 -0.061629668 1.9350257e-38 355 290
-0.032184184 0.70599997 -0.063130513 1.6495805e-38 294 291
-0.030946331 0.70599997 -0.063130513 1.3084927e-38 295 291
-0.029624319 0.704 -0.062951677 1.1877369e-38 296 291
-0.028389972 0.704 -0.062951677 1.1877369e-38 297 291
-0.027117053 0.70300001 -0.062862262 1.1507145e-38 298 291
-0.025810819 0.70099998 -0.062683418 1.0953973e-38 299 291
-0.024546666 0.69999999 -0.062593997 1.06763e-38 300 291
-0.023252707 0.69800001 -0.062415157 1.0399353e-38 301 291
-0.02199732 0.69700003 -0.062325738 1.067305e-38 302 291
-0.020775247 0.69700003 -0.062325738 1.0580854e-38 303 291
-0.019525118 0.69599998 -0.062236317 1.0490091e-38 304 291
-0.0182522 0.69400001 -0.06205748 1.0582287e-38 305 291
-0.017035386 0.69400001 -0.06205748 1.0581931e-38 306 291
-0.015795778 0.69300002 -0.061968062 1.0581931e-38 307 291
-0.014580719 0.69300002 -0.061968062 1.0672328e-38 308 291
-0.013327086 0.69099998 -0.061789215 1.0580131e-38 309 291
-0.012097999 0.69 -0.061699796 1.0580484e-38 310 291
-0.010888199 0.69 -0.061699796 1.067268e-38 311 291
-0.0096503468 0.68800002 -0.06152096 1.0672328e-38 312 291
-0.0084440531 0.68800002 -0.06152096 1.0487936e-38 313 291
-0.0072377604 0.68800002 -0.06152096 9.7521853e-39 314 291
-0.0060314666 0.68800002 -0.06152096 9.5681542e-39 315 291
-0.0048251734 0.68800002 -0.06152096 8.8331185e-39 316 291
-0.0036188802 0.68800002 -0.06152096 8.7409229e-39 317 291
-0.0024090798 0.68699998 -0.061431535 9.1997458e-39 318 291
-0.0012045399 0.68699998 -0.061431535 9.475974e-39 319 291
0 0.68699998 -0.061431535 1.0304286e-38 320 291
0.0012027866 0.68599999 -0.061342116 1.0673428e-38 321 291
0.0024055731 0.68599999 -0.061342116 1.1225506e-38 322 291
0.00360836 0.68599999 -0.061342116 1.1317703e-38 323 291
0.0047971201 0.68400002 -0.061163284 1.1132955e-38 324 291
0.0059964 0.68400002 -0.061163284 1.0948564e-38 325 291
0.0071956799 0.68400002 -0.061163284 1.0947489e-38 326 291
0.0083949603 0.68400002 -0.061163284 1.1132239e-38 327 291
0.0095942402 0.68400002 -0.061163284 1.1318052e-38 328 291
0.01079352 0.68400002 -0.061163284 1.1410249e-38 329 291
0.0119928 0.68400002 -0.061163284 1.186941e-38 330 291
0.013230653 0.68599999 -0.061342116 1.186941e-38 331 291
0.01443344 0.68599999 -0.061342116 1.2052355e-38 332 291
0.015636226 0.68599999 -0.061342116 1.2144552e-38 333 291
0.01686356 0.68699998 -0.061431535 1.1960522e-38 334 291
0.018068098 0.68699998 -0.061431535 1.2053078e-38 335 291
0.019272638 0.68699998 -0.061431535 1.2052722e-38 336 291
0.020506985 0.68800002 -0.06152096 1.2052722e-38 337 291
0.021713281 0.68800002 -0.06152096 1.2144918e-38 338 291
0.022919573 0.68800002 -0.06152096 1.2144918e-38 339 291
0.024125867 0.68800002 -0.06152096 1.2053801e-38 340 291
0.025405798 0.69 -0.061699796 1.2237832e-38 341 291
0.026654173 0.69099998 -0.061789215 1.2147072e-38 342 291
0.027865725 0.69099998 -0.061789215 1.2239267e-38 343 291
0.029161438 0.69300002 -0.061968062 1.2239988e-38 344 291
0.030420333 0.69400001 -0.06205748 1.2424379e-38 345 291
0.031637147 0.69400001 -0.06205748 1.2332902e-38 346 291
0.032853961 0.69400001 -0.06205748 1.2425098e-38 347 291
0.034168959 0.69599998 -0.062236317 1.2242154e-38 348 291
0.035440128 0.69700003 -0.062325738 1.2611297e-38 349 291
0.0367148 0.69800001 -0.062415157 1.261418e-38 350 291
0.038101684 0.70099998 -0.062683418 1.3074799e-38 351 291
0.039442986 0.70300001 -0.062862262 1.3535061e-38 352 291
0.040675577 0.70300001 -0.062862262 1.5010191e-38 353 291
0.041908171 0.70300001 -0.062862262 1.575607e-38 354 291
-0.030946331 0.70599997 -0.064368367 1.4375669e-38 295 292
-0.029624319 0.704 -0.064186029 1.2339426e-38 296 292
-0.028389972 0.704 -0.064186029 1.1786254e-38 297 292
-0.027117053 0.70300001 -0.064094849 1.1324183e-38 298 292
-0.025810819 0.70099998 -0.063912503 1.09554e-38 299 292
-0.024546666 0.69999999 -0.063821331 1.1044353e-38 300 292
-0.023252707 0.69800001 -0.063638985 1.067557e-38 301 292
-0.02199732 0.69700003 -0.06354782 1.0675201e-38 302 292
-0.020775247 0.69700003 -0.06354782 1.0583005e-38 303 292
-0.019525118 0.69599998 -0.063456632 1.0490807e-38 304 292
-0.0182522 0.69400001 -0.063274294 1.0490807e-38 305 292
-0.01701084 0.69300002 -0.063183114 1.067305e-38 306 292
-0.015795778 0.69300002 -0.063183114 1.0580854e-38 307 292
-0.014580719 0.69300002 -0.063183114 1.030427e-38 308 292
-0.013327086 0.69099998 -0.063000768 1.030427e-38 309 292
-0.012097999 0.69 -0.062909603 1.0305342e-38 310 292
-0.010888199 0.69 -0.062909603 1.0305342e-38 311 292
-0.0096503468 0.68800002 -0.06272725 1.0304626e-38 312 292
-0.0084440531 0.68800002 -0.06272725 1.0119876e-38 313 292
-0.0072377604 0.68800002 -0.06272725 1.002733e-38 314 292
-0.0060226996 0.68699998 -0.062636077 9.7511021e-39 315 292
-0.0048181596 0.68699998 -0.062636077 9.1075446e-39 316 292
-0.0036188802 0.68800002 -0.06272725 8.9231533e-39 317 292
-0.0024090798 0.68699998 -0.062636077 8.7391376e-39 318 292
-0.0012045399 0.68699998 -0.062636077 9.0153644e-39 319 292
0 0.68699998 -0.062636077 9.3852259e-39 320 292
0.0012027866 0.68599999 -0.062544905 9.8458453e-39 321 292
0.0024055731 0.68599999 -0.062544905 1.0673428e-38 322 292
0.00360836 0.68599999 -0.062544905 1.0857459e-38 323 292
0.0047971201 0.68400002 -0.062362559 1.0947854e-38 324 292
0.0059964 0.68400002 -0.062362559 1.0579431e-38 325 292
0.0071956799 0.68400002 -0.062362559 9.9383787e-39 326 292
0.0083949603 0.68400002 -0.062362559 1.0030574e-38 327 292
0.0095942402 0.68400002 -0.062362559 1.030786e-38 328 292
0.01079352 0.68400002 -0.062362559 1.0492252e-38 329 292
0.0119928 0.68400002 -0.062362559 1.1501349e-38 330 292
0.013230653 0.68599999 -0.062544905 1.1501349e-38 331 292
0.01443344 0.68599999 -0.062544905 1.1960522e-38 332 292
0.015659019 0.68699998 -0.062636077 1.1960522e-38 333 292
0.01686356 0.68699998 -0.062636077 1.1960525e-38 334 292
0.018068098 0.68699998 -0.062636077 1.2052722e-38 335 292
0.019272638 0.68699998 -0.062636077 1.2052722e-38 336 292
0.020506985 0.68800002 -0.06272725 1.2052722e-38 337 292
0.021713281 0.68800002 -0.06272725 1.1961608e-38 338 292
0.022919573 0.68800002 -0.06272725 1.1961608e-38 339 292
0.024125867 0.68800002 -0.06272725 1.1962327e-38 340 292
0.025405798 0.69 -0.062909603 1.2054523e-38 341 292
0.026654173 0.69099998 -0.063000768 1.1871211e-38 342 292
0.027865725 0.69099998 -0.063000768 1.2147437e-38 343 292
0.029161438 0.69300002 -0.063183114 1.2056322e-38 344 292
0.030420333 0.69400001 -0.063274294 1.2148518e-38 345 292
0.031637147 0.69400001 -0.063274294 1.1965927e-38 346 292
0.032948639 0.69599998 -0.063456632 1.2149958e-38 347 292
0.034218054 0.69700003 -0.06354782 1.2151404e-38 348 292
0.035440128 0.69700003 -0.06354782 1.2612381e-38 349 292
0.0367148 0.69800001 -0.063638985 1.2706742e-38 350 292
0.038210396 0.70300001 -0.064094849 1.3075885e-38 351 292
0.039442986 0.70300001 -0.064094849 1.3533989e-38 352 292
0.040675577 0.70300001 -0.064094849 1.6207662e-38 353 292
0.041908171 0.70300001 -0.064094849 1.6493991e-38 354 292
-0.032229774 0.70700002 -0.065699153 1.9078362e-38 294 293
-0.030946331 0.70599997 -0.065606222 1.5206145e-38 295 293
-0.029708479 0.70599997 -0.065606222 1.2707843e-38 296 293
-0.028389972 0.704 -0.065420374 1.215467e-38 297 293
-0.027117053 0.70300001 -0.065327443 1.2061022e-38 298 293
-0.025810819 0.70099998 -0.065141588 1.1600045e-38 299 293
-0.024546666 0.69999999 -0.065048665 1.1138347e-38 300 293
-0.023252707 0.69800001 -0.06486281 1.0769564e-38 301 293
-0.02199732 0.69700003 -0.064769886 1.0767049e-38 302 293
-0.020775247 0.69700003 -0.064769886 1.0674495e-38 303 293
-0.019525118 0.69599998 -0.064676955 1.0490103e-38 304 293
-0.0182522 0.69400001 -0.064491108 1.0397908e-38 305 293
-0.01701084 0.69300002 -0.064398177 1.0671981e-38 306 293
-0.015795778 0.69300002 -0.064398177 1.0579784e-38 307 293
-0.014580719 0.69300002 -0.064398177 1.030427e-38 308 293
-0.013327086 0.69099998 -0.06421233 1.030427e-38 309 293
-0.012097999 0.69 -0.064119399 1.0305339e-38 310 293
-0.010888199 0.69 -0.064119399 1.0305339e-38 311 293
-0.0096503468 0.68800002 -0.063933544 1.0396822e-38 312 293
-0.0084440531 0.68800002 -0.063933544 1.0304626e-38 313 293
-0.0072377604 0.68800002 -0.063933544 9.5699451e-39 314 293
-0.0060226996 0.68699998 -0.06384062 9.3859139e-39 315 293
-0.0048181596 0.68699998 -0.06384062 9.0174971e-39 316 293
-0.0036188802 0.68800002 -0.063933544 8.7409103e-39 317 293
-0.0024090798 0.68699998 -0.06384062 8.5554568e-39 318 293
-0.0012045399 0.68699998 -0.06384062 8.8324024e-39 319 293
0 0.68699998 -0.06384062 9.2004633e-39 320 293
0.0012027866 0.68599999 -0.063747689 9.7536357e-39 321 293
0.0024055731 0.68599999 -0.063747689 1.0671984e-38 322 293
0.00360836 0.68599999 -0.063747689 1.1040406e-38 323 293
0.0047971201 0.68400002 -0.063561834 1.0489387e-38 324 293
0.0059964 0.68400002 -0.063561834 1.0304636e-38 325 293
0.0071956799 0.68400002 -0.063561834 9.8458159e-39 326 293
0.0083949603 0.68400002 -0.063561834 1.0122044e-38 327 293
0.0095942402 0.68400002 -0.063561834 1.0674482e-38 328 293
0.01079352 0.68400002 -0.063561834 1.0858513e-38 329 293
0.0119928 0.68400002 -0.063561834 1.1501702e-38 330 293
0.013230653 0.68599999 -0.063747689 1.1409507e-38 331 293
0.014454478 0.68699998 -0.06384062 1.1776847e-38 332 293
0.015659019 0.68699998 -0.06384062 1.1776847e-38 333 293
0.01686356 0.68699998 -0.06384062 1.1776138e-38 334 293
0.018068098 0.68699998 -0.06384062 1.1960528e-38 335 293
0.019300694 0.68800002 -0.063933544 1.2051649e-38 336 293
0.020506985 0.68800002 -0.063933544 1.2144205e-38 337 293
0.021713281 0.68800002 -0.063933544 1.2144921e-38 338 293
0.022919573 0.68800002 -0.063933544 1.2052725e-38 339 293
0.024125867 0.68800002 -0.063933544 1.1962324e-38 340 293
0.025405798 0.69 -0.064119399 1.1962324e-38 341 293
0.026654173 0.69099998 -0.06421233 1.2055595e-38 342 293
0.027946379 0.69300002 -0.064398177 1.2147791e-38 343 293
0.029161438 0.69300002 -0.064398177 1.2238914e-38 344 293
0.030420333 0.69400001 -0.064491108 1.2515501e-38 345 293
0.031728316 0.69599998 -0.064676955 1.2148884e-38 346 293
0.032948639 0.69599998 -0.064676955 1.2517665e-38 347 293
0.034218054 0.69700003 -0.064769886 1.233472e-38 348 293
0.035490975 0.69800001 -0.06486281 1.2703502e-38 349 293
0.036872596 0.70099998 -0.065141588 1.3073364e-38 350 293
0.038210396 0.70300001 -0.065327443 1.3257395e-38 351 293
0.039442986 0.70300001 -0.065327443 1.3351761e-38 352 293
0.040675577 0.70300001 -0.065327443 1.7132142e-38 353 293
-0.032229774 0.70700002 -0.066938758 1.9908846e-38 294 294
-0.030946331 0.70599997 -0.066844068 1.6774194e-38 295 294
-0.029624319 0.704 -0.066654719 1.3539752e-38 296 294
-0.028389972 0.704 -0.066654719 1.2340849e-38 297 294
-0.027117053 0.70300001 -0.066560037 1.2339761e-38 298 294
-0.025810819 0.70099998 -0.066370681 1.1694392e-38 299 294
-0.024546666 0.69999999 -0.066275999 1.1782628e-38 300 294
-0.023252707 0.69800001 -0.066086642 1.1137258e-38 301 294
-0.02199732 0.69700003 -0.06599196 1.1135107e-38 302 294
-0.020775247 0.69700003 -0.06599196 1.085816e-38 303 294
-0.019525118 0.69599998 -0.065897278 1.0581583e-38 304 294
-0.018304799 0.69599998 -0.065897278 1.0397192e-38 305 294
-0.017035386 0.69400001 -0.065707922 1.0122047e-38 306 294
-0.015818574 0.69400001 -0.065707922 1.002985e-38 307 294
-0.014580719 0.69300002 -0.06561324 9.8461662e-39 308 294
-0.013327086 0.69099998 -0.065423876 9.8461662e-39 309 294
-0.012097999 0.69 -0.065329194 9.8465193e-39 310 294
-0.010888199 0.69 -0.065329194 1.003055e-38 311 294
-0.0096503468 0.68800002 -0.065139838 1.0122383e-38 312 294
-0.0084440531 0.68800002 -0.065139838 1.0122383e-38 313 294
-0.0072377604 0.68800002 -0.065139838 1.0029829e-38 314 294
-0.0060314666 0.68800002 -0.065139838 9.7532419e-39 315 294
-0.0048251734 0.68800002 -0.065139838 9.4763047e-39 316 294
-0.0036188802 0.68800002 -0.065139838 9.3841091e-39 317 294
-0.0024125867 0.68800002 -0.065139838 8.741276e-39 318 294
-0.0012045399 0.68699998 -0.065045156 8.8334716e-39 319 294
0 0.68699998 -0.065045156 9.1100655e-39 320 294
0.0012045399 0.68699998 -0.065045156 9.4784879e-39 321 294
0.0024090798 0.68699998 -0.065045156 9.9383815e-39 322 294
0.00360836 0.68599999 -0.064950474 1.0030577e-38 323 294
0.0047971201 0.68400002 -0.064761117 1.0029497e-38 324 294
0.0059964 0.68400002 -0.064761117 9.8454656e-39 325 294
0.0071956799 0.68400002 -0.064761117 9.5706681e-39 326 294
0.0083949603 0.68400002 -0.064761117 9.9394506e-39 327 294
0.0095942402 0.68400002 -0.064761117 1.039969e-38 328 294
0.010825079 0.68599999 -0.064950474 1.0491886e-38 329 294
0.012027865 0.68599999 -0.064950474 1.1409872e-38 330 294
0.013230653 0.68599999 -0.064950474 1.1225841e-38 331 294
0.014454478 0.68699998 -0.065045156 1.1409151e-38 332 294
0.015659019 0.68699998 -0.065045156 1.1501346e-38 333 294
0.01686356 0.68699998 -0.065045156 1.1684661e-38 334 294
0.018068098 0.68699998 -0.065045156 1.1684661e-38 335 294
0.019300694 0.68800002 -0.065139838 1.1960172e-38 336 294
0.020506985 0.68800002 -0.065139838 1.2052369e-38 337 294
0.021713281 0.68800002 -0.065139838 1.1870132e-38 338 294
0.022919573 0.68800002 -0.065139838 1.1870132e-38 339 294
0.024125867 0.68800002 -0.065139838 1.1779012e-38 340 294
0.025405798 0.69 -0.065329194 1.1871208e-38 341 294
0.026654173 0.69099998 -0.065423876 1.1688614e-38 342 294
0.027946379 0.69300002 -0.06561324 1.1872646e-38 343 294
0.029203519 0.69400001 -0.065707922 1.1964489e-38 344 294
0.030420333 0.69400001 -0.065707922 1.2057044e-38 345 294
0.031728316 0.69599998 -0.065897278 1.1782981e-38 346 294
0.032948639 0.69599998 -0.065897278 1.1967012e-38 347 294
0.034218054 0.69700003 -0.06599196 1.2243966e-38 348 294
0.035490975 0.69800001 -0.066086642 1.2520911e-38 349 294
0.036872596 0.70099998 -0.066370681 1.3074085e-38 350 294
0.038210396 0.70300001 -0.066560037 1.3258478e-38 351 294
0.039442986 0.70300001 -0.066560037 1.3721269e-38 352 294
0.040675577 0.70300001 -0.066560037 1.7870073e-38 353 294
-0.030946331 0.70599997 -0.06808193 1.7882708e-38 295 295
-0.029624319 0.704 -0.067889065 1.5109969e-38 296 295
-0.028389972 0.704 -0.067889065 1.2528491e-38 297 295
-0.027117053 0.70300001 -0.067792632 1.234013e-38 298 295
-0.025810819 0.70099998 -0.067599766 1.2155739e-38 299 295
-0.024546666 0.69999999 -0.067503333 1.1875559e-38 300 295
-0.023252707 0.69800001 -0.06731046 1.1322385e-38 301 295
-0.02199732 0.69700003 -0.067214034 1.1136552e-38 302 295
-0.020775247 0.69700003 -0.067214034 1.0767769e-38 303 295
-0.019553173 0.69700003 -0.067214034 1.0490103e-38 304 295
-0.018304799 0.69599998 -0.067117594 1.0213877e-38 305 295
-0.017035386 0.69400001 -0.066924736 1.0029844e-38 306 295
-0.015818574 0.69400001 -0.066924736 1.0029844e-38 307 295
-0.014580719 0.69300002 -0.066828303 9.846169e-39 308 295
-0.013327086 0.69099998 -0.06663543 9.846169e-39 309 295
-0.012115533 0.69099998 -0.06663543 9.8461662e-39 310 295
-0.010888199 0.69 -0.066538997 1.0030197e-38 311 295
-0.0096503468 0.68800002 -0.066346131 1.0030197e-38 312 295
-0.0084440531 0.68800002 -0.066346131 1.0030197e-38 313 295
-0.0072377604 0.68800002 -0.066346131 1.0029834e-38 314 295
-0.0060314666 0.68800002 -0.066346131 9.8450844e-39 315 295
-0.0048251734 0.68800002 -0.066346131 9.3859139e-39 316 295
-0.0036188802 0.68800002 -0.066346131 9.2011625e-39 317 295
-0.0024125867 0.68800002 -0.066346131 8.4668443e-39 318 295
-0.0012045399 0.68699998 -0.066249698 8.6508754e-39 319 295
0 0.68699998 -0.066249698 9.2015353e-39 320 295
0.0012045399 0.68699998 -0.066249698 9.4781222e-39 321 295
0.0024090798 0.68699998 -0.066249698 1.0029497e-38 322 295
0.00360836 0.68599999 -0.066153266 1.0121694e-38 323 295
0.0047971201 0.68400002 -0.0659604 9.8454628e-39 324 295
0.0059964 0.68400002 -0.0659604 9.8454628e-39 325 295
0.0072167199 0.68599999 -0.066153266 9.6639372e-39 326 295
0.0083949603 0.68400002 -0.0659604 9.8486871e-39 327 295
0.0095942402 0.68400002 -0.0659604 1.0949993e-38 328 295
0.010825079 0.68599999 -0.066153266 1.1042188e-38 329 295
0.012027865 0.68599999 -0.066153266 1.1225491e-38 330 295
0.013230653 0.68599999 -0.066153266 1.1225491e-38 331 295
0.014454478 0.68699998 -0.066249698 1.1409153e-38 332 295
0.015659019 0.68699998 -0.066249698 1.1501349e-38 333 295
0.01686356 0.68699998 -0.066249698 1.1592819e-38 334 295
0.018068098 0.68699998 -0.066249698 1.1685015e-38 335 295
0.019300694 0.68800002 -0.066346131 1.1776491e-38 336 295
0.020506985 0.68800002 -0.066346131 1.1960522e-38 337 295
0.021713281 0.68800002 -0.066346131 1.177793e-38 338 295
0.022919573 0.68800002 -0.066346131 1.1870126e-38 339 295
0.024125867 0.68800002 -0.066346131 1.1779375e-38 340 295
0.025405798 0.69 -0.066538997 1.1779375e-38 341 295
0.026654173 0.69099998 -0.06663543 1.1688261e-38 342 295
0.027946379 0.69300002 -0.066828303 1.1688261e-38 343 295
0.029203519 0.69400001 -0.066924736 1.178118e-38 344 295
0.030420333 0.69400001 -0.066924736 1.1965571e-38 345 295
0.031728316 0.69599998 -0.067117594 1.1967012e-38 346 295
0.032948639 0.69599998 -0.067117594 1.2151404e-38 347 295
0.034365334 0.69999999 -0.067503333 1.2335801e-38 348 295
0.035643511 0.70099998 -0.067599766 1.2796421e-38 349 295
0.036977798 0.70300001 -0.067792632 1.3348874e-38 350 295
0.038210396 0.70300001 -0.067792632 1.3994244e-38 351 295
0.039499093 0.704 -0.067889065 1.390855e-38 352 295
-0.030946331 0.70599997 -0.069319785 1.7886678e-38 295 296
-0.029624319 0.704 -0.06912341 1.6495793e-38 296 296
-0.028389972 0.704 -0.06912341 1.3268946e-38 297 296
-0.027117053 0.70300001 -0.069025226 1.2524881e-38 298 296
-0.025810819 0.70099998 -0.068828844 1.1971708e-38 299 296
-0.024546666 0.69999999 -0.068730667 1.2243618e-38 300 296
-0.023252707 0.69800001 -0.068534292 1.178264e-38 301 296
-0.02202888 0.69800001 -0.068534292 1.1229824e-38 302 296
-0.020805053 0.69800001 -0.068534292 1.0860681e-38 303 296
-0.019553173 0.69700003 -0.068436109 1.0491533e-38 304 296
-0.018304799 0.69599998 -0.068337917 1.0214946e-38 305 296
-0.017084479 0.69599998 -0.068337917 9.8465319e-39 306 296
-0.015818574 0.69400001 -0.068141542 9.7543363e-39 307 296
-0.014580719 0.69300002 -0.068043359 9.6617848e-39 308 296
-0.01336566 0.69300002 -0.068043359 9.7543391e-39 309 296
-0.012115533 0.69099998 -0.067846984 9.7543335e-39 310 296
-0.010888199 0.69 -0.0677488 9.7543335e-39 311 296
-0.0096503468 0.68800002 -0.067552425 9.8468851e-39 312 296
-0.0084440531 0.68800002 -0.067552425 9.7546894e-39 313 296
-0.0072377604 0.68800002 -0.067552425 9.9372856e-39 314 296
-0.0060314666 0.68800002 -0.067552425 9.8447313e-39 315 296
-0.0048251734 0.68800002 -0.067552425 9.2015297e-39 316 296
-0.0036136196 0.68699998 -0.067454241 9.0174971e-39 317 296
-0.0024090798 0.68699998 -0.067454241 8.6501594e-39 318 296
-0.0012045399 0.68699998 -0.067454241 8.742355e-39 319 296
0 0.68699998 -0.067454241 9.2022584e-39 320 296
0.0012045399 0.68699998 -0.067454241 9.4788438e-39 321 296
0.0024090798 0.68699998 -0.067454241 1.0121694e-38 322 296
0.00360836 0.68599999 -0.06735605 1.0213889e-38 323 296
0.0047971201 0.68400002 -0.067159683 9.9387346e-39 324 296
0.0059964 0.68400002 -0.067159683 9.8461788e-39 325 296
0.0072167199 0.68599999 -0.06735605 9.7564887e-39 326 296
0.0083949603 0.68400002 -0.067159683 9.94088e-39 327 296
0.0095942402 0.68400002 -0.067159683 1.0857797e-38 328 296
0.010825079 0.68599999 -0.06735605 1.0857797e-38 329 296
0.012027865 0.68599999 -0.06735605 1.1041107e-38 330 296
0.013230653 0.68599999 -0.06735605 1.1133661e-38 331 296
0.014454478 0.68699998 -0.067454241 1.1134009e-38 332 296
0.015659019 0.68699998 -0.067454241 1.1134009e-38 333 296
0.01686356 0.68699998 -0.067454241 1.1501346e-38 334 296
0.018068098 0.68699998 -0.067454241 1.1501346e-38 335 296
0.019300694 0.68800002 -0.067552425 1.1685017e-38 336 296
0.020506985 0.68800002 -0.067552425 1.186941e-38 337 296
0.021713281 0.68800002 -0.067552425 1.1686461e-38 338 296
0.022919573 0.68800002 -0.067552425 1.1686461e-38 339 296
0.024195999 0.69 -0.0677488 1.1779375e-38 340 296
0.025405798 0.69 -0.0677488 1.1779375e-38 341 296
0.026654173 0.69099998 -0.067846984 1.1688261e-38 342 296
0.027946379 0.69300002 -0.068043359 1.1872292e-38 343 296
0.029203519 0.69400001 -0.068141542 1.1781543e-38 344 296
0.030420333 0.69400001 -0.068141542 1.1966293e-38 345 296
0.031728316 0.69599998 -0.068337917 1.1966656e-38 346 296
0.033043321 0.69800001 -0.068534292 1.2243603e-38 347 296
0.034365334 0.69999999 -0.068730667 1.2245048e-38 348 296
0.035643511 0.70099998 -0.068828844 1.2706026e-38 349 296
0.036977798 0.70300001 -0.069025226 1.3258125e-38 350 296
0.038210396 0.70300001 -0.069025226 1.4456667e-38 351 296
0.039499093 0.704 -0.06912341 1.4646489e-38 352 296
-0.029624319 0.704 -0.070357755 1.732809e-38 296 297
-0.028389972 0.704 -0.070357755 1.4009047e-38 297 297
-0.027117053 0.70300001 -0.070257813 1.2986951e-38 298 297
-0.025810819 0.70099998 -0.070057929 1.1696212e-38 299 297
-0.024546666 0.69999999 -0.069957994 1.178696e-38 300 297
-0.023252707 0.69800001 -0.069758117 1.1510013e-38 301 297
-0.02202888 0.69800001 -0.069758117 1.1416006e-38 302 297
-0.020805053 0.69800001 -0.069758117 1.0955028e-38 303 297
-0.019581227 0.69800001 -0.069758117 1.0860666e-38 304 297
-0.018331099 0.69700003 -0.069658175 1.0399688e-38 305 297
-0.017084479 0.69599998 -0.069558233 9.9390821e-39 306 297
-0.015818574 0.69400001 -0.069358356 9.7546894e-39 307 297
-0.014580719 0.69300002 -0.069258414 9.6621407e-39 308 297
-0.01336566 0.69300002 -0.069258414 9.7543363e-39 309 297
-0.012115533 0.69099998 -0.069058537 9.8468823e-39 310 297
-0.010888199 0.69 -0.068958595 9.939438e-39 311 297
-0.0096783992 0.69 -0.068958595 1.0121674e-38 312 297
-0.0084440531 0.68800002 -0.068758719 9.9372828e-39 313 297
-0.0072377604 0.68800002 -0.068758719 9.8447369e-39 314 297
-0.0060314666 0.68800002 -0.068758719 9.5681514e-39 315 297
-0.0048251734 0.68800002 -0.068758719 9.2930092e-39 316 297
-0.0036136196 0.68699998 -0.068658777 9.2930092e-39 317 297
-0.0024090798 0.68699998 -0.068658777 8.742355e-39 318 297
-0.0012045399 0.68699998 -0.068658777 8.742355e-39 319 297
0 0.68699998 -0.068658777 9.1107816e-39 320 297
0.0012045399 0.68699998 -0.068658777 9.3877272e-39 321 297
0.0024090798 0.68699998 -0.068658777 1.0030574e-38 322 297
0.00360836 0.68599999 -0.068558842 1.0214964e-38 323 297
0.0047971201 0.68400002 -0.068358958 1.0214959e-38 324 297
0.0059964 0.68400002 -0.068358958 1.0214959e-38 325 297
0.0072167199 0.68599999 -0.068558842 1.0307863e-38 326 297
0.0083949603 0.68400002 -0.068358958 1.0307863e-38 327 297
0.0095942402 0.68400002 -0.068358958 1.0857797e-38 328 297
0.010825079 0.68599999 -0.068558842 1.0857797e-38 329 297
0.012027865 0.68599999 -0.068558842 1.0950346e-38 330 297
0.013230653 0.68599999 -0.068558842 1.0950346e-38 331 297
0.014454478 0.68699998 -0.068658777 1.1409516e-38 332 297
0.015659019 0.68699998 -0.068658777 1.1409516e-38 333 297
0.01686356 0.68699998 -0.068658777 1.1502065e-38 334 297
0.018068098 0.68699998 -0.068658777 1.140987e-38 335 297
0.019300694 0.68800002 -0.068758719 1.1593901e-38 336 297
0.020506985 0.68800002 -0.068758719 1.1777933e-38 337 297
0.021713281 0.68800002 -0.068758719 1.1594268e-38 338 297
0.022919573 0.68800002 -0.068758719 1.1686463e-38 339 297
0.024195999 0.69 -0.068958595 1.1596066e-38 340 297
0.025405798 0.69 -0.068958595 1.1688261e-38 341 297
0.026654173 0.69099998 -0.069058537 1.1688977e-38 342 297
0.027946379 0.69300002 -0.069258414 1.1781533e-38 343 297
0.029203519 0.69400001 -0.069358356 1.1690782e-38 344 297
0.030507999 0.69599998 -0.069558233 1.1967009e-38 345 297
0.03177391 0.69700003 -0.069658175 1.2333999e-38 346 297
0.033043321 0.69800001 -0.069758117 1.2610588e-38 347 297
0.034365334 0.69999999 -0.069957994 1.2612755e-38 348 297
0.035643511 0.70099998 -0.070057929 1.3073732e-38 349 297
0.036872596 0.70099998 -0.070057929 1.3351411e-38 350 297
0.038101684 0.70099998 -0.070057929 1.5010933e-38 351 297
-0.028389972 0.704 -0.071592107 1.4840975e-38 297 298
-0.027117053 0.70300001 -0.071490414 1.3909275e-38 298 298
-0.025810819 0.70099998 -0.071287021 1.1696578e-38 299 298
-0.024546666 0.69999999 -0.071185328 1.1604011e-38 300 298
-0.023319334 0.69999999 -0.071185328 1.1604011e-38 301 298
-0.02202888 0.69800001 -0.07098195 1.1234143e-38 302 298
-0.020805053 0.69800001 -0.07098195 1.0865e-38 303 298
-0.019581227 0.69800001 -0.07098195 1.1045428e-38 304 298
-0.018331099 0.69700003 -0.070880257 1.0584452e-38 305 298
-0.017084479 0.69599998 -0.070778556 9.8483312e-39 306 298
-0.015864158 0.69599998 -0.070778556 9.5717429e-39 307 298
-0.01460176 0.69400001 -0.07057517 9.6632197e-39 308 298
-0.01336566 0.69300002 -0.070473477 9.6632197e-39 309 298
-0.012115533 0.69099998 -0.070270091 9.8476053e-39 310 298
-0.010888199 0.69 -0.070168398 9.939801e-39 311 298
-0.0096783992 0.69 -0.070168398 9.8468879e-39 312 298
-0.0084440531 0.68800002 -0.06996502 9.6621379e-39 313 298
-0.0072377604 0.68800002 -0.06996502 9.5695919e-39 314 298
-0.0060314666 0.68800002 -0.06996502 9.3855608e-39 315 298
-0.0048251734 0.68800002 -0.06996502 9.1111347e-39 316 298
-0.0036188802 0.68800002 -0.06996502 9.0189391e-39 317 298
-0.0024090798 0.68699998 -0.069863312 8.7430753e-39 318 298
-0.0012045399 0.68699998 -0.069863312 8.7430753e-39 319 298
0 0.68699998 -0.069863312 9.3859237e-39 320 298
0.0012045399 0.68699998 -0.069863312 9.8469019e-39 321 298
0.0024090798 0.68699998 -0.069863312 1.0306794e-38 322 298
0.00360836 0.68599999 -0.069761619 1.039899e-38 323 298
0.0048111463 0.68599999 -0.069761619 1.0307154e-38 324 298
0.0060139326 0.68599999 -0.069761619 1.0399709e-38 325 298
0.0072167199 0.68599999 -0.069761619 1.0491182e-38 326 298
0.0084195063 0.68599999 -0.069761619 1.0491182e-38 327 298
0.0096222926 0.68599999 -0.069761619 1.1041109e-38 328 298
0.010825079 0.68599999 -0.069761619 1.1133305e-38 329 298
0.012027865 0.68599999 -0.069761619 1.0858864e-38 330 298
0.013249939 0.68699998 -0.069863312 1.0951059e-38 331 298
0.014454478 0.68699998 -0.069863312 1.1226557e-38 332 298
0.015659019 0.68699998 -0.069863312 1.1226557e-38 333 298
0.01686356 0.68699998 -0.069863312 1.140987e-38 334 298
0.0180944 0.68800002 -0.06996502 1.1502065e-38 335 298
0.019300694 0.68800002 -0.06996502 1.1594265e-38 336 298
0.020506985 0.68800002 -0.06996502 1.1594265e-38 337 298
0.021713281 0.68800002 -0.06996502 1.1411672e-38 338 298
0.022986198 0.69 -0.070168398 1.1411672e-38 339 298
0.024195999 0.69 -0.070168398 1.1596066e-38 340 298
0.025442619 0.69099998 -0.070270091 1.1688261e-38 341 298
0.02673132 0.69300002 -0.070473477 1.1690054e-38 342 298
0.027946379 0.69300002 -0.070473477 1.1874445e-38 343 298
0.029203519 0.69400001 -0.07057517 1.1967359e-38 344 298
0.030551834 0.69700003 -0.070880257 1.2152111e-38 345 298
0.031819493 0.69800001 -0.07098195 1.22436e-38 346 298
0.033043321 0.69800001 -0.07098195 1.2704577e-38 347 298
0.034365334 0.69999999 -0.071185328 1.2522358e-38 348 298
0.035643511 0.70099998 -0.071287021 1.3167727e-38 349 298
0.036872596 0.70099998 -0.071287021 1.353797e-38 350 298
0.038101684 0.70099998 -0.071287021 1.5474078e-38 351 298
-0.025810819 0.70099998 -0.072516106 1.1975333e-38 299 299
-0.024581732 0.70099998 -0.072516106 1.1604017e-38 300 299
-0.023319334 0.69999999 -0.072412662 1.1511462e-38 301 299
-0.02202888 0.69800001 -0.072205767 1.1692963e-38 302 299
-0.020805053 0.69800001 -0.072205767 1.1231985e-38 303 299
-0.019581227 0.69800001 -0.072205767 1.0954309e-38 304 299
-0.0183574 0.69800001 -0.072205767 1.0677722e-38 305 299
-0.017109027 0.69700003 -0.072102323 1.0400412e-38 306 299
-0.015864158 0.69599998 -0.071998879 1.0215662e-38 307 299
-0.01460176 0.69400001 -0.071791984 1.0397891e-38 308 299
-0.013384946 0.69400001 -0.071791984 1.0397891e-38 309 299
-0.012150601 0.69300002 -0.07168854 1.0398255e-38 310 299
-0.01090398 0.69099998 -0.071481638 1.0398255e-38 311 299
-0.0096783992 0.69 -0.071378194 1.0397895e-38 312 299
-0.0084440531 0.68800002 -0.071171306 1.0397895e-38 313 299
-0.0072377604 0.68800002 -0.071171306 1.012203e-38 314 299
-0.0060314666 0.68800002 -0.071171306 1.0029834e-38 315 299
-0.0048251734 0.68800002 -0.071171306 9.66357e-39 316 299
-0.0036188802 0.68800002 -0.071171306 9.4791788e-39 317 299
-0.0024125867 0.68800002 -0.071171306 9.2940812e-39 318 299
-0.0012045399 0.68699998 -0.071067855 9.2940812e-39 319 299
0 0.68699998 -0.071067855 9.2026143e-39 320 299
0.0012045399 0.68699998 -0.071067855 9.478841e-39 321 299
0.0024090798 0.68699998 -0.071067855 1.0030577e-38 322 299
0.00360836 0.68599999 -0.070964411 1.0398999e-38 323 299
0.0048111463 0.68599999 -0.070964411 1.0766693e-38 324 299
0.0060139326 0.68599999 -0.070964411 1.0766693e-38 325 299
0.0072167199 0.68599999 -0.070964411 1.085816e-38 326 299
0.0084195063 0.68599999 -0.070964411 1.085816e-38 327 299
0.0096222926 0.68599999 -0.070964411 1.0858869e-38 328 299
0.010825079 0.68599999 -0.070964411 1.0858869e-38 329 299
0.012045399 0.68699998 -0.071067855 1.1042889e-38 330 299
0.013249939 0.68699998 -0.071067855 1.1042889e-38 331 299
0.014454478 0.68699998 -0.071067855 1.1226554e-38 332 299
0.015659019 0.68699998 -0.071067855 1.1319109e-38 333 299
0.01686356 0.68699998 -0.071067855 1.1502421e-38 334 299
0.0180944 0.68800002 -0.071171306 1.1502421e-38 335 299
0.019300694 0.68800002 -0.071171306 1.1410953e-38 336 299
0.020506985 0.68800002 -0.071171306 1.1410953e-38 337 299
0.021776399 0.69 -0.071378194 1.1136174e-38 338 299
0.022986198 0.69 -0.071378194 1.1136174e-38 339 299
0.024195999 0.69 -0.071378194 1.0952861e-38 340 299
0.025442619 0.69099998 -0.071481638 1.1413838e-38 341 299
0.02673132 0.69300002 -0.07168854 1.1415625e-38 342 299
0.027986705 0.69400001 -0.071791984 1.1784047e-38 343 299
0.029287677 0.69599998 -0.071998879 1.2244304e-38 344 299
0.030551834 0.69700003 -0.072102323 1.2336499e-38 345 299
0.031819493 0.69800001 -0.072205767 1.2796051e-38 346 299
0.033137999 0.69999999 -0.072412662 1.3164833e-38 347 299
0.034365334 0.69999999 -0.072412662 1.2891136e-38 348 299
0.035643511 0.70099998 -0.072516106 1.344431e-38 349 299
0.036977798 0.70300001 -0.072723009 1.3356822e-38 350 299
-0.025810819 0.70099998 -0.073745191 1.2713621e-38 299 300
-0.024581732 0.70099998 -0.073745191 1.178913e-38 300 300
-0.023319334 0.69999999 -0.073639996 1.114376e-38 301 300
-0.022091998 0.69999999 -0.073639996 1.1509669e-38 302 300
-0.020864666 0.69999999 -0.073639996 1.104869e-38 303 300
-0.019637333 0.69999999 -0.073639996 1.0770307e-38 304 300
-0.0183574 0.69800001 -0.073429599 1.0493719e-38 305 300
-0.017109027 0.69700003 -0.073324397 1.0308959e-38 306 300
-0.015886955 0.69700003 -0.073324397 1.0124208e-38 307 300
-0.014643839 0.69599998 -0.073219195 1.0216391e-38 308 300
-0.013384946 0.69400001 -0.073008798 1.0124195e-38 309 300
-0.012150601 0.69300002 -0.072903603 1.039934e-38 310 300
-0.010935539 0.69300002 -0.072903603 1.0307144e-38 311 300
-0.0097204801 0.69300002 -0.072903603 1.039934e-38 312 300
-0.0084686 0.69 -0.072587997 1.0307144e-38 313 300
-0.0072377604 0.68800002 -0.0723776 9.9401569e-39 314 300
-0.0060314666 0.68800002 -0.0723776 9.9401569e-39 315 300
-0.0048251734 0.68800002 -0.0723776 9.8468851e-39 316 300
-0.0036188802 0.68800002 -0.0723776 9.7546894e-39 317 300
-0.0024125867 0.68800002 -0.0723776 9.3859237e-39 318 300
-0.0012062934 0.68800002 -0.0723776 9.0175e-39 319 300
0 0.68800002 -0.0723776 9.3852077e-39 320 300
0.0012062934 0.68800002 -0.0723776 9.8461844e-39 321 300
0.0024125867 0.68800002 -0.0723776 1.0214596e-38 322 300
0.0036136196 0.68699998 -0.07227239 1.0675214e-38 323 300
0.0048181596 0.68699998 -0.07227239 1.0675567e-38 324 300
0.0060139326 0.68599999 -0.072167195 1.0767764e-38 325 300
0.0072167199 0.68599999 -0.072167195 1.0950714e-38 326 300
0.0084317802 0.68699998 -0.07227239 1.085816e-38 327 300
0.0096363192 0.68699998 -0.07227239 1.0950346e-38 328 300
0.010840859 0.68699998 -0.07227239 1.1042542e-38 329 300
0.012045399 0.68699998 -0.07227239 1.0951412e-38 330 300
0.013249939 0.68699998 -0.07227239 1.0951412e-38 331 300
0.014454478 0.68699998 -0.07227239 1.1225838e-38 332 300
0.015659019 0.68699998 -0.07227239 1.1502065e-38 333 300
0.016888106 0.68800002 -0.0723776 1.1594268e-38 334 300
0.0180944 0.68800002 -0.0723776 1.1686463e-38 335 300
0.019300694 0.68800002 -0.0723776 1.1411674e-38 336 300
0.020566599 0.69 -0.072587997 1.131912e-38 337 300
0.021776399 0.69 -0.072587997 1.122657e-38 338 300
0.022986198 0.69 -0.072587997 1.1042539e-38 339 300
0.024231065 0.69099998 -0.072693199 1.1227653e-38 340 300
0.025442619 0.69099998 -0.072693199 1.1596434e-38 341 300
0.02673132 0.69300002 -0.072903603 1.1691498e-38 342 300
0.027986705 0.69400001 -0.073008798 1.1968445e-38 343 300
0.029287677 0.69599998 -0.073219195 1.2336149e-38 344 300
0.030551834 0.69700003 -0.073324397 1.2612376e-38 345 300
0.031819493 0.69800001 -0.073429599 1.2887898e-38 346 300
0.033043321 0.69800001 -0.073429599 1.3348874e-38 347 300
0.034267146 0.69800001 -0.073429599 1.2982985e-38 348 300
0.035745207 0.70300001 -0.073955595 1.3812746e-38 349 300
-0.024581732 0.70099998 -0.074974284 1.3170263e-38 300 301
-0.023319334 0.69999999 -0.07486733 1.197172e-38 301 301
-0.022091998 0.69999999 -0.07486733 1.1694777e-38 302 301
-0.020864666 0.69999999 -0.07486733 1.1049408e-38 303 301
-0.019665385 0.70099998 -0.074974284 1.0679186e-38 304 301
-0.018409999 0.69999999 -0.07486733 1.0402599e-38 305 301
-0.017133573 0.69800001 -0.074653424 1.0861407e-38 306 301
-0.015909746 0.69800001 -0.074653424 1.0677016e-38 307 301
-0.014643839 0.69599998 -0.074439511 1.0952508e-38 308 301
-0.013423519 0.69599998 -0.074439511 1.0860313e-38 309 301
-0.012150601 0.69300002 -0.074118659 1.0767753e-38 310 301
-0.010935539 0.69300002 -0.074118659 1.0767753e-38 311 301
-0.0097204801 0.69300002 -0.074118659 1.0767747e-38 312 301
-0.008480873 0.69099998 -0.073904753 1.0767747e-38 313 301
-0.0072587994 0.69 -0.0737978 1.0950696e-38 314 301
-0.0060489997 0.69 -0.0737978 1.0858501e-38 315 301
-0.0048251734 0.68800002 -0.073583893 1.0490088e-38 316 301
-0.0036188802 0.68800002 -0.073583893 1.0305695e-38 317 301
-0.0024125867 0.68800002 -0.073583893 1.0029834e-38 318 301
-0.0012062934 0.68800002 -0.073583893 9.8450844e-39 319 301
0 0.68800002 -0.073583893 1.0029125e-38 320 301
0.0012062934 0.68800002 -0.073583893 1.012168e-38 321 301
0.0024125867 0.68800002 -0.073583893 1.030751e-38 322 301
0.0036136196 0.68699998 -0.073476933 1.0491901e-38 323 301
0.0048181596 0.68699998 -0.073476933 1.0859599e-38 324 301
0.0060226996 0.68699998 -0.073476933 1.0767044e-38 325 301
0.0072272392 0.68699998 -0.073476933 1.0950709e-38 326 301
0.0084317802 0.68699998 -0.073476933 1.0950709e-38 327 301
0.0096363192 0.68699998 -0.073476933 1.1042892e-38 328 301
0.010840859 0.68699998 -0.073476933 1.1226923e-38 329 301
0.012045399 0.68699998 -0.073476933 1.1411303e-38 330 301
0.013269227 0.68800002 -0.073583893 1.1411303e-38 331 301
0.014475521 0.68800002 -0.073583893 1.1411303e-38 332 301
0.015681813 0.68800002 -0.073583893 1.1411303e-38 333 301
0.016888106 0.68800002 -0.073583893 1.1504223e-38 334 301
0.0180944 0.68800002 -0.073583893 1.1504223e-38 335 301
0.019300694 0.68800002 -0.073583893 1.1228006e-38 336 301
0.020566599 0.69 -0.0737978 1.1135811e-38 337 301
0.021807959 0.69099998 -0.073904753 1.0767044e-38 338 301
0.023019511 0.69099998 -0.073904753 1.0859599e-38 339 301
0.024231065 0.69099998 -0.073904753 1.0494057e-38 340 301
0.02551626 0.69300002 -0.074118659 1.104723e-38 341 301
0.026769891 0.69400001 -0.074225612 1.1416353e-38 342 301
0.027986705 0.69400001 -0.074225612 1.1785496e-38 343 301
0.02932976 0.69700003 -0.074546471 1.2336871e-38 344 301
0.030551834 0.69700003 -0.074546471 1.2613459e-38 345 301
0.031819493 0.69800001 -0.074653424 1.2798221e-38 346 301
0.033043321 0.69800001 -0.074653424 1.3074448e-38 347 301
0.034267146 0.69800001 -0.074653424 1.2709288e-38 348 301
-0.023319334 0.69999999 -0.076094657 1.1974594e-38 301 302
-0.022091998 0.69999999 -0.076094657 1.1879522e-38 302 302
-0.020864666 0.69999999 -0.076094657 1.1141957e-38 303 302
-0.019721493 0.70300001 -0.076420791 1.0679915e-38 304 302
-0.018436298 0.70099998 -0.076203369 1.0495165e-38 305 302
-0.017182667 0.69999999 -0.076094657 1.0955047e-38 306 302
-0.015909746 0.69800001 -0.075877249 1.0955047e-38 307 302
-0.014643839 0.69599998 -0.075659841 1.1137624e-38 308 302
-0.013423519 0.69599998 -0.075659841 1.0953233e-38 309 302
-0.012168133 0.69400001 -0.075442426 1.1043625e-38 310 302
-0.010935539 0.69300002 -0.075333714 1.1043625e-38 311 302
-0.0097204801 0.69300002 -0.075333714 1.1043981e-38 312 302
-0.0085054198 0.69300002 -0.075333714 1.1136176e-38 313 302
-0.0072693196 0.69099998 -0.075116299 1.1226573e-38 314 302
-0.0060489997 0.69 -0.075007595 1.0950346e-38 315 302
-0.0048251734 0.68800002 -0.074790187 1.0583003e-38 316 302
-0.0036188802 0.68800002 -0.074790187 1.0490807e-38 317 302
-0.0024125867 0.68800002 -0.074790187 1.0215299e-38 318 302
-0.0012062934 0.68800002 -0.074790187 1.0123102e-38 319 302
0 0.68800002 -0.074790187 1.0214943e-38 320 302
0.0012062934 0.68800002 -0.074790187 1.0307139e-38 321 302
0.0024125867 0.68800002 -0.074790187 1.0675198e-38 322 302
0.0036188802 0.68800002 -0.074790187 1.0859948e-38 323 302
0.0048251734 0.68800002 -0.074790187 1.0950709e-38 324 302
0.0060314666 0.68800002 -0.074790187 1.0950709e-38 325 302
0.0072272392 0.68699998 -0.074681476 1.1042542e-38 326 302
0.0084317802 0.68699998 -0.074681476 1.1042542e-38 327 302
0.0096363192 0.68699998 -0.074681476 1.1227279e-38 328 302
0.010840859 0.68699998 -0.074681476 1.1319476e-38 329 302
0.012045399 0.68699998 -0.074681476 1.1504574e-38 330 302
0.013269227 0.68800002 -0.074790187 1.1412378e-38 331 302
0.014475521 0.68800002 -0.074790187 1.1780079e-38 332 302
0.015681813 0.68800002 -0.074790187 1.1780079e-38 333 302
0.0169372 0.69 -0.075007595 1.1504939e-38 334 302
0.018146999 0.69 -0.075007595 1.1504939e-38 335 302
0.019356798 0.69 -0.075007595 1.1228009e-38 336 302
0.020596405 0.69099998 -0.075116299 1.1135455e-38 337 302
0.021807959 0.69099998 -0.075116299 1.0767764e-38 338 302
0.023019511 0.69099998 -0.075116299 1.0767764e-38 339 302
0.024301201 0.69300002 -0.075333714 1.095323e-38 340 302
0.02551626 0.69300002 -0.075333714 1.1322372e-38 341 302
0.026769891 0.69400001 -0.075442426 1.1784416e-38 342 302
0.027986705 0.69400001 -0.075442426 1.2061004e-38 343 302
0.02932976 0.69700003 -0.075768545 1.2429429e-38 344 302
0.030551834 0.69700003 -0.075768545 1.261418e-38 345 302
0.031819493 0.69800001 -0.075877249 1.2797868e-38 346 302
0.033043321 0.69800001 -0.075877249 1.2890064e-38 347 302
-0.021043506 0.70599997 -0.07798475 1.1141241e-38 303 303
-0.019749546 0.704 -0.077763841 1.1048688e-38 304 303
-0.018436298 0.70099998 -0.077432454 1.1048688e-38 305 303
-0.017182667 0.69999999 -0.077321991 1.1324536e-38 306 303
-0.015909746 0.69800001 -0.077101074 1.1324536e-38 307 303
-0.01466488 0.69700003 -0.076990619 1.1598952e-38 308 303
-0.013423519 0.69599998 -0.076880157 1.123017e-38 309 303
-0.012168133 0.69400001 -0.07665924 1.1320924e-38 310 303
-0.01095132 0.69400001 -0.07665924 1.1320924e-38 311 303
-0.0097204801 0.69300002 -0.076548778 1.1228728e-38 312 303
-0.0085054198 0.69300002 -0.076548778 1.1228728e-38 313 303
-0.0072693196 0.69099998 -0.076327853 1.131877e-38 314 303
-0.0060577663 0.69099998 -0.076327853 1.1226573e-38 315 303
-0.0048391996 0.69 -0.076217398 1.104326e-38 316 303
-0.0036188802 0.68800002 -0.075996481 1.0951065e-38 317 303
-0.0024125867 0.68800002 -0.075996481 1.0951415e-38 318 303
-0.0012062934 0.68800002 -0.075996481 1.085922e-38 319 303
0 0.68800002 -0.075996481 1.0950693e-38 320 303
0.0012062934 0.68800002 -0.075996481 1.0950693e-38 321 303
0.0024125867 0.68800002 -0.075996481 1.1226926e-38 322 303
0.0036188802 0.68800002 -0.075996481 1.1226926e-38 323 303
0.0048251734 0.68800002 -0.075996481 1.1226573e-38 324 303
0.0060489997 0.69 -0.076217398 1.1226573e-38 325 303
0.0072377604 0.68800002 -0.075996481 1.1318405e-38 326 303
0.0084440531 0.68800002 -0.075996481 1.1410602e-38 327 303
0.0096503468 0.68800002 -0.075996481 1.1410953e-38 328 303
0.010856641 0.68800002 -0.075996481 1.168718e-38 329 303
0.012062933 0.68800002 -0.075996481 1.1780081e-38 330 303
0.0133078 0.69 -0.076217398 1.1780081e-38 331 303
0.014517599 0.69 -0.076217398 1.1871914e-38 332 303
0.015727401 0.69 -0.076217398 1.2055945e-38 333 303
0.016961746 0.69099998 -0.076327853 1.1597135e-38 334 303
0.0181733 0.69099998 -0.076327853 1.1597135e-38 335 303
0.019384852 0.69099998 -0.076327853 1.1320924e-38 336 303
0.020656019 0.69300002 -0.076548778 1.1136174e-38 337 303
0.021871079 0.69300002 -0.076548778 1.0952511e-38 338 303
0.02308614 0.69300002 -0.076548778 1.0952511e-38 339 303
0.024301201 0.69300002 -0.076548778 1.0954665e-38 340 303
0.025553079 0.69400001 -0.07665924 1.1415284e-38 341 303
0.026847038 0.69599998 -0.076880157 1.16933e-38 342 303
0.028067358 0.69599998 -0.076880157 1.2061723e-38 343 303
0.02932976 0.69700003 -0.076990619 1.2520909e-38 344 303
0.030595668 0.69800001 -0.077101074 1.270566e-38 345 303
-0.019805651 0.70599997 -0.079222605 1.160112e-38 304 304
-0.018515198 0.704 -0.078998186 1.1785511e-38 305 304
-0.017207211 0.70099998 -0.078661539 1.1695101e-38 306 304
-0.015955333 0.69999999 -0.078549333 1.1602547e-38 307 304
-0.01466488 0.69700003 -0.078212693 1.1968443e-38 308 304
-0.013423519 0.69599998 -0.078100473 1.1691854e-38 309 304
-0.0122032 0.69599998 -0.078100473 1.1873729e-38 310 304
-0.01095132 0.69400001 -0.077876054 1.1781533e-38 311 304
-0.0097204801 0.69300002 -0.077763841 1.1505668e-38 312 304
-0.0085054198 0.69300002 -0.077763841 1.1413472e-38 313 304
-0.0072903596 0.69300002 -0.077763841 1.1686829e-38 314 304
-0.0060753003 0.69300002 -0.077763841 1.1686829e-38 315 304
-0.0048462129 0.69099998 -0.077539407 1.1319852e-38 316 304
-0.0036293997 0.69 -0.077427194 1.1227656e-38 317 304
-0.0024195998 0.69 -0.077427194 1.1228006e-38 318 304
-0.0012097999 0.69 -0.077427194 1.1135811e-38 319 304
0 0.69 -0.077427194 1.1136158e-38 320 304
0.0012097999 0.69 -0.077427194 1.1136158e-38 321 304
0.0024195998 0.69 -0.077427194 1.1411669e-38 322 304
0.0036188802 0.68800002 -0.077202775 1.1411669e-38 323 304
0.0048251734 0.68800002 -0.077202775 1.1502795e-38 324 304
0.0060489997 0.69 -0.077427194 1.1502795e-38 325 304
0.0072377604 0.68800002 -0.077202775 1.1686466e-38 326 304
0.0084440531 0.68800002 -0.077202775 1.1686466e-38 327 304
0.0096503468 0.68800002 -0.077202775 1.1778659e-38 328 304
0.010856641 0.68800002 -0.077202775 1.1870855e-38 329 304
0.012062933 0.68800002 -0.077202775 1.1872643e-38 330 304
0.0133078 0.69 -0.077427194 1.1688612e-38 331 304
0.014538639 0.69099998 -0.077539407 1.1964475e-38 332 304
0.015750192 0.69099998 -0.077539407 1.2056672e-38 333 304
0.01701084 0.69300002 -0.077763841 1.1965199e-38 334 304
0.018225901 0.69300002 -0.077763841 1.1872643e-38 335 304
0.01944096 0.69300002 -0.077763841 1.1505312e-38 336 304
0.020656019 0.69300002 -0.077763841 1.1320921e-38 337 304
0.021871079 0.69300002 -0.077763841 1.1137258e-38 338 304
0.02308614 0.69300002 -0.077763841 1.1321289e-38 339 304
0.024336265 0.69400001 -0.077876054 1.1323086e-38 340 304
0.025626717 0.69599998 -0.078100473 1.1600031e-38 341 304
0.026847038 0.69599998 -0.078100473 1.1785496e-38 342 304
0.028107686 0.69700003 -0.078212693 1.2061723e-38 343 304
0.02932976 0.69700003 -0.078212693 1.2428363e-38 344 304
-0.018515198 0.704 -0.080232531 1.1970273e-38 305 305
-0.017256306 0.70300001 -0.080118567 1.1879859e-38 306 305
-0.015978126 0.70099998 -0.079890631 1.1787662e-38 307 305
-0.014727999 0.69999999 -0.079776667 1.2153558e-38 308 305
-0.013462093 0.69800001 -0.079548739 1.1876613e-38 309 305
-0.0122032 0.69599998 -0.079320796 1.1967006e-38 310 305
-0.01095132 0.69400001 -0.079092868 1.1782975e-38 311 305
-0.0097345067 0.69400001 -0.079092868 1.1598584e-38 312 305
-0.0085054198 0.69300002 -0.078978904 1.1506388e-38 313 305
-0.0072903596 0.69300002 -0.078978904 1.1687908e-38 314 305
-0.0060753003 0.69300002 -0.078978904 1.1595713e-38 315 305
-0.00486024 0.69300002 -0.078978904 1.1228375e-38 316 305
-0.0036346598 0.69099998 -0.078750968 1.1136179e-38 317 305
-0.0024231065 0.69099998 -0.078750968 1.1410965e-38 318 305
-0.0012115532 0.69099998 -0.078750968 1.1410965e-38 319 305
0 0.69 -0.078636996 1.1503151e-38 320 305
0.0012097999 0.69 -0.078636996 1.1779378e-38 321 305
0.0024195998 0.69 -0.078636996 1.1596066e-38 322 305
0.0036293997 0.69 -0.078636996 1.1596066e-38 323 305
0.0048391996 0.69 -0.078636996 1.1596068e-38 324 305
0.0060489997 0.69 -0.078636996 1.1596068e-38 325 305
0.0072587994 0.69 -0.078636996 1.1779378e-38 326 305
0.008480873 0.69099998 -0.078750968 1.1779378e-38 327 305
0.0096783992 0.69 -0.078636996 1.1871574e-38 328 305
0.010888199 0.69 -0.078636996 1.1963769e-38 329 305
0.012097999 0.69 -0.078636996 1.1964845e-38 330 305
0.01336566 0.69300002 -0.078978904 1.1964845e-38 331 305
0.014580719 0.69300002 -0.078978904 1.2148874e-38 332 305
0.015795778 0.69300002 -0.078978904 1.2148874e-38 333 305
0.01701084 0.69300002 -0.078978904 1.2057038e-38 334 305
0.0182522 0.69400001 -0.079092868 1.1964843e-38 335 305
0.019469013 0.69400001 -0.079092868 1.1689698e-38 336 305
0.020685827 0.69400001 -0.079092868 1.1505665e-38 337 305
0.021902639 0.69400001 -0.079092868 1.1413838e-38 338 305
0.023119451 0.69400001 -0.079092868 1.1506035e-38 339 305
0.0244064 0.69599998 -0.079320796 1.1598952e-38 340 305
0.025663542 0.69700003 -0.079434767 1.1783344e-38 341 305
0.026885614 0.69700003 -0.079434767 1.1968092e-38 342 305
0.028107686 0.69700003 -0.079434767 1.2060288e-38 343 305
0.029371841 0.69800001 -0.079548739 1.2242899e-38 344 305
-0.018515198 0.704 -0.081466876 1.1696212e-38 305 306
-0.017280852 0.704 -0.081466876 1.2523064e-38 306 306
-0.016023712 0.70300001 -0.081351154 1.2338314e-38 307 306
-0.014749039 0.70099998 -0.081119716 1.2428698e-38 308 306
-0.013462093 0.69800001 -0.080772556 1.2244306e-38 309 306
-0.0122032 0.69599998 -0.080541112 1.23347e-38 310 306
-0.01095132 0.69400001 -0.080309682 1.23347e-38 311 306
-0.0097345067 0.69400001 -0.080309682 1.1966996e-38 312 306
-0.0085176928 0.69400001 -0.080309682 1.1782246e-38 313 306
-0.0073008798 0.69400001 -0.080309682 1.2056675e-38 314 306
-0.0060753003 0.69300002 -0.080193959 1.1871924e-38 315 306
-0.00486024 0.69300002 -0.080193959 1.1779381e-38 316 306
-0.0036451798 0.69300002 -0.080193959 1.1502795e-38 317 306
-0.00243012 0.69300002 -0.080193959 1.1410252e-38 318 306
-0.00121506 0.69300002 -0.080193959 1.1410252e-38 319 306
0 0.69300002 -0.080193959 1.1319849e-38 320 306
0.00121506 0.69300002 -0.080193959 1.1504239e-38 321 306
0.0024231065 0.69099998 -0.079962514 1.1688261e-38 322 306
0.0036293997 0.69 -0.079846799 1.1688261e-38 323 306
0.0048391996 0.69 -0.079846799 1.1871927e-38 324 306
0.0060577663 0.69099998 -0.079962514 1.1871927e-38 325 306
0.0072693196 0.69099998 -0.079962514 1.1871924e-38 326 306
0.0085054198 0.69300002 -0.080193959 1.1964478e-38 327 306
0.0096924258 0.69099998 -0.079962514 1.1964122e-38 328 306
0.01090398 0.69099998 -0.079962514 1.2056319e-38 329 306
0.012115533 0.69099998 -0.079962514 1.2148518e-38 330 306
0.01336566 0.69300002 -0.080193959 1.2148518e-38 331 306
0.014580719 0.69300002 -0.080193959 1.214959e-38 332 306
0.015795778 0.69300002 -0.080193959 1.2057394e-38 333 306
0.017035386 0.69400001 -0.080309682 1.2057391e-38 334 306
0.0182522 0.69400001 -0.080309682 1.2057391e-38 335 306
0.019469013 0.69400001 -0.080309682 1.1781533e-38 336 306
0.020685827 0.69400001 -0.080309682 1.1688977e-38 337 306
