# .PCD v.7 - Point Cloud Data file format
FIELDS x y z rgb imX imY
SIZE 4 4 4 4 4 4
TYPE F F F F F F
COUNT 1 1 1 1 1 1
WIDTH 829
HEIGHT 1
VIEWPOINT 0 0 0 1 0 0 0
POINTS 829
DATA ascii
0.041013971 0.68800002 -0.06272725 9.3877216e-39 354 292
0.042220265 0.68800002 -0.06272725 9.9408954e-39 355 292
0.043552797 0.69 -0.062909603 1.0584467e-38 356 292
0.0447626 0.69 -0.062909603 1.1229836e-38 357 292
0.04617228 0.69300002 -0.063183114 1.1783386e-38 358 292
0.047592476 0.69599998 -0.063456632 1.2428755e-38 359 292
0.048672531 0.69400001 -0.063274294 1.2982297e-38 360 292
0.049889345 0.69400001 -0.063274294 1.464182e-38 361 292
-0.024651866 0.70300001 -0.065327443 1.9361082e-38 300 293
-0.023252707 0.69800001 -0.06486281 1.7609365e-38 301 293
-0.02202888 0.69800001 -0.06486281 1.6400708e-38 302 293
-0.020805053 0.69800001 -0.06486281 1.3081665e-38 303 293
-0.019581227 0.69800001 -0.06486281 1.4180061e-38 304 293
-0.018331099 0.69700003 -0.064769886 1.3442496e-38 305 293
-0.017109027 0.69700003 -0.064769886 1.2702764e-38 306 293
-0.015864158 0.69599998 -0.064676955 1.2518012e-38 307 293
-0.01460176 0.69400001 -0.064491108 1.2702041e-38 308 293
-0.01336566 0.69300002 -0.064398177 1.2609845e-38 309 293
-0.012115533 0.69099998 -0.06421233 1.2975751e-38 310 293
-0.010888199 0.69 -0.064119399 1.2975751e-38 311 293
-0.0096783992 0.69 -0.064119399 1.2699521e-38 312 293
-0.0084440531 0.68800002 -0.063933544 1.2607325e-38 313 293
-0.0072377604 0.68800002 -0.063933544 1.2513333e-38 314 293
-0.0060226996 0.68699998 -0.06384062 1.2513333e-38 315 293
-0.0048181596 0.68699998 -0.06384062 1.2237116e-38 316 293
-0.0036136196 0.68699998 -0.06384062 1.2052725e-38 317 293
-0.0024055731 0.68599999 -0.063747689 1.1593912e-38 318 293
-0.00119928 0.68400002 -0.063561834 1.1225488e-38 319 293
0 0.68400002 -0.063561834 1.1316608e-38 320 293
0.0011975267 0.68300003 -0.063468911 1.1316608e-38 321 293
0.0023950534 0.68300003 -0.063468911 1.1316252e-38 322 293
0.0035925799 0.68300003 -0.063468911 1.1408447e-38 323 293
0.0047901068 0.68300003 -0.063468911 1.1132939e-38 324 293
0.0059876335 0.68300003 -0.063468911 1.1132939e-38 325 293
0.0071851597 0.68300003 -0.063468911 1.0950346e-38 326 293
0.0083826864 0.68300003 -0.063468911 1.0950346e-38 327 293
0.0095802136 0.68300003 -0.063468911 1.122657e-38 328 293
0.01077774 0.68300003 -0.063468911 1.122657e-38 329 293
0.011975267 0.68300003 -0.063468911 1.104326e-38 330 293
0.013172794 0.68300003 -0.063468911 1.0951065e-38 331 293
0.014370319 0.68300003 -0.063468911 1.0857797e-38 332 293
0.015567848 0.68300003 -0.063468911 1.0396819e-38 333 293
0.016765373 0.68300003 -0.063468911 1.0579784e-38 334 293
0.017962901 0.68300003 -0.063468911 1.0395034e-38 335 293
0.019132372 0.68199998 -0.063375987 1.0212443e-38 336 293
0.020328145 0.68199998 -0.063375987 1.0028412e-38 337 293
0.021523919 0.68199998 -0.063375987 9.9369325e-39 338 293
0.022719691 0.68199998 -0.063375987 9.9369325e-39 339 293
0.023915464 0.68199998 -0.063375987 9.8443711e-39 340 293
0.02514806 0.68300003 -0.063468911 9.8443711e-39 341 293
0.026345588 0.68300003 -0.063468911 9.5688576e-39 342 293
0.027583439 0.68400002 -0.063561834 9.5688576e-39 343 293
0.02878272 0.68400002 -0.063561834 9.752886e-39 344 293
0.030069664 0.68599999 -0.063747689 9.4766578e-39 345 293
0.031272452 0.68599999 -0.063747689 8.9260078e-39 346 293
0.032475237 0.68599999 -0.063747689 8.9260078e-39 347 293
0.033678025 0.68599999 -0.063747689 8.6508656e-39 348 293
0.034880809 0.68599999 -0.063747689 8.6508656e-39 349 293
0.036136195 0.68699998 -0.06384062 8.5583169e-39 350 293
0.037340738 0.68699998 -0.06384062 8.5583169e-39 351 293
0.038545277 0.68699998 -0.06384062 9.0164181e-39 352 293
0.039807681 0.68800002 -0.063933544 9.2933652e-39 353 293
0.041013971 0.68800002 -0.063933544 9.9387318e-39 354 293
0.042220265 0.68800002 -0.063933544 1.0307154e-38 355 293
0.043552797 0.69 -0.064119399 1.0952161e-38 356 293
0.044827472 0.69099998 -0.06421233 1.1505334e-38 357 293
0.04617228 0.69300002 -0.064398177 1.2058505e-38 358 293
0.047592476 0.69599998 -0.064676955 1.279607e-38 359 293
0.048812799 0.69599998 -0.064676955 1.3445058e-38 360 293
0.050033119 0.69599998 -0.064676955 1.5012384e-38 361 293
-0.024651866 0.70300001 -0.066560037 1.9360726e-38 300 294
-0.023252707 0.69800001 -0.066086642 1.8254738e-38 301 294
-0.02202888 0.69800001 -0.066086642 1.6496143e-38 302 294
-0.020805053 0.69800001 -0.066086642 1.2716122e-38 303 294
-0.019581227 0.69800001 -0.066086642 1.427226e-38 304 294
-0.018331099 0.69700003 -0.06599196 1.362689e-38 305 294
-0.017109027 0.69700003 -0.06599196 1.3257367e-38 306 294
-0.015864158 0.69599998 -0.065897278 1.2611997e-38 307 294
-0.01460176 0.69400001 -0.065707922 1.2793507e-38 308 294
-0.01336566 0.69300002 -0.06561324 1.2701312e-38 309 294
-0.012115533 0.69099998 -0.065423876 1.2883558e-38 310 294
-0.010888199 0.69 -0.065329194 1.2699527e-38 311 294
-0.0096783992 0.69 -0.065329194 1.2698094e-38 312 294
-0.0084440531 0.68800002 -0.065139838 1.2329312e-38 313 294
-0.0072377604 0.68800002 -0.065139838 1.1776874e-38 314 294
-0.0060226996 0.68699998 -0.065045156 1.1500646e-38 315 294
-0.0048181596 0.68699998 -0.065045156 1.122515e-38 316 294
-0.0036136196 0.68699998 -0.065045156 1.1040759e-38 317 294
-0.0024055731 0.68599999 -0.064950474 1.0948564e-38 318 294
-0.00119928 0.68400002 -0.064761117 1.0764174e-38 319 294
0 0.68400002 -0.064761117 1.0671978e-38 320 294
0.00119928 0.68400002 -0.064761117 1.0671978e-38 321 294
0.0023950534 0.68300003 -0.064666435 1.0948561e-38 322 294
0.0035925799 0.68300003 -0.064666435 1.1040756e-38 323 294
0.0047901068 0.68300003 -0.064666435 1.0857797e-38 324 294
0.0059876335 0.68300003 -0.064666435 1.0857797e-38 325 294
0.0071851597 0.68300003 -0.064666435 1.0858513e-38 326 294
0.0083826864 0.68300003 -0.064666435 1.0950709e-38 327 294
0.0095802136 0.68300003 -0.064666435 1.0950709e-38 328 294
0.01077774 0.68300003 -0.064666435 1.0950709e-38 329 294
0.011975267 0.68300003 -0.064666435 1.0675204e-38 330 294
0.013153506 0.68199998 -0.064571753 1.0582649e-38 331 294
0.01434928 0.68199998 -0.064571753 1.0397905e-38 332 294
0.015545053 0.68199998 -0.064571753 1.0121677e-38 333 294
0.016740825 0.68199998 -0.064571753 9.5695947e-39 334 294
0.017936599 0.68199998 -0.064571753 9.2930092e-39 335 294
0.019132372 0.68199998 -0.064571753 9.2926617e-39 336 294
0.020328145 0.68199998 -0.064571753 9.2926617e-39 337 294
0.021523919 0.68199998 -0.064571753 9.4763271e-39 338 294
0.022719691 0.68199998 -0.064571753 9.5685227e-39 339 294
0.023915464 0.68199998 -0.064571753 9.5681514e-39 340 294
0.02514806 0.68300003 -0.064666435 9.4759544e-39 341 294
0.026345588 0.68300003 -0.064666435 9.2011625e-39 342 294
0.027543113 0.68300003 -0.064666435 9.2011625e-39 343 294
0.028740639 0.68300003 -0.064666435 9.3848307e-39 344 294
0.030069664 0.68599999 -0.064950474 9.3848307e-39 345 294
0.031272452 0.68599999 -0.064950474 9.3851839e-39 346 294
0.032475237 0.68599999 -0.064950474 9.3851839e-39 347 294
0.033727121 0.68699998 -0.065045156 9.3848279e-39 348 294
0.034931656 0.68699998 -0.065045156 9.3848279e-39 349 294
0.036136195 0.68699998 -0.065045156 9.016421e-39 350 294
0.037340738 0.68699998 -0.065045156 9.016421e-39 351 294
0.038601387 0.68800002 -0.065139838 8.466494e-39 352 294
0.039807681 0.68800002 -0.065139838 8.9274721e-39 353 294
0.041013971 0.68800002 -0.065139838 9.2962448e-39 354 294
0.042342998 0.69 -0.065329194 9.7575831e-39 355 294
0.043552797 0.69 -0.065329194 1.0860331e-38 356 294
0.044827472 0.69099998 -0.065423876 1.1321669e-38 357 294
0.04617228 0.69300002 -0.06561324 1.2059231e-38 358 294
0.047455717 0.69400001 -0.065707922 1.2335817e-38 359 294
0.048672531 0.69400001 -0.065707922 1.3628367e-38 360 294
0.050033119 0.69599998 -0.065897278 1.5841421e-38 361 294
-0.023419274 0.70300001 -0.067792632 1.8624243e-38 301 295
-0.022091998 0.69999999 -0.067503333 1.6957844e-38 302 295
-0.020864666 0.69999999 -0.067503333 1.2993432e-38 303 295
-0.019581227 0.69800001 -0.06731046 1.4364821e-38 304 295
-0.0183574 0.69800001 -0.06731046 1.3811647e-38 305 295
-0.017109027 0.69700003 -0.067214034 1.3166628e-38 306 295
-0.015864158 0.69599998 -0.067117594 1.2429063e-38 307 295
-0.01460176 0.69400001 -0.066924736 1.2519095e-38 308 295
-0.01336566 0.69300002 -0.066828303 1.2149953e-38 309 295
-0.012115533 0.69099998 -0.06663543 1.2699171e-38 310 295
-0.010888199 0.69 -0.066538997 1.2514779e-38 311 295
-0.0096783992 0.69 -0.066538997 1.1961974e-38 312 295
-0.0084440531 0.68800002 -0.066346131 1.1593192e-38 313 295
-0.0072377604 0.68800002 -0.066346131 1.1315185e-38 314 295
-0.0060226996 0.68699998 -0.066249698 1.1130435e-38 315 295
-0.0048181596 0.68699998 -0.066249698 1.0763099e-38 316 295
-0.0036136196 0.68699998 -0.066249698 1.0855296e-38 317 295
-0.0024055731 0.68599999 -0.066153266 1.0579784e-38 318 295
-0.0012027866 0.68599999 -0.066153266 1.0487588e-38 319 295
0 0.68400002 -0.0659604 1.0487585e-38 320 295
0.0011975267 0.68300003 -0.065863967 1.0487585e-38 321 295
0.0023950534 0.68300003 -0.065863967 1.0396466e-38 322 295
0.0035925799 0.68300003 -0.065863967 1.0673053e-38 323 295
0.0047901068 0.68300003 -0.065863967 1.0306788e-38 324 295
0.0059876335 0.68300003 -0.065863967 1.0491538e-38 325 295
0.0071851597 0.68300003 -0.065863967 1.0767046e-38 326 295
0.0083826864 0.68300003 -0.065863967 1.0767046e-38 327 295
0.0095802136 0.68300003 -0.065863967 1.0858163e-38 328 295
0.01077774 0.68300003 -0.065863967 1.0674132e-38 329 295
0.011975267 0.68300003 -0.065863967 1.058158e-38 330 295
0.013153506 0.68199998 -0.065767527 1.0489385e-38 331 295
0.01434928 0.68199998 -0.065767527 1.0029847e-38 332 295
0.015545053 0.68199998 -0.065767527 9.7536203e-39 333 295
0.016740825 0.68199998 -0.065767527 9.3852049e-39 334 295
0.017936599 0.68199998 -0.065767527 9.1086166e-39 335 295
0.019132372 0.68199998 -0.065767527 9.0160706e-39 336 295
0.020328145 0.68199998 -0.065767527 8.9235163e-39 337 295
0.021523919 0.68199998 -0.065767527 9.1075446e-39 338 295
0.022719691 0.68199998 -0.065767527 9.3837713e-39 339 295
0.023915464 0.68199998 -0.065767527 9.2008094e-39 340 295
0.02514806 0.68300003 -0.065863967 9.1086138e-39 341 295
0.026345588 0.68300003 -0.065863967 9.1078949e-39 342 295
0.027543113 0.68300003 -0.065863967 9.2000905e-39 343 295
0.028740639 0.68300003 -0.065863967 9.3844748e-39 344 295
0.029982001 0.68400002 -0.0659604 9.4770306e-39 345 295
0.03118128 0.68400002 -0.0659604 9.3848307e-39 346 295
0.032475237 0.68599999 -0.066153266 9.4770278e-39 347 295
0.033727121 0.68699998 -0.066249698 9.3844804e-39 348 295
0.034931656 0.68699998 -0.066249698 9.2000905e-39 349 295
0.036136195 0.68699998 -0.066249698 8.8327528e-39 350 295
0.037340738 0.68699998 -0.066249698 8.8327528e-39 351 295
0.038601387 0.68800002 -0.066346131 8.7412732e-39 352 295
0.039807681 0.68800002 -0.066346131 8.9260232e-39 353 295
0.041133199 0.69 -0.066538997 9.3869957e-39 354 295
0.042342998 0.69 -0.066538997 9.848334e-39 355 295
0.043615919 0.69099998 -0.06663543 1.0676297e-38 356 295
0.044827472 0.69099998 -0.06663543 1.1321666e-38 357 295
0.04617228 0.69300002 -0.066828303 1.2150348e-38 358 295
0.047455717 0.69400001 -0.066924736 1.2335098e-38 359 295
0.048672531 0.69400001 -0.066924736 1.3629812e-38 360 295
0.050033119 0.69599998 -0.067117594 1.621129e-38 361 295
-0.022091998 0.69999999 -0.068730667 1.8247149e-38 302 296
-0.020864666 0.69999999 -0.068730667 1.4006511e-38 303 296
-0.019581227 0.69800001 -0.068534292 1.445774e-38 304 296
-0.0183574 0.69800001 -0.068534292 1.3904566e-38 305 296
-0.017109027 0.69700003 -0.068436109 1.3256676e-38 306 296
-0.015864158 0.69599998 -0.068337917 1.3072285e-38 307 296
-0.01460176 0.69400001 -0.068141542 1.2611297e-38 308 296
-0.01336566 0.69300002 -0.068043359 1.2242154e-38 309 296
-0.012115533 0.69099998 -0.067846984 1.2331833e-38 310 296
-0.010888199 0.69 -0.0677488 1.2054886e-38 311 296
-0.0096783992 0.69 -0.0677488 1.1776877e-38 312 296
-0.0084440531 0.68800002 -0.067552425 1.1315898e-38 313 296
-0.0072377604 0.68800002 -0.067552425 1.0855296e-38 314 296
-0.0060226996 0.68699998 -0.067454241 1.0763099e-38 315 296
-0.0048181596 0.68699998 -0.067454241 9.84546e-39 316 296
-0.0036136196 0.68699998 -0.067454241 9.84546e-39 317 296
-0.0023985601 0.68400002 -0.067159683 9.7539832e-39 318 296
-0.00119928 0.68400002 -0.067159683 9.5695919e-39 319 296
0 0.68400002 -0.067159683 9.6610687e-39 320 296
0.0011975267 0.68300003 -0.067061491 9.6610687e-39 321 296
0.0023950534 0.68300003 -0.067061491 9.6617904e-39 322 296
0.0035925799 0.68300003 -0.067061491 9.8461816e-39 323 296
0.0047901068 0.68300003 -0.067061491 9.8469047e-39 324 296
0.0059876335 0.68300003 -0.067061491 1.0031296e-38 325 296
0.0071851597 0.68300003 -0.067061491 1.0307157e-38 326 296
0.0083826864 0.68300003 -0.067061491 1.0307157e-38 327 296
0.0095802136 0.68300003 -0.067061491 1.0306794e-38 328 296
0.01077774 0.68300003 -0.067061491 1.021424e-38 329 296
0.011975267 0.68300003 -0.067061491 1.0122047e-38 330 296
0.013153506 0.68199998 -0.0669633 9.84546e-39 331 296
0.01434928 0.68199998 -0.0669633 9.6617876e-39 332 296
0.015545053 0.68199998 -0.0669633 9.3855608e-39 333 296
0.016740825 0.68199998 -0.0669633 9.017144e-39 334 296
0.017936599 0.68199998 -0.0669633 8.8327528e-39 335 296
0.019132372 0.68199998 -0.0669633 8.4646961e-39 336 296
0.020328145 0.68199998 -0.0669633 8.5568917e-39 337 296
0.021523919 0.68199998 -0.0669633 8.741276e-39 338 296
0.022719691 0.68199998 -0.0669633 8.8334716e-39 339 296
0.023915464 0.68199998 -0.0669633 9.0175e-39 340 296
0.02514806 0.68300003 -0.067061491 8.8331087e-39 341 296
0.026345588 0.68300003 -0.067061491 8.7405571e-39 342 296
0.027543113 0.68300003 -0.067061491 8.9249484e-39 343 296
0.028740639 0.68300003 -0.067061491 9.0178531e-39 344 296
0.029982001 0.68400002 -0.067159683 9.0178531e-39 345 296
0.03118128 0.68400002 -0.067159683 9.4770278e-39 346 296
0.032475237 0.68599999 -0.06735605 9.4770278e-39 347 296
0.033727121 0.68699998 -0.067454241 9.2933624e-39 348 296
0.034931656 0.68699998 -0.067454241 9.1089697e-39 349 296
0.036136195 0.68699998 -0.067454241 9.0178531e-39 350 296
0.037340738 0.68699998 -0.067454241 8.9252987e-39 351 296
0.038601387 0.68800002 -0.067552425 8.7427053e-39 352 296
0.039807681 0.68800002 -0.067552425 8.8349024e-39 353 296
0.041133199 0.69 -0.0677488 9.110413e-39 354 296
0.042404365 0.69099998 -0.067846984 9.8483368e-39 355 296
0.043742158 0.69300002 -0.068043359 1.0493706e-38 356 296
0.044957221 0.69300002 -0.068043359 1.1231271e-38 357 296
0.046238903 0.69400001 -0.068141542 1.2059953e-38 358 296
0.047455717 0.69400001 -0.068141542 1.2152149e-38 359 296
0.048672531 0.69400001 -0.068141542 1.4276984e-38 360 296
0.050033119 0.69599998 -0.068337917 1.6581873e-38 361 296
-0.020864666 0.69999999 -0.069957994 1.4838442e-38 303 297
-0.019581227 0.69800001 -0.069758117 1.4458832e-38 304 297
-0.0183574 0.69800001 -0.069758117 1.3813462e-38 305 297
-0.017109027 0.69700003 -0.069658175 1.344107e-38 306 297
-0.015864158 0.69599998 -0.069558233 1.2887898e-38 307 297
-0.01460176 0.69400001 -0.069358356 1.270206e-38 308 297
-0.01336566 0.69300002 -0.069258414 1.2148886e-38 309 297
-0.012115533 0.69099998 -0.069058537 1.2238564e-38 310 297
-0.010888199 0.69 -0.068958595 1.1961977e-38 311 297
-0.0096503468 0.68800002 -0.068758719 1.1501013e-38 312 297
-0.0084440531 0.68800002 -0.068758719 1.0947839e-38 313 297
-0.0072272392 0.68699998 -0.068658777 1.0397186e-38 314 297
-0.0060226996 0.68699998 -0.068658777 1.0304989e-38 315 297
-0.0048181596 0.68699998 -0.068658777 9.7546894e-39 316 297
-0.00360836 0.68599999 -0.068558842 9.7546894e-39 317 297
-0.0023985601 0.68400002 -0.068358958 9.38663e-39 318 297
-0.00119928 0.68400002 -0.068358958 9.2022387e-39 319 297
0 0.68400002 -0.068358958 9.0175e-39 320 297
0.0011975267 0.68300003 -0.068259016 9.0175e-39 321 297
0.0023950534 0.68300003 -0.068259016 9.017514e-39 322 297
0.0035925799 0.68300003 -0.068259016 9.202264e-39 323 297
0.0047901068 0.68300003 -0.068259016 9.2951785e-39 324 297
0.0059876335 0.68300003 -0.068259016 9.4795711e-39 325 297
0.0071851597 0.68300003 -0.068259016 9.9390975e-39 326 297
0.0083826864 0.68300003 -0.068259016 9.9390975e-39 327 297
0.0095802136 0.68300003 -0.068259016 9.5706709e-39 328 297
0.01077774 0.68300003 -0.068259016 9.4784753e-39 329 297
0.011975267 0.68300003 -0.068259016 9.3866426e-39 330 297
0.013153506 0.68199998 -0.068159081 9.2026115e-39 331 297
0.01434928 0.68199998 -0.068159081 9.2937309e-39 332 297
0.015545053 0.68199998 -0.068159081 9.2015353e-39 333 297
0.016740825 0.68199998 -0.068159081 8.7412788e-39 334 297
0.017936599 0.68199998 -0.068159081 8.4646933e-39 335 297
0.019132372 0.68199998 -0.068159081 8.0977059e-39 336 297
0.020328145 0.68199998 -0.068159081 8.1899015e-39 337 297
0.021523919 0.68199998 -0.068159081 8.5583169e-39 338 297
0.022719691 0.68199998 -0.068159081 8.5583169e-39 339 297
0.023915464 0.68199998 -0.068159081 9.016421e-39 340 297
0.025111238 0.68199998 -0.068159081 8.9242253e-39 341 297
0.026307013 0.68199998 -0.068159081 8.4650492e-39 342 297
0.027502786 0.68199998 -0.068159081 8.741276e-39 343 297
0.028740639 0.68300003 -0.068259016 8.833822e-39 344 297
0.029938167 0.68300003 -0.068259016 9.0185733e-39 345 297
0.03118128 0.68400002 -0.068358958 9.4770306e-39 346 297
0.032475237 0.68599999 -0.068558842 9.4770306e-39 347 297
0.033678025 0.68599999 -0.068558842 9.2011625e-39 348 297
0.034931656 0.68699998 -0.068658777 9.1089669e-39 349 297
0.036136195 0.68699998 -0.068658777 9.0182034e-39 350 297
0.037340738 0.68699998 -0.068658777 9.0182034e-39 351 297
0.038601387 0.68800002 -0.068758719 9.2022387e-39 352 297
0.039807681 0.68800002 -0.068758719 9.2022387e-39 353 297
0.041133199 0.69 -0.068958595 9.2029674e-39 354 297
0.042404365 0.69099998 -0.069058537 9.8483368e-39 355 297
0.043742158 0.69300002 -0.069258414 1.0494425e-38 356 297
0.044957221 0.69300002 -0.069258414 1.123199e-38 357 297
0.046238903 0.69400001 -0.069358356 1.1876635e-38 358 297
0.047592476 0.69599998 -0.069558233 1.2153221e-38 359 297
0.048812799 0.69599998 -0.069558233 1.5108183e-38 360 297
-0.020894472 0.70099998 -0.071287021 1.59466e-38 303 298
-0.019637333 0.69999999 -0.071185328 1.482834e-38 304 298
-0.0183574 0.69800001 -0.07098195 1.3537601e-38 305 298
-0.017109027 0.69700003 -0.070880257 1.3442143e-38 306 298
-0.015864158 0.69599998 -0.070778556 1.2796774e-38 307 298
-0.01460176 0.69400001 -0.07057517 1.2519464e-38 308 298
-0.013384946 0.69400001 -0.07057517 1.1874095e-38 309 298
-0.012115533 0.69099998 -0.070270091 1.2054891e-38 310 298
-0.010888199 0.69 -0.070168398 1.1593915e-38 311 298
-0.0096503468 0.68800002 -0.06996502 1.1133305e-38 312 298
-0.0084440531 0.68800002 -0.06996502 1.0764883e-38 313 298
-0.0072272392 0.68699998 -0.069863312 1.0305345e-38 314 298
-0.0060226996 0.68699998 -0.069863312 1.0212791e-38 315 298
-0.0048181596 0.68699998 -0.069863312 9.6635728e-39 316 298
-0.00360836 0.68599999 -0.069761619 9.4788228e-39 317 298
-0.0023985601 0.68400002 -0.06955824 9.110769e-39 318 298
-0.00119928 0.68400002 -0.06955824 8.833822e-39 319 298
0 0.68400002 -0.06955824 8.8327528e-39 320 298
0.0011975267 0.68300003 -0.069456547 8.9249484e-39 321 298
0.0023950534 0.68300003 -0.069456547 8.6498062e-39 322 298
0.0035925799 0.68300003 -0.069456547 8.8341989e-39 323 298
0.0047901068 0.68300003 -0.069456547 9.1107816e-39 324 298
0.0059876335 0.68300003 -0.069456547 9.2955316e-39 325 298
0.0071851597 0.68300003 -0.069456547 9.3880775e-39 326 298
0.0083826864 0.68300003 -0.069456547 9.3880775e-39 327 298
0.0095802136 0.68300003 -0.069456547 9.2026115e-39 328 298
0.01077774 0.68300003 -0.069456547 9.1104158e-39 329 298
0.011975267 0.68300003 -0.069456547 8.834908e-39 330 298
0.013153506 0.68199998 -0.069354847 8.834908e-39 331 298
0.01434928 0.68199998 -0.069354847 9.0178643e-39 332 298
0.015545053 0.68199998 -0.069354847 8.9256673e-39 333 298
0.016740825 0.68199998 -0.069354847 8.1902672e-39 334 298
0.017936599 0.68199998 -0.069354847 7.9140405e-39 335 298
0.019132372 0.68199998 -0.069354847 8.0065892e-39 336 298
0.020328145 0.68199998 -0.069354847 8.282816e-39 337 298
0.021523919 0.68199998 -0.069354847 8.5583169e-39 338 298
0.022719691 0.68199998 -0.069354847 8.5583169e-39 339 298
0.023915464 0.68199998 -0.069354847 8.6487146e-39 340 298
0.025111238 0.68199998 -0.069354847 8.6487146e-39 341 298
0.026307013 0.68199998 -0.069354847 8.6487146e-39 342 298
0.027502786 0.68199998 -0.069354847 8.7409103e-39 343 298
0.028740639 0.68300003 -0.069456547 8.7416263e-39 344 298
0.029938167 0.68300003 -0.069456547 8.833822e-39 345 298
0.03118128 0.68400002 -0.06955824 9.3844776e-39 346 298
0.032475237 0.68599999 -0.069761619 9.4766746e-39 347 298
0.033678025 0.68599999 -0.069761619 9.2933596e-39 348 298
0.034931656 0.68699998 -0.069863312 9.2011625e-39 349 298
0.036136195 0.68699998 -0.069863312 9.2022331e-39 350 298
0.037340738 0.68699998 -0.069863312 9.2947875e-39 351 298
0.038601387 0.68800002 -0.06996502 9.4788228e-39 352 298
0.039807681 0.68800002 -0.06996502 9.3866272e-39 353 298
0.041133199 0.69 -0.070168398 9.4806277e-39 354 298
0.042404365 0.69099998 -0.070270091 1.00338e-38 355 298
0.043742158 0.69300002 -0.070473477 1.0679167e-38 356 298
0.044957221 0.69300002 -0.070473477 1.1324536e-38 357 298
0.046238903 0.69400001 -0.07057517 1.2060303e-38 358 298
0.047592476 0.69599998 -0.070778556 1.2521281e-38 359 298
0.048812799 0.69599998 -0.070778556 1.5663155e-38 360 298
0.050033119 0.69599998 -0.070778556 1.7138644e-38 361 298
-0.020894472 0.70099998 -0.072516106 1.7053673e-38 303 299
-0.019581227 0.69800001 -0.072205767 1.5568426e-38 304 299
-0.018331099 0.69700003 -0.072102323 1.3447926e-38 305 299
-0.017084479 0.69599998 -0.071998879 1.38102e-38 306 299
-0.015864158 0.69599998 -0.071998879 1.3257026e-38 307 299
-0.01460176 0.69400001 -0.071791984 1.2977553e-38 308 299
-0.013384946 0.69400001 -0.071791984 1.2424379e-38 309 299
-0.012115533 0.69099998 -0.071481638 1.2237832e-38 310 299
-0.010888199 0.69 -0.071378194 1.186941e-38 311 299
-0.0096783992 0.69 -0.071378194 1.1132586e-38 312 299
-0.0084440531 0.68800002 -0.071171306 1.0579412e-38 313 299
-0.0072272392 0.68699998 -0.071067855 9.7543391e-39 314 299
-0.0060226996 0.68699998 -0.071067855 9.6617848e-39 315 299
-0.0048181596 0.68699998 -0.071067855 9.3869957e-39 316 299
-0.00360836 0.68599999 -0.070964411 9.2029646e-39 317 299
-0.0023985601 0.68400002 -0.070757523 9.2933624e-39 318 299
-0.00119928 0.68400002 -0.070757523 9.2011653e-39 319 299
0 0.68400002 -0.070757523 9.0178531e-39 320 299
0.0011975267 0.68300003 -0.070654072 9.0178531e-39 321 299
0.0023950534 0.68300003 -0.070654072 8.4668471e-39 322 299
0.0035925799 0.68300003 -0.070654072 8.7430753e-39 323 299
0.0047901068 0.68300003 -0.070654072 8.5601259e-39 324 299
0.0059876335 0.68300003 -0.070654072 8.7448759e-39 325 299
0.0071851597 0.68300003 -0.070654072 9.2033331e-39 326 299
0.0083826864 0.68300003 -0.070654072 9.1111375e-39 327 299
0.0095802136 0.68300003 -0.070654072 8.834552e-39 328 299
0.01077774 0.68300003 -0.070654072 8.742355e-39 329 299
0.011975267 0.68300003 -0.070654072 8.4672142e-39 330 299
0.013153506 0.68199998 -0.070550621 8.4672142e-39 331 299
0.01434928 0.68199998 -0.070550621 8.4664968e-39 332 299
0.015545053 0.68199998 -0.070550621 8.3739424e-39 333 299
0.016740825 0.68199998 -0.070550621 8.3742955e-39 334 299
0.017936599 0.68199998 -0.070550621 8.2820999e-39 335 299
0.019132372 0.68199998 -0.070550621 8.2824502e-39 336 299
0.020328145 0.68199998 -0.070550621 8.2824502e-39 337 299
0.021523919 0.68199998 -0.070550621 8.4657625e-39 338 299
0.022719691 0.68199998 -0.070550621 8.4657625e-39 339 299
0.023915464 0.68199998 -0.070550621 8.557598e-39 340 299
0.02514806 0.68300003 -0.070654072 8.372848e-39 341 299
0.026307013 0.68199998 -0.070550621 8.3735669e-39 342 299
0.027502786 0.68199998 -0.070550621 8.3735669e-39 343 299
0.028740639 0.68300003 -0.070654072 8.5572421e-39 344 299
0.029938167 0.68300003 -0.070654072 8.8338276e-39 345 299
0.03118128 0.68400002 -0.070757523 9.2008094e-39 346 299
0.032475237 0.68599999 -0.070964411 9.2933652e-39 347 299
0.033678025 0.68599999 -0.070964411 9.7528916e-39 348 299
0.034931656 0.68699998 -0.071067855 9.7528916e-39 349 299
0.036136195 0.68699998 -0.071067855 9.6628441e-39 350 299
0.037340738 0.68699998 -0.071067855 9.7550398e-39 351 299
0.038601387 0.68800002 -0.071171306 1.0030548e-38 352 299
0.0399234 0.69 -0.071378194 1.0215299e-38 353 299
0.041133199 0.69 -0.071378194 1.0216747e-38 354 299
0.042404365 0.69099998 -0.071481638 1.0769562e-38 355 299
0.043742158 0.69300002 -0.07168854 1.1140145e-38 356 299
0.044957221 0.69300002 -0.07168854 1.169296e-38 357 299
0.046238903 0.69400001 -0.071791984 1.2429084e-38 358 299
0.047592476 0.69599998 -0.071998879 1.2890064e-38 359 299
0.048812799 0.69599998 -0.071998879 1.6033736e-38 360 299
-0.019581227 0.69800001 -0.073429599 1.6768782e-38 304 300
-0.018331099 0.69700003 -0.073324397 1.4279502e-38 305 300
-0.017084479 0.69599998 -0.073219195 1.3903847e-38 306 300
-0.015864158 0.69599998 -0.073219195 1.3166281e-38 307 300
-0.01460176 0.69400001 -0.073008798 1.2613815e-38 308 300
-0.013384946 0.69400001 -0.073008798 1.1783694e-38 309 300
-0.012150601 0.69300002 -0.072903603 1.1687911e-38 310 300
-0.01090398 0.69099998 -0.072693199 1.131877e-38 311 300
-0.0096924258 0.69099998 -0.072693199 1.0673053e-38 312 300
-0.0084686 0.69 -0.072587997 1.0396466e-38 313 300
-0.0072377604 0.68800002 -0.0723776 9.6614218e-39 314 300
-0.0060226996 0.68699998 -0.07227239 9.7536174e-39 315 300
-0.0048181596 0.68699998 -0.07227239 9.3869957e-39 316 300
-0.0036136196 0.68699998 -0.07227239 9.110769e-39 317 300
-0.0024055731 0.68599999 -0.072167195 9.2018856e-39 318 300
-0.0012027866 0.68599999 -0.072167195 9.2940812e-39 319 300
0 0.68400002 -0.071956798 9.0189363e-39 320 300
0.0011975267 0.68300003 -0.071851604 8.7427081e-39 321 300
0.0023950534 0.68300003 -0.071851604 8.742355e-39 322 300
0.0035925799 0.68300003 -0.071851604 8.6501594e-39 323 300
0.0047901068 0.68300003 -0.071851604 8.6508782e-39 324 300
0.0059876335 0.68300003 -0.071851604 8.8352709e-39 325 300
0.0071851597 0.68300003 -0.071851604 9.2029772e-39 326 300
0.0083826864 0.68300003 -0.071851604 9.1107816e-39 327 300
0.0095802136 0.68300003 -0.071851604 8.5594099e-39 328 300
0.01077774 0.68300003 -0.071851604 8.5594099e-39 329 300
0.011975267 0.68300003 -0.071851604 8.4672142e-39 330 300
0.013172794 0.68300003 -0.071851604 8.4672142e-39 331 300
0.014370319 0.68300003 -0.071851604 8.6505265e-39 332 300
0.015545053 0.68199998 -0.071746394 8.466494e-39 333 300
0.016740825 0.68199998 -0.071746394 8.3746515e-39 334 300
0.017936599 0.68199998 -0.071746394 8.3746515e-39 335 300
0.019132372 0.68199998 -0.071746394 8.2831691e-39 336 300
0.020328145 0.68199998 -0.071746394 8.1909735e-39 337 300
0.021523919 0.68199998 -0.071746394 8.4650492e-39 338 300
0.022719691 0.68199998 -0.071746394 8.3724949e-39 339 300
0.023915464 0.68199998 -0.071746394 8.1891826e-39 340 300
0.02514806 0.68300003 -0.071851604 8.1891826e-39 341 300
0.026307013 0.68199998 -0.071746394 8.2806482e-39 342 300
0.027502786 0.68199998 -0.071746394 8.4653996e-39 343 300
0.028740639 0.68300003 -0.071851604 8.7401886e-39 344 300
0.029938167 0.68300003 -0.071851604 9.1089697e-39 345 300
0.03118128 0.68400002 -0.071956798 9.2018828e-39 346 300
0.032475237 0.68599999 -0.072167195 9.4788284e-39 347 300
0.033678025 0.68599999 -0.072167195 9.5710213e-39 348 300
0.034931656 0.68699998 -0.07227239 9.6632169e-39 349 300
0.036136195 0.68699998 -0.07227239 9.8476081e-39 350 300
0.037395094 0.68800002 -0.0723776 9.9398038e-39 351 300
0.038713597 0.69 -0.072587997 1.0398984e-38 352 300
0.0399234 0.69 -0.072587997 1.0491538e-38 353 300
0.041192811 0.69099998 -0.072693199 1.0769918e-38 354 300
0.042404365 0.69099998 -0.072693199 1.113834e-38 355 300
0.043742158 0.69300002 -0.072903603 1.1600034e-38 356 300
0.044957221 0.69300002 -0.072903603 1.2245404e-38 357 300
0.046238903 0.69400001 -0.073008798 1.298263e-38 358 300
0.047455717 0.69400001 -0.073008798 1.4181171e-38 359 300
-0.0183574 0.69800001 -0.074653424 1.4744447e-38 305 301
-0.017109027 0.69700003 -0.074546471 1.4181522e-38 306 301
-0.015864158 0.69599998 -0.074439511 1.3075534e-38 307 301
-0.01460176 0.69400001 -0.074225612 1.2427994e-38 308 301
-0.013384946 0.69400001 -0.074225612 1.2058852e-38 309 301
-0.012168133 0.69400001 -0.074225612 1.1963422e-38 310 301
-0.010935539 0.69300002 -0.074118659 1.1318052e-38 311 301
-0.0097204801 0.69300002 -0.074118659 1.0764527e-38 312 301
-0.008480873 0.69099998 -0.073904753 1.0395743e-38 313 301
-0.0072377604 0.68800002 -0.073583893 9.6617876e-39 314 301
-0.0060314666 0.68800002 -0.073583893 9.5695919e-39 315 301
-0.0048181596 0.68699998 -0.073476933 9.3859237e-39 316 301
-0.0036136196 0.68699998 -0.073476933 9.2937281e-39 317 301
-0.0024090798 0.68699998 -0.073476933 9.2940784e-39 318 301
-0.0012027866 0.68599999 -0.073369987 9.2940784e-39 319 301
0 0.68599999 -0.073369987 9.2022387e-39 320 301
0.00119928 0.68400002 -0.073156074 9.2944344e-39 321 301
0.0023985601 0.68400002 -0.073156074 9.0174971e-39 322 301
0.0035925799 0.68300003 -0.073049128 9.0174971e-39 323 301
0.0047901068 0.68300003 -0.073049128 8.7423578e-39 324 301
0.0059876335 0.68300003 -0.073049128 8.8345548e-39 325 301
0.0071851597 0.68300003 -0.073049128 8.7427249e-39 326 301
0.0083826864 0.68300003 -0.073049128 8.7427249e-39 327 301
0.0095802136 0.68300003 -0.073049128 8.7427221e-39 328 301
0.01077774 0.68300003 -0.073049128 8.7427221e-39 329 301
0.011975267 0.68300003 -0.073049128 8.2838978e-39 330 301
0.013172794 0.68300003 -0.073049128 8.2838978e-39 331 301
0.014370319 0.68300003 -0.073049128 8.5576106e-39 332 301
0.015567848 0.68300003 -0.073049128 8.6498062e-39 333 301
0.016740825 0.68199998 -0.072942168 8.282816e-39 334 301
0.017936599 0.68199998 -0.072942168 8.282816e-39 335 301
0.019132372 0.68199998 -0.072942168 8.5583169e-39 336 301
0.020357953 0.68300003 -0.073049128 8.3735669e-39 337 301
0.02155548 0.68300003 -0.073049128 8.6483587e-39 338 301
0.022753006 0.68300003 -0.073049128 8.5561631e-39 339 301
0.023950534 0.68300003 -0.073049128 8.5561631e-39 340 301
0.02514806 0.68300003 -0.073049128 8.3721305e-39 341 301
0.026345588 0.68300003 -0.073049128 8.1884581e-39 342 301
0.027543113 0.68300003 -0.073049128 8.3728508e-39 343 301
0.028740639 0.68300003 -0.073049128 8.4657681e-39 344 301
0.029982001 0.68400002 -0.073156074 8.742355e-39 345 301
0.03118128 0.68400002 -0.073156074 9.110413e-39 346 301
0.032475237 0.68599999 -0.073369987 9.2029674e-39 347 301
0.033678025 0.68599999 -0.073369987 9.6632197e-39 348 301
0.034931656 0.68699998 -0.073476933 9.9394478e-39 349 301
0.036136195 0.68699998 -0.073476933 1.039934e-38 350 301
0.037395094 0.68800002 -0.073583893 1.0675567e-38 351 301
0.038713597 0.69 -0.0737978 1.076812e-38 352 301
0.039981257 0.69099998 -0.073904753 1.0952511e-38 353 301
0.041192811 0.69099998 -0.073904753 1.1137977e-38 354 301
0.042527102 0.69300002 -0.074118659 1.1598596e-38 355 301
0.043742158 0.69300002 -0.074118659 1.2152502e-38 356 301
0.045022093 0.69400001 -0.074225612 1.2705675e-38 357 301
0.046238903 0.69400001 -0.074225612 1.2986245e-38 358 301
0.047455717 0.69400001 -0.074225612 1.4369179e-38 359 301
-0.018331099 0.69700003 -0.075768545 1.5391626e-38 305 302
-0.017084479 0.69599998 -0.075659841 1.4736863e-38 306 302
-0.015864158 0.69599998 -0.075659841 1.3262093e-38 307 302
-0.01460176 0.69400001 -0.075442426 1.2427997e-38 308 302
-0.013384946 0.69400001 -0.075442426 1.2151051e-38 309 302
-0.012168133 0.69400001 -0.075442426 1.1688644e-38 310 302
-0.010935539 0.69300002 -0.075333714 1.113547e-38 311 302
-0.0097204801 0.69300002 -0.075333714 1.0673776e-38 312 302
-0.008480873 0.69099998 -0.075116299 1.0397189e-38 313 302
-0.0072587994 0.69 -0.075007595 9.7532643e-39 314 302
-0.0060314666 0.68800002 -0.074790187 9.6610687e-39 315 302
-0.0048251734 0.68800002 -0.074790187 9.3862769e-39 316 302
-0.0036136196 0.68699998 -0.074681476 9.4784725e-39 317 302
-0.0024090798 0.68699998 -0.074681476 9.4795445e-39 318 302
-0.0012045399 0.68699998 -0.074681476 9.3873489e-39 319 302
0 0.68599999 -0.074572764 9.38663e-39 320 302
0.00119928 0.68400002 -0.074355356 9.2944344e-39 321 302
0.0023985601 0.68400002 -0.074355356 9.2018856e-39 322 302
0.00359784 0.68400002 -0.074355356 9.2018856e-39 323 302
0.0047901068 0.68300003 -0.074246652 8.9260232e-39 324 302
0.0059876335 0.68300003 -0.074246652 8.9260232e-39 325 302
0.0071851597 0.68300003 -0.074246652 8.9256743e-39 326 302
0.0083826864 0.68300003 -0.074246652 8.9256743e-39 327 302
0.0095802136 0.68300003 -0.074246652 8.4672142e-39 328 302
0.01077774 0.68300003 -0.074246652 8.4672142e-39 329 302
0.011975267 0.68300003 -0.074246652 8.5597658e-39 330 302
0.013172794 0.68300003 -0.074246652 8.46721e-39 331 302
0.014370319 0.68300003 -0.074246652 8.466494e-39 332 302
0.015567848 0.68300003 -0.074246652 8.466494e-39 333 302
0.016765373 0.68300003 -0.074246652 8.4668471e-39 334 302
0.017962901 0.68300003 -0.074246652 8.4668471e-39 335 302
0.019160427 0.68300003 -0.074246652 8.5583141e-39 336 302
0.020357953 0.68300003 -0.074246652 8.4661184e-39 337 302
0.02155548 0.68300003 -0.074246652 8.6487146e-39 338 302
0.022753006 0.68300003 -0.074246652 8.6487146e-39 339 302
0.023950534 0.68300003 -0.074246652 8.6483587e-39 340 302
0.02514806 0.68300003 -0.074246652 8.6483587e-39 341 302
0.026345588 0.68300003 -0.074246652 8.2802978e-39 342 302
0.027543113 0.68300003 -0.074246652 8.3724949e-39 343 302
0.02878272 0.68400002 -0.074355356 8.7405571e-39 344 302
0.029982001 0.68400002 -0.074355356 8.9249484e-39 345 302
0.031272452 0.68599999 -0.074572764 9.2937281e-39 346 302
0.032475237 0.68599999 -0.074572764 9.5706737e-39 347 302
0.033727121 0.68699998 -0.074681476 9.9394506e-39 348 302
0.034931656 0.68699998 -0.074681476 1.0216038e-38 349 302
0.036136195 0.68699998 -0.074681476 1.0584098e-38 350 302
0.037395094 0.68800002 -0.074790187 1.0676653e-38 351 302
0.038713597 0.69 -0.075007595 1.0952158e-38 352 302
0.039981257 0.69099998 -0.075116299 1.1136908e-38 353 302
0.041192811 0.69099998 -0.075116299 1.1230175e-38 354 302
0.042527102 0.69300002 -0.075333714 1.178299e-38 355 302
0.043742158 0.69300002 -0.075333714 1.2796073e-38 356 302
0.045022093 0.69400001 -0.075442426 1.3533638e-38 357 302
0.046372157 0.69599998 -0.075659841 1.3449389e-38 358 302
-0.018331099 0.69700003 -0.076990619 1.5944446e-38 305 303
-0.017084479 0.69599998 -0.076880157 1.5108172e-38 306 303
-0.015818574 0.69400001 -0.07665924 1.3356457e-38 307 303
-0.01460176 0.69400001 -0.07665924 1.3072287e-38 308 303
-0.013384946 0.69400001 -0.07665924 1.2519114e-38 309 303
-0.012168133 0.69400001 -0.07665924 1.1872669e-38 310 303
-0.010935539 0.69300002 -0.076548778 1.1503885e-38 311 303
-0.0097204801 0.69300002 -0.076548778 1.1041838e-38 312 303
-0.008480873 0.69099998 -0.076327853 1.0672697e-38 313 303
-0.0072693196 0.69099998 -0.076327853 1.0029847e-38 314 303
-0.0060489997 0.69 -0.076217398 9.8458159e-39 315 303
-0.0048251734 0.68800002 -0.075996481 9.6632169e-39 316 303
-0.0036188802 0.68800002 -0.075996481 9.8476081e-39 317 303
-0.0024090798 0.68699998 -0.075886011 9.8479585e-39 318 303
-0.0012045399 0.68699998 -0.075886011 9.6639259e-39 319 303
0 0.68699998 -0.075886011 9.4798948e-39 320 303
0.0012045399 0.68699998 -0.075886011 9.3876992e-39 321 303
0.0023985601 0.68400002 -0.075554639 9.2033177e-39 322 303
0.00359784 0.68400002 -0.075554639 9.2033177e-39 323 303
0.0047971201 0.68400002 -0.075554639 9.110413e-39 324 303
0.0059964 0.68400002 -0.075554639 9.0182174e-39 325 303
0.0071956799 0.68400002 -0.075554639 8.7423578e-39 326 303
0.0083826864 0.68300003 -0.075444184 8.7423578e-39 327 303
0.0095802136 0.68300003 -0.075444184 8.6505293e-39 328 303
0.01077774 0.68300003 -0.075444184 8.6505293e-39 329 303
0.011975267 0.68300003 -0.075444184 8.4672142e-39 330 303
0.01319208 0.68400002 -0.075554639 8.5594099e-39 331 303
0.014370319 0.68300003 -0.075444184 8.650881e-39 332 303
0.015567848 0.68300003 -0.075444184 8.7430781e-39 333 303
0.016765373 0.68300003 -0.075444184 8.4675632e-39 334 303
0.017962901 0.68300003 -0.075444184 8.5597602e-39 335 303
0.019160427 0.68300003 -0.075444184 8.7427053e-39 336 303
0.020357953 0.68300003 -0.075444184 8.6505097e-39 337 303
0.02155548 0.68300003 -0.075444184 8.9256546e-39 338 303
0.022753006 0.68300003 -0.075444184 8.833459e-39 339 303
0.023950534 0.68300003 -0.075444184 8.7419823e-39 340 303
0.02514806 0.68300003 -0.075444184 8.5575924e-39 341 303
0.026345588 0.68300003 -0.075444184 8.3735697e-39 342 303
0.027543113 0.68300003 -0.075444184 8.4657653e-39 343 303
0.02878272 0.68400002 -0.075554639 8.6501566e-39 344 303
0.030069664 0.68599999 -0.075775556 9.0189391e-39 345 303
0.031272452 0.68599999 -0.075775556 9.4784753e-39 346 303
0.032475237 0.68599999 -0.075775556 9.8468991e-39 347 303
0.033727121 0.68699998 -0.075886011 9.9408828e-39 348 303
0.034931656 0.68699998 -0.075886011 1.0309307e-38 349 303
0.036136195 0.68699998 -0.075886011 1.058517e-38 350 303
0.037395094 0.68800002 -0.075996481 1.0769562e-38 351 303
0.038713597 0.69 -0.076217398 1.095288e-38 352 303
0.039981257 0.69099998 -0.076327853 1.1045075e-38 353 303
0.041312039 0.69300002 -0.076548778 1.1230543e-38 354 303
0.042527102 0.69300002 -0.076548778 1.1875912e-38 355 303
0.043805279 0.69400001 -0.07665924 1.2429456e-38 356 303
0.045022093 0.69400001 -0.07665924 1.3351411e-38 357 303
0.046438783 0.69700003 -0.076990619 1.298986e-38 358 303
-0.017084479 0.69599998 -0.078100473 1.5387647e-38 306 304
-0.015818574 0.69400001 -0.077876054 1.363593e-38 307 304
-0.01460176 0.69400001 -0.077876054 1.3626184e-38 308 304
-0.013384946 0.69400001 -0.077876054 1.2888619e-38 309 304
-0.012168133 0.69400001 -0.077876054 1.2701704e-38 310 304
-0.01095132 0.69400001 -0.077876054 1.2056335e-38 311 304
-0.0097204801 0.69300002 -0.077763841 1.1320217e-38 312 304
-0.008480873 0.69099998 -0.077539407 1.0767044e-38 313 304
-0.0072693196 0.69099998 -0.077539407 1.0674129e-38 314 304
-0.0060489997 0.69 -0.077427194 1.0581933e-38 315 304
-0.0048391996 0.69 -0.077427194 1.039969e-38 316 304
-0.0036188802 0.68800002 -0.077202775 1.0491886e-38 317 304
-0.0024125867 0.68800002 -0.077202775 1.0675551e-38 318 304
-0.0012062934 0.68800002 -0.077202775 1.049116e-38 319 304
0 0.68800002 -0.077202775 1.0215293e-38 320 304
0.0012045399 0.68699998 -0.077090554 1.0123096e-38 321 304
0.0024090798 0.68699998 -0.077090554 9.66357e-39 322 304
0.00360836 0.68599999 -0.076978341 9.5713744e-39 323 304
0.0047971201 0.68400002 -0.076753922 9.4788284e-39 324 304
0.0059964 0.68400002 -0.076753922 9.3866328e-39 325 304
0.0071956799 0.68400002 -0.076753922 9.0189391e-39 326 304
0.0083826864 0.68300003 -0.076641709 9.0189391e-39 327 304
0.0095802136 0.68300003 -0.076641709 8.7430781e-39 328 304
0.01079352 0.68400002 -0.076753922 8.7430781e-39 329 304
0.0119928 0.68400002 -0.076753922 8.8352737e-39 330 304
0.01319208 0.68400002 -0.076753922 8.9274693e-39 331 304
0.01439136 0.68400002 -0.076753922 8.9278197e-39 332 304
0.01559064 0.68400002 -0.076753922 8.9278197e-39 333 304
0.016765373 0.68300003 -0.076641709 8.9281728e-39 334 304
0.017962901 0.68300003 -0.076641709 8.9281728e-39 335 304
0.019160427 0.68300003 -0.076641709 9.111841e-39 336 304
0.020357953 0.68300003 -0.076641709 8.8352555e-39 337 304
0.02155548 0.68300003 -0.076641709 9.2022387e-39 338 304
0.022753006 0.68300003 -0.076641709 9.2022387e-39 339 304
0.0239856 0.68400002 -0.076753922 8.8352555e-39 340 304
0.025184879 0.68400002 -0.076753922 8.7430585e-39 341 304
0.02638416 0.68400002 -0.076753922 8.8341779e-39 342 304
0.027583439 0.68400002 -0.076753922 8.9263735e-39 343 304
0.02886688 0.68599999 -0.076978341 9.110769e-39 344 304
0.030113498 0.68699998 -0.077090554 9.4791914e-39 345 304
0.031318039 0.68699998 -0.077090554 9.8476081e-39 346 304
0.032522578 0.68699998 -0.077090554 1.0124195e-38 347 304
0.033727121 0.68699998 -0.077090554 1.0308942e-38 348 304
0.03498251 0.68800002 -0.077202775 1.058517e-38 349 304
0.0361888 0.68800002 -0.077202775 1.0953233e-38 350 304
0.037503798 0.69 -0.077427194 1.1045428e-38 351 304
0.038769703 0.69099998 -0.077539407 1.1136908e-38 352 304
0.039981257 0.69099998 -0.077539407 1.1136908e-38 353 304
0.041312039 0.69300002 -0.077763841 1.1230189e-38 354 304
0.042527102 0.69300002 -0.077763841 1.1967755e-38 355 304
0.043805279 0.69400001 -0.077876054 1.1971367e-38 356 304
0.045022093 0.69400001 -0.077876054 1.2616736e-38 357 304
0.046638668 0.69999999 -0.078549333 1.2162267e-38 358 304
-0.015818574 0.69400001 -0.079092868 1.4284186e-38 307 305
-0.01460176 0.69400001 -0.079092868 1.4090406e-38 308 305
-0.013384946 0.69400001 -0.079092868 1.2983699e-38 309 305
-0.012168133 0.69400001 -0.079092868 1.3255957e-38 310 305
-0.01095132 0.69400001 -0.079092868 1.2333999e-38 311 305
-0.0097204801 0.69300002 -0.078978904 1.1413136e-38 312 305
-0.0085054198 0.69300002 -0.078978904 1.1136908e-38 313 305
-0.0072693196 0.69099998 -0.078750968 1.0584817e-38 314 305
-0.0060489997 0.69 -0.078636996 1.0677372e-38 315 305
-0.0048391996 0.69 -0.078636996 1.0769918e-38 316 305
-0.0036293997 0.69 -0.078636996 1.0769918e-38 317 305
-0.0024125867 0.68800002 -0.078409068 1.0861387e-38 318 305
-0.0012062934 0.68800002 -0.078409068 1.0492605e-38 319 305
0 0.68800002 -0.078409068 1.0491889e-38 320 305
0.0012045399 0.68699998 -0.078295097 1.0307139e-38 321 305
0.0024090798 0.68699998 -0.078295097 9.939801e-39 322 305
0.0036136196 0.68699998 -0.078295097 9.8476053e-39 323 305
0.0048181596 0.68699998 -0.078295097 9.4791914e-39 324 305
0.0060139326 0.68599999 -0.078181133 9.4791914e-39 325 305
0.0071956799 0.68400002 -0.077953197 9.1122137e-39 326 305
0.0083949603 0.68400002 -0.077953197 9.0200181e-39 327 305
0.0095942402 0.68400002 -0.077953197 8.7448731e-39 328 305
0.010825079 0.68599999 -0.078181133 8.6526775e-39 329 305
0.012027865 0.68599999 -0.078181133 8.8370688e-39 330 305
0.013230653 0.68599999 -0.078181133 8.8370688e-39 331 305
0.01439136 0.68400002 -0.077953197 9.295526e-39 332 305
0.01559064 0.68400002 -0.077953197 9.295526e-39 333 305
0.016789921 0.68400002 -0.077953197 9.0210901e-39 334 305
0.0179892 0.68400002 -0.077953197 9.0210901e-39 335 305
0.01918848 0.68400002 -0.077953197 9.0203712e-39 336 305
0.020387759 0.68400002 -0.077953197 8.9281756e-39 337 305
0.02158704 0.68400002 -0.077953197 9.110413e-39 338 305
0.022786319 0.68400002 -0.077953197 9.2029674e-39 339 305
0.0239856 0.68400002 -0.077953197 9.0189391e-39 340 305
0.025184879 0.68400002 -0.077953197 9.0189391e-39 341 305
0.02638416 0.68400002 -0.077953197 9.110413e-39 342 305
0.027664091 0.68599999 -0.078181133 9.3869985e-39 343 305
0.02886688 0.68599999 -0.078181133 9.2965952e-39 344 305
0.030113498 0.68699998 -0.078295097 9.4813466e-39 345 305
0.031318039 0.68699998 -0.078295097 9.7572104e-39 346 305
0.032522578 0.68699998 -0.078295097 1.0033797e-38 347 305
0.033776212 0.68800002 -0.078409068 1.0585173e-38 348 305
0.035084199 0.69 -0.078636996 1.0677369e-38 349 305
0.036293998 0.69 -0.078636996 1.1045428e-38 350 305
0.037666857 0.69300002 -0.078978904 1.1137624e-38 351 305
0.03888192 0.69300002 -0.078978904 1.1413136e-38 352 305
0.04009698 0.69300002 -0.078978904 1.1413136e-38 353 305
0.041312039 0.69300002 -0.078978904 1.1322382e-38 354 305
0.042527102 0.69300002 -0.078978904 1.1875556e-38 355 305
0.043805279 0.69400001 -0.079092868 1.1879527e-38 356 305
0.045022093 0.69400001 -0.079092868 1.2156114e-38 357 305
-0.014580719 0.69300002 -0.080193959 1.4646463e-38 308 306
-0.013384946 0.69400001 -0.080309682 1.3263528e-38 309 306
-0.012168133 0.69400001 -0.080309682 1.3535061e-38 310 306
-0.01095132 0.69400001 -0.080309682 1.2613106e-38 311 306
-0.0097204801 0.69300002 -0.080193959 1.1965943e-38 312 306
-0.0085054198 0.69300002 -0.080193959 1.1781193e-38 313 306
-0.0072903596 0.69300002 -0.080193959 1.1688983e-38 314 306
-0.0060577663 0.69099998 -0.079962514 1.178118e-38 315 306
-0.0048391996 0.69 -0.079846799 1.1506739e-38 316 306
-0.0036293997 0.69 -0.079846799 1.1414541e-38 317 306
-0.0024195998 0.69 -0.079846799 1.1597135e-38 318 306
-0.0012097999 0.69 -0.079846799 1.1228712e-38 319 306
0 0.68800002 -0.079615362 1.1411306e-38 320 306
0.0012062934 0.68800002 -0.079615362 1.1226554e-38 321 306
0.0024125867 0.68800002 -0.079615362 1.085922e-38 322 306
0.0036136196 0.68699998 -0.079499632 1.0582634e-38 323 306
0.0048181596 0.68699998 -0.079499632 1.0214949e-38 324 306
0.0060226996 0.68699998 -0.079499632 1.0030197e-38 325 306
0.0072272392 0.68699998 -0.079499632 9.5717429e-39 326 306
0.0084317802 0.68699998 -0.079499632 9.5717429e-39 327 306
0.0096222926 0.68599999 -0.079383917 9.2966008e-39 328 306
0.010825079 0.68599999 -0.079383917 9.1125696e-39 329 306
0.012027865 0.68599999 -0.079383917 9.2966008e-39 330 306
0.013230653 0.68599999 -0.079383917 9.2966008e-39 331 306
0.01443344 0.68599999 -0.079383917 9.1129298e-39 332 306
0.015636226 0.68599999 -0.079383917 9.0207341e-39 333 306
0.016839013 0.68599999 -0.079383917 9.2958819e-39 334 306
0.018041799 0.68599999 -0.079383917 9.3880775e-39 335 306
0.01918848 0.68400002 -0.07915248 9.2958819e-39 336 306
0.020387759 0.68400002 -0.07915248 9.1111319e-39 337 306
0.02158704 0.68400002 -0.07915248 8.9274665e-39 338 306
0.022852944 0.68599999 -0.079383917 8.8352709e-39 339 306
0.024055731 0.68599999 -0.079383917 8.8342017e-39 340 306
0.025258519 0.68599999 -0.079383917 9.0182328e-39 341 306
0.026461305 0.68599999 -0.079383917 9.0200181e-39 342 306
0.027664091 0.68599999 -0.079383917 9.3884419e-39 343 306
0.028908957 0.68699998 -0.079499632 9.7572048e-39 344 306
0.030113498 0.68699998 -0.079499632 9.8494004e-39 345 306
0.031363625 0.68800002 -0.079615362 1.0492972e-38 346 306
0.032569919 0.68800002 -0.079615362 1.0492972e-38 347 306
0.0338744 0.69 -0.079846799 1.1228019e-38 348 306
0.035135046 0.69099998 -0.079962514 1.1228019e-38 349 306
0.036346599 0.69099998 -0.079962514 1.1412766e-38 350 306
0.037666857 0.69300002 -0.080193959 1.1504962e-38 351 306
0.03888192 0.69300002 -0.080193959 1.1505329e-38 352 306
0.04009698 0.69300002 -0.080193959 1.1597883e-38 353 306
0.041312039 0.69300002 -0.080193959 1.1141238e-38 354 306
0.042527102 0.69300002 -0.080193959 1.1510019e-38 355 306
0.043805279 0.69400001 -0.080309682 1.1143776e-38 356 306
0.045022093 0.69400001 -0.080309682 1.1143776e-38 357 306
-0.013384946 0.69400001 -0.081526496 1.3268227e-38 309 307
-0.012168133 0.69400001 -0.081526496 1.335356e-38 310 307
-0.01095132 0.69400001 -0.081526496 1.2615994e-38 311 307
-0.0097345067 0.69400001 -0.081526496 1.2612028e-38 312 307
-0.0085176928 0.69400001 -0.081526496 1.2335801e-38 313 307
-0.0072903596 0.69300002 -0.081409015 1.1782625e-38 314 307
-0.0060753003 0.69300002 -0.081409015 1.1966656e-38 315 307
-0.0048462129 0.69099998 -0.081174068 1.1600384e-38 316 307
-0.0036346598 0.69099998 -0.081174068 1.1508189e-38 317 307
-0.0024195998 0.69 -0.081056595 1.1690779e-38 318 307
-0.0012097999 0.69 -0.081056595 1.1414191e-38 319 307
0 0.69 -0.081056595 1.1321637e-38 320 307
0.0012097999 0.69 -0.081056595 1.0861019e-38 321 307
0.0024125867 0.68800002 -0.080821648 1.0677353e-38 322 307
0.0036188802 0.68800002 -0.080821648 1.0492961e-38 323 307
0.0048251734 0.68800002 -0.080821648 1.0124545e-38 324 307
0.0060314666 0.68800002 -0.080821648 1.003235e-38 325 307
0.0072272392 0.68699998 -0.080704175 9.6639372e-39 326 307
0.0084317802 0.68699998 -0.080704175 9.6639372e-39 327 307
0.0096363192 0.68699998 -0.080704175 9.3887978e-39 328 307
0.010840859 0.68699998 -0.080704175 9.2966008e-39 329 307
0.012045399 0.68699998 -0.080704175 9.1129298e-39 330 307
0.013249939 0.68699998 -0.080704175 9.0207341e-39 331 307
0.01443344 0.68599999 -0.080586702 9.2958819e-39 332 307
0.015636226 0.68599999 -0.080586702 9.2958819e-39 333 307
0.016839013 0.68599999 -0.080586702 9.2958819e-39 334 307
0.018041799 0.68599999 -0.080586702 9.2958819e-39 335 307
0.01918848 0.68400002 -0.080351762 9.1125696e-39 336 307
