# .PCD v.7 - Point Cloud Data file format
FIELDS x y z rgb imX imY
SIZE 4 4 4 4 4 4
TYPE F F F F F F
COUNT 1 1 1 1 1 1
WIDTH 835
HEIGHT 1
VIEWPOINT 0 0 0 1 0 0 0
POINTS 835
DATA ascii
-0.0239856 0.72000003 -0.044183999 1.289799e-38 301 275
-0.022691639 0.71899998 -0.044122629 1.5008726e-38 302 275
-0.021430992 0.71899998 -0.044122629 1.4732139e-38 303 275
-0.020114239 0.71700001 -0.043999899 1.5463924e-38 304 275
-0.0188308 0.71600002 -0.043938532 1.537137e-38 305 275
-0.017526319 0.71399999 -0.043815799 1.5554319e-38 306 275
-0.01620606 0.71100003 -0.043631699 1.5554319e-38 307 275
-0.014938398 0.70999998 -0.043570329 1.5278808e-38 308 275
-0.013693533 0.70999998 -0.043570329 1.5278808e-38 309 275
-0.012396066 0.70700002 -0.043386232 1.5095493e-38 310 275
-0.011156459 0.70700002 -0.043386232 1.5095493e-38 311 275
-0.0099168532 0.70700002 -0.043386232 1.5095493e-38 312 275
-0.0086649731 0.70599997 -0.043324865 1.5003296e-38 313 275
-0.0074271196 0.70599997 -0.043324865 1.5004014e-38 314 275
-0.0061892662 0.70599997 -0.043324865 1.5004014e-38 315 275
-0.0049514128 0.70599997 -0.043324865 1.5279159e-38 316 275
-0.0037030398 0.704 -0.043202132 1.5279159e-38 317 275
-0.0024686933 0.704 -0.043202132 1.5095849e-38 318 275
-0.0012325933 0.70300001 -0.043140765 1.5095849e-38 319 275
0 0.69999999 -0.042956665 1.5370285e-38 320 275
0.0012273333 0.69999999 -0.042956665 1.5278088e-38 321 275
0.0024546667 0.69999999 -0.042956665 1.5278091e-38 322 275
0.0036714801 0.69800001 -0.042833932 1.5278091e-38 323 275
0.0048953067 0.69800001 -0.042833932 1.4818552e-38 324 275
0.0061366665 0.69999999 -0.042956665 1.4910748e-38 325 275
0.0073429602 0.69800001 -0.042833932 1.4635237e-38 326 275
0.0085667865 0.69800001 -0.042833932 1.4635237e-38 327 275
0.0097906133 0.69800001 -0.042833932 1.4818555e-38 328 275
0.01101444 0.69800001 -0.042833932 1.4726e-38 329 275
0.012238266 0.69800001 -0.042833932 1.4541972e-38 330 275
0.013500666 0.69999999 -0.042956665 1.4726003e-38 331 275
0.014727999 0.69999999 -0.042956665 1.4449774e-38 332 275
0.015955333 0.69999999 -0.042956665 1.4449774e-38 333 275
0.017182667 0.69999999 -0.042956665 1.4450127e-38 334 275
0.018409999 0.69999999 -0.042956665 1.4542322e-38 335 275
0.019665385 0.70099998 -0.043018032 1.4450124e-38 336 275
0.020894472 0.70099998 -0.043018032 1.4450124e-38 337 275
0.022123558 0.70099998 -0.043018032 1.4542322e-38 338 275
0.023352645 0.70099998 -0.043018032 1.4542322e-38 339 275
0.024651866 0.70300001 -0.043140765 1.4175698e-38 340 275
0.025884461 0.70300001 -0.043140765 1.4268252e-38 341 275
0.027117053 0.70300001 -0.043140765 1.4176782e-38 342 275
0.028389972 0.704 -0.043202132 1.4453009e-38 343 275
0.029708479 0.70599997 -0.043324865 1.4268992e-38 344 275
0.030946331 0.70599997 -0.043324865 1.4361546e-38 345 275
0.032184184 0.70599997 -0.043324865 1.4361912e-38 346 275
0.033422034 0.70599997 -0.043324865 1.4546303e-38 347 275
0.034708988 0.70700002 -0.043386232 1.4547375e-38 348 275
0.03599944 0.708 -0.043447599 1.4639572e-38 349 275
0.037345998 0.70999998 -0.043570329 1.4364781e-38 350 275
0.038645219 0.71100003 -0.043631699 1.4364781e-38 351 275
0.039891839 0.71100003 -0.043631699 1.4181468e-38 352 275
0.041254178 0.713 -0.043754432 1.4181468e-38 353 275
0.042563915 0.71399999 -0.043815799 1.4364074e-38 354 275
0.043938532 0.71600002 -0.043938532 1.4456629e-38 355 275
0.045193922 0.71600002 -0.043938532 1.3997468e-38 356 275
0.046449307 0.71600002 -0.043938532 1.3628686e-38 357 275
0.047704693 0.71600002 -0.043938532 1.4555366e-38 358 275
-0.025212931 0.71899998 -0.045383278 1.5478747e-38 300 276
-0.0239856 0.72000003 -0.045446403 1.2805074e-38 301 276
-0.022723202 0.72000003 -0.045446403 1.4825058e-38 302 276
-0.021430992 0.71899998 -0.045383278 1.4640667e-38 303 276
-0.020114239 0.71700001 -0.045257039 1.5372454e-38 304 276
-0.0188308 0.71600002 -0.045193922 1.5187704e-38 305 276
-0.017501773 0.713 -0.045004558 1.5371004e-38 306 276
-0.01620606 0.71100003 -0.044878319 1.5278808e-38 307 276
-0.014938398 0.70999998 -0.044815198 1.5186609e-38 308 276
-0.013693533 0.70999998 -0.044815198 1.5186609e-38 309 276
-0.012396066 0.70700002 -0.044625837 1.5186964e-38 310 276
-0.011140679 0.70599997 -0.044562716 1.5186964e-38 311 276
-0.0099028256 0.70599997 -0.044562716 1.4911098e-38 312 276
-0.0086649731 0.70599997 -0.044562716 1.4911098e-38 313 276
-0.0074271196 0.70599997 -0.044562716 1.4819981e-38 314 276
-0.0061892662 0.70599997 -0.044562716 1.4819981e-38 315 276
-0.0049373866 0.704 -0.044436477 1.5003293e-38 316 276
-0.0037030398 0.704 -0.044436477 1.5003293e-38 317 276
-0.0024686933 0.704 -0.044436477 1.5003299e-38 318 276
-0.0012325933 0.70300001 -0.04437336 1.4911103e-38 319 276
0 0.69999999 -0.044183996 1.5185537e-38 320 276
0.0012273333 0.69999999 -0.044183996 1.5185537e-38 321 276
0.0024546667 0.69999999 -0.044183996 1.5093341e-38 322 276
0.0036714801 0.69800001 -0.04405776 1.5093341e-38 323 276
0.0048953067 0.69800001 -0.04405776 1.4726356e-38 324 276
0.0061366665 0.69999999 -0.044183996 1.4726356e-38 325 276
0.0073429602 0.69800001 -0.04405776 1.4726e-38 326 276
0.0085667865 0.69800001 -0.04405776 1.4541969e-38 327 276
0.0097906133 0.69800001 -0.04405776 1.4540893e-38 328 276
0.01101444 0.69800001 -0.04405776 1.4540893e-38 329 276
0.012238266 0.69800001 -0.04405776 1.4357578e-38 330 276
0.013500666 0.69999999 -0.044183996 1.4357578e-38 331 276
0.014727999 0.69999999 -0.044183996 1.4265734e-38 332 276
0.015955333 0.69999999 -0.044183996 1.435793e-38 333 276
0.017182667 0.69999999 -0.044183996 1.4265378e-38 334 276
0.018436298 0.70099998 -0.044247117 1.4357574e-38 335 276
0.019637333 0.69999999 -0.044183996 1.4265381e-38 336 276
0.020864666 0.69999999 -0.044183996 1.4357578e-38 337 276
0.022123558 0.70099998 -0.044247117 1.4357578e-38 338 276
0.023352645 0.70099998 -0.044247117 1.4449774e-38 339 276
0.024651866 0.70300001 -0.04437336 1.3991669e-38 340 276
0.025884461 0.70300001 -0.04437336 1.4175701e-38 341 276
0.027117053 0.70300001 -0.04437336 1.4084587e-38 342 276
0.028349647 0.70300001 -0.04437336 1.4176782e-38 343 276
0.029624319 0.704 -0.044436477 1.4176432e-38 344 276
0.030858666 0.704 -0.044436477 1.4268628e-38 345 276
0.032184184 0.70599997 -0.044562716 1.4268272e-38 346 276
0.033422034 0.70599997 -0.044562716 1.4452663e-38 347 276
0.034708988 0.70700002 -0.044625837 1.4362262e-38 348 276
0.03599944 0.708 -0.044688959 1.4454458e-38 349 276
0.037345998 0.70999998 -0.044815198 1.4180745e-38 350 276
0.038590867 0.70999998 -0.044815198 1.4180745e-38 351 276
0.039891839 0.71100003 -0.044878319 1.4089271e-38 352 276
0.041138459 0.71100003 -0.044878319 1.4089271e-38 353 276
0.042563915 0.71399999 -0.045067675 1.4088565e-38 354 276
0.043938532 0.71600002 -0.045193922 1.4180762e-38 355 276
0.045193922 0.71600002 -0.045193922 1.4180778e-38 356 276
0.046449307 0.71600002 -0.045193922 1.3996746e-38 357 276
0.047704693 0.71600002 -0.045193922 1.4462803e-38 358 276
0.04902846 0.71700001 -0.045257039 1.7412704e-38 359 276
-0.025212931 0.71899998 -0.046643924 1.5755338e-38 300 277
-0.023952285 0.71899998 -0.046643924 1.2805077e-38 301 277
-0.022691639 0.71899998 -0.046643924 1.4732865e-38 302 277
-0.021430992 0.71899998 -0.046643924 1.464067e-38 303 277
-0.020114239 0.71700001 -0.046514176 1.5189509e-38 304 277
-0.018778199 0.71399999 -0.046319555 1.5004758e-38 305 277
-0.017501773 0.713 -0.046254687 1.5187695e-38 306 277
-0.01620606 0.71100003 -0.046124939 1.509514e-38 307 277
-0.014938398 0.70999998 -0.046060063 1.5095849e-38 308 277
-0.013654959 0.708 -0.045930319 1.5003293e-38 309 277
-0.012396066 0.70700002 -0.045865446 1.4911454e-38 310 277
-0.011140679 0.70599997 -0.04580057 1.4911454e-38 311 277
-0.0099028256 0.70599997 -0.04580057 1.4819258e-38 312 277
-0.0086649731 0.70599997 -0.04580057 1.4819258e-38 313 277
-0.0074271196 0.70599997 -0.04580057 1.4452275e-38 314 277
-0.0061717331 0.704 -0.045670826 1.4452275e-38 315 277
-0.0049373866 0.704 -0.045670826 1.4727788e-38 316 277
-0.0037030398 0.704 -0.045670826 1.4635593e-38 317 277
-0.0024651866 0.70300001 -0.04560595 1.4818552e-38 318 277
-0.0012325933 0.70300001 -0.04560595 1.4818552e-38 319 277
0 0.69999999 -0.04541133 1.4818552e-38 320 277
0.0012273333 0.69999999 -0.04541133 1.4818552e-38 321 277
0.0024546667 0.69999999 -0.04541133 1.4725637e-38 322 277
0.0036714801 0.69800001 -0.045281585 1.4817833e-38 323 277
0.0048953067 0.69800001 -0.045281585 1.445049e-38 324 277
0.0061366665 0.69999999 -0.04541133 1.445049e-38 325 277
0.0073639993 0.69999999 -0.04541133 1.4358297e-38 326 277
0.0085667865 0.69800001 -0.045281585 1.4174266e-38 327 277
0.0097906133 0.69800001 -0.045281585 1.435686e-38 328 277
0.01101444 0.69800001 -0.045281585 1.435686e-38 329 277
0.012238266 0.69800001 -0.045281585 1.4172829e-38 330 277
0.013462093 0.69800001 -0.045281585 1.4172829e-38 331 277
0.01468592 0.69800001 -0.045281585 1.398987e-38 332 277
0.015909746 0.69800001 -0.045281585 1.398987e-38 333 277
0.017182667 0.69999999 -0.04541133 1.3989517e-38 334 277
0.018409999 0.69999999 -0.04541133 1.3989517e-38 335 277
0.019637333 0.69999999 -0.04541133 1.4080281e-38 336 277
0.020864666 0.69999999 -0.04541133 1.4172476e-38 337 277
0.022123558 0.70099998 -0.045476202 1.3989517e-38 338 277
0.023352645 0.70099998 -0.045476202 1.4081713e-38 339 277
0.024581732 0.70099998 -0.045476202 1.3806921e-38 340 277
0.025810819 0.70099998 -0.045476202 1.3899118e-38 341 277
0.027039904 0.70099998 -0.045476202 1.3899837e-38 342 277
0.028349647 0.70300001 -0.04560595 1.3899837e-38 343 277
0.029624319 0.704 -0.045670826 1.3991682e-38 344 277
0.030858666 0.704 -0.045670826 1.4083878e-38 345 277
0.032093015 0.704 -0.045670826 1.4083881e-38 346 277
0.033422034 0.70599997 -0.04580057 1.4176076e-38 347 277
0.034708988 0.70700002 -0.045865446 1.3993486e-38 348 277
0.03599944 0.708 -0.045930319 1.4085683e-38 349 277
0.037345998 0.70999998 -0.046060063 1.3903805e-38 350 277
0.038590867 0.70999998 -0.046060063 1.3903805e-38 351 277
0.039891839 0.71100003 -0.046124939 1.3996001e-38 352 277
0.041138459 0.71100003 -0.046124939 1.3903805e-38 353 277
0.042563915 0.71399999 -0.046319555 1.3996369e-38 354 277
0.043938532 0.71600002 -0.046449307 1.4088565e-38 355 277
0.045193922 0.71600002 -0.046449307 1.3997462e-38 356 277
0.046514176 0.71700001 -0.046514176 1.3997462e-38 357 277
0.04777132 0.71700001 -0.046514176 1.4187292e-38 358 277
0.04902846 0.71700001 -0.046514176 1.7137194e-38 359 277
0.0502856 0.71700001 -0.046514176 1.8714639e-38 360 277
-0.025248 0.72000003 -0.0479712 1.6217035e-38 300 278
-0.023952285 0.71899998 -0.04790457 1.2713601e-38 301 278
-0.02262852 0.71700001 -0.04777132 1.4825061e-38 302 278
-0.021371379 0.71700001 -0.04777132 1.464067e-38 303 278
-0.020086186 0.71600002 -0.047704693 1.4913644e-38 304 278
-0.018778199 0.71399999 -0.047571439 1.4729253e-38 305 278
-0.017501773 0.713 -0.047504812 1.4912547e-38 306 278
-0.01620606 0.71100003 -0.047371563 1.4820351e-38 307 278
-0.014938398 0.70999998 -0.047304932 1.4728502e-38 308 278
-0.013654959 0.708 -0.047171678 1.4728502e-38 309 278
-0.012396066 0.70700002 -0.047105055 1.4728136e-38 310 278
-0.011140679 0.70599997 -0.047038425 1.463594e-38 311 278
-0.0099028256 0.70599997 -0.047038425 1.4635943e-38 312 278
-0.0086649731 0.70599997 -0.047038425 1.4635943e-38 313 278
-0.0074060797 0.704 -0.046905171 1.4452278e-38 314 278
-0.0061717331 0.704 -0.046905171 1.4452278e-38 315 278
-0.0049373866 0.704 -0.046905171 1.4635237e-38 316 278
-0.0037030398 0.704 -0.046905171 1.4635237e-38 317 278
-0.0024651866 0.70300001 -0.046838548 1.4726356e-38 318 278
-0.0012325933 0.70300001 -0.046838548 1.4726356e-38 319 278
0 0.69999999 -0.046638668 1.4359376e-38 320 278
0.0012273333 0.69999999 -0.046638668 1.426718e-38 321 278
0.0024546667 0.69999999 -0.046638668 1.4449774e-38 322 278
0.0036819996 0.69999999 -0.046638668 1.4541969e-38 323 278
0.0049093333 0.69999999 -0.046638668 1.4267177e-38 324 278
0.0061366665 0.69999999 -0.046638668 1.4267177e-38 325 278
0.0073429602 0.69800001 -0.046505414 1.4358294e-38 326 278
0.0085667865 0.69800001 -0.046505414 1.4082066e-38 327 278
0.0097906133 0.69800001 -0.046505414 1.4264306e-38 328 278
0.01101444 0.69800001 -0.046505414 1.4264306e-38 329 278
0.012238266 0.69800001 -0.046505414 1.4080637e-38 330 278
0.013462093 0.69800001 -0.046505414 1.3896247e-38 331 278
0.01468592 0.69800001 -0.046505414 1.3714009e-38 332 278
0.015909746 0.69800001 -0.046505414 1.3621455e-38 333 278
0.017182667 0.69999999 -0.046638668 1.3712577e-38 334 278
0.018409999 0.69999999 -0.046638668 1.3712577e-38 335 278
0.019637333 0.69999999 -0.046638668 1.3712221e-38 336 278
0.020864666 0.69999999 -0.046638668 1.3712221e-38 337 278
0.022091998 0.69999999 -0.046638668 1.3621455e-38 338 278
0.023319334 0.69999999 -0.046638668 1.3621455e-38 339 278
0.024546666 0.69999999 -0.046638668 1.3622527e-38 340 278
0.025810819 0.70099998 -0.046705291 1.3714722e-38 341 278
0.027039904 0.70099998 -0.046705291 1.3623609e-38 342 278
0.028349647 0.70300001 -0.046838548 1.3807641e-38 343 278
0.029582238 0.70300001 -0.046838548 1.3899842e-38 344 278
0.030814834 0.70300001 -0.046838548 1.3899842e-38 345 278
0.032093015 0.704 -0.046905171 1.3716174e-38 346 278
0.03332736 0.704 -0.046905171 1.380837e-38 347 278
0.034659892 0.70599997 -0.047038425 1.3808736e-38 348 278
0.03599944 0.708 -0.047171678 1.3900931e-38 349 278
0.037345998 0.70999998 -0.047304932 1.3718341e-38 350 278
0.038590867 0.70999998 -0.047304932 1.3810538e-38 351 278
0.039891839 0.71100003 -0.047371563 1.3811257e-38 352 278
0.041138459 0.71100003 -0.047371563 1.3811257e-38 353 278
0.042504307 0.713 -0.047504812 1.3720508e-38 354 278
0.043815799 0.71399999 -0.047571439 1.39049e-38 355 278
0.045193922 0.71600002 -0.047704693 1.3998187e-38 356 278
0.046514176 0.71700001 -0.04777132 1.3998187e-38 357 278
0.04777132 0.71700001 -0.04777132 1.4464599e-38 358 278
0.04902846 0.71700001 -0.04777132 1.7046077e-38 359 278
0.0502856 0.71700001 -0.04777132 1.8622441e-38 360 278
-0.025248 0.72000003 -0.0492336 1.6586539e-38 300 279
-0.023952285 0.71899998 -0.049165215 1.280652e-38 301 279
-0.02262852 0.71700001 -0.04902846 1.4365528e-38 302 279
-0.021371379 0.71700001 -0.04902846 1.4180778e-38 303 279
-0.020086186 0.71600002 -0.048960082 1.4913294e-38 304 279
-0.018778199 0.71399999 -0.048823316 1.4728902e-38 305 279
-0.017501773 0.713 -0.048754938 1.482072e-38 306 279
-0.01620606 0.71100003 -0.048618179 1.4636689e-38 307 279
-0.014938398 0.70999998 -0.048549797 1.4728504e-38 308 279
-0.013693533 0.70999998 -0.048549797 1.4636309e-38 309 279
-0.012396066 0.70700002 -0.048344657 1.4727783e-38 310 279
-0.011140679 0.70599997 -0.048276275 1.4635587e-38 311 279
-0.0099028256 0.70599997 -0.048276275 1.4635587e-38 312 279
-0.0086404262 0.704 -0.048139516 1.4635587e-38 313 279
-0.0074060797 0.704 -0.048139516 1.4543394e-38 314 279
-0.0061717331 0.704 -0.048139516 1.463559e-38 315 279
-0.0049373866 0.704 -0.048139516 1.4543041e-38 316 279
-0.0037030398 0.704 -0.048139516 1.4450846e-38 317 279
-0.0024651866 0.70300001 -0.048071139 1.4633442e-38 318 279
-0.0012325933 0.70300001 -0.048071139 1.4725637e-38 319 279
0 0.70099998 -0.047934376 1.426718e-38 320 279
0.0012290865 0.70099998 -0.047934376 1.4174985e-38 321 279
0.0024546667 0.69999999 -0.047865998 1.4357944e-38 322 279
0.0036819996 0.69999999 -0.047865998 1.4173913e-38 323 279
0.0049093333 0.69999999 -0.047865998 1.4357941e-38 324 279
0.0061366665 0.69999999 -0.047865998 1.4450495e-38 325 279
0.0073429602 0.69800001 -0.047729239 1.4357941e-38 326 279
0.0085667865 0.69800001 -0.047729239 1.4357941e-38 327 279
0.0097906133 0.69800001 -0.047729239 1.4173915e-38 328 279
0.01101444 0.69800001 -0.047729239 1.3989164e-38 329 279
0.012238266 0.69800001 -0.047729239 1.3896968e-38 330 279
0.013462093 0.69800001 -0.047729239 1.3804773e-38 331 279
0.01468592 0.69800001 -0.047729239 1.3621811e-38 332 279
0.015909746 0.69800001 -0.047729239 1.3529615e-38 333 279
0.017182667 0.69999999 -0.047865998 1.3712927e-38 334 279
0.018409999 0.69999999 -0.047865998 1.3712927e-38 335 279
0.019637333 0.69999999 -0.047865998 1.3712574e-38 336 279
0.020864666 0.69999999 -0.047865998 1.3528543e-38 337 279
0.022091998 0.69999999 -0.047865998 1.352854e-38 338 279
0.023319334 0.69999999 -0.047865998 1.352854e-38 339 279
0.024546666 0.69999999 -0.047865998 1.3530334e-38 340 279
0.025810819 0.70099998 -0.047934376 1.362253e-38 341 279
0.027039904 0.70099998 -0.047934376 1.3531057e-38 342 279
0.028349647 0.70300001 -0.048071139 1.3623611e-38 343 279
0.029582238 0.70300001 -0.048071139 1.3623976e-38 344 279
0.030814834 0.70300001 -0.048071139 1.3623976e-38 345 279
0.032093015 0.704 -0.048139516 1.3716171e-38 346 279
0.03332736 0.704 -0.048139516 1.3716171e-38 347 279
0.034659892 0.70599997 -0.048276275 1.3716177e-38 348 279
0.03599944 0.708 -0.048413038 1.3808373e-38 349 279
0.037345998 0.70999998 -0.048549797 1.3808736e-38 350 279
0.038590867 0.70999998 -0.048549797 1.3900931e-38 351 279
0.039891839 0.71100003 -0.048618179 1.344283e-38 352 279
0.041138459 0.71100003 -0.048618179 1.3535026e-38 353 279
0.042504307 0.713 -0.048754938 1.3536114e-38 354 279
0.043815799 0.71399999 -0.048823316 1.3812701e-38 355 279
0.045067675 0.71399999 -0.048823316 1.3721957e-38 356 279
0.046449307 0.71600002 -0.048960082 1.3814153e-38 357 279
0.047704693 0.71600002 -0.048960082 1.5294e-38 358 279
0.04902846 0.71700001 -0.04902846 1.7414858e-38 359 279
0.0502856 0.71700001 -0.04902846 1.8989784e-38 360 279
-0.025248 0.72000003 -0.050496001 1.7048243e-38 300 280
-0.0239856 0.72000003 -0.050496001 1.289944e-38 301 280
-0.02262852 0.71700001 -0.0502856 1.4642119e-38 302 280
-0.021371379 0.71700001 -0.0502856 1.4457367e-38 303 280
-0.020086186 0.71600002 -0.050215468 1.4821814e-38 304 280
-0.018778199 0.71399999 -0.050075196 1.4637423e-38 305 280
-0.017501773 0.713 -0.050005067 1.4637405e-38 306 280
-0.01620606 0.71100003 -0.049864799 1.4545209e-38 307 280
-0.014938398 0.70999998 -0.049794663 1.4453715e-38 308 280
-0.013693533 0.70999998 -0.049794663 1.4269684e-38 309 280
-0.012396066 0.70700002 -0.049584266 1.4269684e-38 310 280
-0.011140679 0.70599997 -0.04951413 1.417713e-38 311 280
-0.0099028256 0.70599997 -0.04951413 1.4452278e-38 312 280
-0.0086404262 0.704 -0.049373865 1.4360082e-38 313 280
-0.0074060797 0.704 -0.049373865 1.4726353e-38 314 280
-0.0061717331 0.704 -0.049373865 1.4818549e-38 315 280
-0.0049303733 0.70300001 -0.049303733 1.4543044e-38 316 280
-0.0036977797 0.70300001 -0.049303733 1.445049e-38 317 280
-0.0024651866 0.70300001 -0.049303733 1.445049e-38 318 280
-0.0012325933 0.70300001 -0.049303733 1.445049e-38 319 280
0 0.70300001 -0.049303733 1.4174631e-38 320 280
0.0012290865 0.70099998 -0.049163464 1.4082436e-38 321 280
0.0024546667 0.69999999 -0.049093332 1.3989886e-38 322 280
0.0036714801 0.69800001 -0.048953064 1.4174278e-38 323 280
0.0048953067 0.69800001 -0.048953064 1.3899486e-38 324 280
0.006119133 0.69800001 -0.048953064 1.3991682e-38 325 280
0.0073429602 0.69800001 -0.048953064 1.3899842e-38 326 280
0.0085667865 0.69800001 -0.048953064 1.3899842e-38 327 280
0.0097906133 0.69800001 -0.048953064 1.3807288e-38 328 280
0.01101444 0.69800001 -0.048953064 1.3623256e-38 329 280
0.012238266 0.69800001 -0.048953064 1.3622179e-38 330 280
0.013462093 0.69800001 -0.048953064 1.3622179e-38 331 280
0.01468592 0.69800001 -0.048953064 1.3163356e-38 332 280
0.015909746 0.69800001 -0.048953064 1.3070802e-38 333 280
0.017182667 0.69999999 -0.049093332 1.3254473e-38 334 280
0.018409999 0.69999999 -0.049093332 1.3254473e-38 335 280
0.019637333 0.69999999 -0.049093332 1.3436713e-38 336 280
0.020864666 0.69999999 -0.049093332 1.3436713e-38 337 280
0.022091998 0.69999999 -0.049093332 1.3253401e-38 338 280
0.023319334 0.69999999 -0.049093332 1.3345597e-38 339 280
0.024546666 0.69999999 -0.049093332 1.3162647e-38 340 280
0.025773998 0.69999999 -0.049093332 1.3347037e-38 341 280
0.027001332 0.69999999 -0.049093332 1.3255921e-38 342 280
0.028268991 0.70099998 -0.049163464 1.3440313e-38 343 280
0.029582238 0.70300001 -0.049303733 1.3348836e-38 344 280
0.030814834 0.70300001 -0.049303733 1.3348836e-38 345 280
0.032093015 0.704 -0.049373865 1.3348481e-38 346 280
0.033422034 0.70599997 -0.04951413 1.3348481e-38 347 280
0.034659892 0.70599997 -0.04951413 1.3348483e-38 348 280
0.03599944 0.708 -0.049654398 1.3440679e-38 349 280
0.037345998 0.70999998 -0.049794663 1.3257732e-38 350 280
0.038590867 0.70999998 -0.049794663 1.3349928e-38 351 280
0.039891839 0.71100003 -0.049864799 1.3258098e-38 352 280
0.041138459 0.71100003 -0.049864799 1.3350294e-38 353 280
0.042504307 0.713 -0.050005067 1.32599e-38 354 280
0.043815799 0.71399999 -0.050075196 1.3629041e-38 355 280
0.045067675 0.71399999 -0.050075196 1.3538655e-38 356 280
0.046449307 0.71600002 -0.050215468 1.3907436e-38 357 280
0.047704693 0.71600002 -0.050215468 1.557131e-38 358 280
0.04902846 0.71700001 -0.0502856 1.7507418e-38 359 280
-0.026768139 0.727 -0.052261602 1.8806839e-38 299 281
-0.025423333 0.72500002 -0.052117832 1.7326272e-38 300 281
-0.024152167 0.72500002 -0.052117832 1.2716491e-38 301 281
-0.022723202 0.72000003 -0.051758397 1.4641768e-38 302 281
-0.021430992 0.71899998 -0.05168651 1.4549214e-38 303 281
-0.020114239 0.71700001 -0.051542737 1.4548474e-38 304 281
-0.018778199 0.71399999 -0.05132708 1.4179692e-38 305 281
-0.017501773 0.713 -0.051255193 1.4363341e-38 306 281
-0.01620606 0.71100003 -0.051111419 1.4271146e-38 307 281
-0.014938398 0.70999998 -0.051039528 1.4362247e-38 308 281
-0.013654959 0.708 -0.050895758 1.427005e-38 309 281
-0.012396066 0.70700002 -0.050823875 1.4177854e-38 310 281
-0.011140679 0.70599997 -0.050751984 1.40853e-38 311 281
-0.0099028256 0.70599997 -0.050751984 1.4360801e-38 312 281
-0.0086404262 0.704 -0.050608214 1.4360801e-38 313 281
-0.0074060797 0.704 -0.050608214 1.4543392e-38 314 281
-0.0061717331 0.704 -0.050608214 1.4451196e-38 315 281
-0.0049303733 0.70300001 -0.050536323 1.4450477e-38 316 281
-0.0036977797 0.70300001 -0.050536323 1.4450477e-38 317 281
-0.0024651866 0.70300001 -0.050536323 1.4358647e-38 318 281
-0.0012325933 0.70300001 -0.050536323 1.4174615e-38 319 281
0 0.70099998 -0.050392549 1.4174266e-38 320 281
0.0012290865 0.70099998 -0.050392549 1.4082069e-38 321 281
0.0024546667 0.69999999 -0.050320663 1.3990236e-38 322 281
0.0036714801 0.69800001 -0.050176892 1.4082433e-38 323 281
0.0048953067 0.69800001 -0.050176892 1.3899842e-38 324 281
0.006119133 0.69800001 -0.050176892 1.3899842e-38 325 281
0.0073429602 0.69800001 -0.050176892 1.3806938e-38 326 281
0.0085667865 0.69800001 -0.050176892 1.3622905e-38 327 281
0.0097906133 0.69800001 -0.050176892 1.3622902e-38 328 281
0.01101444 0.69800001 -0.050176892 1.3438511e-38 329 281
0.012238266 0.69800001 -0.050176892 1.3529981e-38 330 281
0.013462093 0.69800001 -0.050176892 1.334595e-38 331 281
0.01468592 0.69800001 -0.050176892 1.3253754e-38 332 281
0.015955333 0.69999999 -0.050320663 1.3161198e-38 333 281
0.017182667 0.69999999 -0.050320663 1.3161198e-38 334 281
0.018409999 0.69999999 -0.050320663 1.3161198e-38 335 281
0.019637333 0.69999999 -0.050320663 1.3252318e-38 336 281
0.020864666 0.69999999 -0.050320663 1.3344513e-38 337 281
0.022091998 0.69999999 -0.050320663 1.3161201e-38 338 281
0.023319334 0.69999999 -0.050320663 1.3161201e-38 339 281
0.024546666 0.69999999 -0.050320663 1.3070805e-38 340 281
0.025773998 0.69999999 -0.050320663 1.3070805e-38 341 281
0.027001332 0.69999999 -0.050320663 1.3071524e-38 342 281
0.028268991 0.70099998 -0.050392549 1.3255915e-38 343 281
0.029582238 0.70300001 -0.050536323 1.343923e-38 344 281
0.030814834 0.70300001 -0.050536323 1.343923e-38 345 281
0.032093015 0.704 -0.050608214 1.3255921e-38 346 281
0.033422034 0.70599997 -0.050751984 1.3255921e-38 347 281
0.034659892 0.70599997 -0.050751984 1.3255565e-38 348 281
0.035948593 0.70700002 -0.050823875 1.334776e-38 349 281
0.0372408 0.708 -0.050895758 1.3348483e-38 350 281
0.038590867 0.70999998 -0.051039528 1.3348483e-38 351 281
0.039891839 0.71100003 -0.051111419 1.3441401e-38 352 281
0.041138459 0.71100003 -0.051111419 1.3533596e-38 353 281
0.042504307 0.713 -0.051255193 1.3260251e-38 354 281
0.043815799 0.71399999 -0.05132708 1.3444642e-38 355 281
0.045067675 0.71399999 -0.05132708 1.3630127e-38 356 281
0.046449307 0.71600002 -0.051470853 1.4091466e-38 357 281
0.047704693 0.71600002 -0.051470853 1.5940101e-38 358 281
-0.026768139 0.727 -0.053536277 1.8716442e-38 299 282
-0.025423333 0.72500002 -0.053388998 1.7328074e-38 300 282
-0.024152167 0.72500002 -0.053388998 1.2533541e-38 301 282
-0.022880999 0.72500002 -0.053388998 1.4458819e-38 302 282
-0.021550218 0.72299999 -0.053241719 1.4366623e-38 303 282
-0.020282559 0.72299999 -0.053241719 1.4731783e-38 304 282
-0.0188308 0.71600002 -0.052726239 1.4455557e-38 305 282
-0.017526319 0.71399999 -0.052578956 1.4363344e-38 306 282
-0.01620606 0.71100003 -0.052358042 1.4178594e-38 307 282
-0.014938398 0.70999998 -0.052284397 1.436225e-38 308 282
-0.013654959 0.708 -0.052137118 1.4269694e-38 309 282
-0.012396066 0.70700002 -0.05206348 1.3901988e-38 310 282
-0.011140679 0.70599997 -0.051989835 1.3901988e-38 311 282
-0.0099028256 0.70599997 -0.051989835 1.4177133e-38 312 282
-0.0086404262 0.704 -0.051842559 1.4084937e-38 313 282
-0.0074060797 0.704 -0.051842559 1.4360082e-38 314 282
-0.0061717331 0.704 -0.051842559 1.4267528e-38 315 282
-0.0049373866 0.704 -0.051842559 1.4175332e-38 316 282
-0.0037030398 0.704 -0.051842559 1.4083135e-38 317 282
-0.0024686933 0.704 -0.051842559 1.4082785e-38 318 282
-0.0012325933 0.70300001 -0.051768921 1.3990589e-38 319 282
0 0.70099998 -0.051621638 1.3990239e-38 320 282
0.0012290865 0.70099998 -0.051621638 1.3897684e-38 321 282
0.0024546667 0.69999999 -0.051547997 1.3806568e-38 322 282
0.0036819996 0.69999999 -0.051547997 1.3991319e-38 323 282
0.0049093333 0.69999999 -0.051547997 1.3623623e-38 324 282
0.006119133 0.69800001 -0.051400717 1.3623623e-38 325 282
0.0073429602 0.69800001 -0.051400717 1.343996e-38 326 282
0.0085667865 0.69800001 -0.051400717 1.3347763e-38 327 282
0.0097906133 0.69800001 -0.051400717 1.3347037e-38 328 282
0.01101444 0.69800001 -0.051400717 1.3070452e-38 329 282
0.012238266 0.69800001 -0.051400717 1.3161921e-38 330 282
0.013462093 0.69800001 -0.051400717 1.2977889e-38 331 282
0.014727999 0.69999999 -0.051547997 1.2885693e-38 332 282
0.015955333 0.69999999 -0.051547997 1.2885693e-38 333 282
0.017182667 0.69999999 -0.051547997 1.2976454e-38 334 282
0.018409999 0.69999999 -0.051547997 1.2976454e-38 335 282
0.019637333 0.69999999 -0.051547997 1.2976457e-38 336 282
0.020864666 0.69999999 -0.051547997 1.3068652e-38 337 282
0.022091998 0.69999999 -0.051547997 1.288534e-38 338 282
0.023352645 0.70099998 -0.051621638 1.288534e-38 339 282
0.024581732 0.70099998 -0.051621638 1.2886056e-38 340 282
0.025810819 0.70099998 -0.051621638 1.2978253e-38 341 282
0.027039904 0.70099998 -0.051621638 1.2794941e-38 342 282
0.028268991 0.70099998 -0.051621638 1.2978972e-38 343 282
0.029624319 0.704 -0.051842559 1.3070454e-38 344 282
0.030858666 0.704 -0.051842559 1.3070454e-38 345 282
0.032093015 0.704 -0.051842559 1.2978622e-38 346 282
0.033422034 0.70599997 -0.051989835 1.3070817e-38 347 282
0.034659892 0.70599997 -0.051989835 1.3163016e-38 348 282
0.035948593 0.70700002 -0.05206348 1.3255211e-38 349 282
0.0372408 0.708 -0.052137118 1.2889303e-38 350 282
0.038590867 0.70999998 -0.052284397 1.3073336e-38 351 282
0.039891839 0.71100003 -0.052358042 1.3074417e-38 352 282
0.041138459 0.71100003 -0.052358042 1.3258448e-38 353 282
0.042385083 0.71100003 -0.052358042 1.3260251e-38 354 282
0.043754432 0.713 -0.052505318 1.3444642e-38 355 282
0.045067675 0.71399999 -0.052578956 1.3722326e-38 356 282
0.046449307 0.71600002 -0.052726239 1.4367695e-38 357 282
0.047704693 0.71600002 -0.052726239 1.6217411e-38 358 282
-0.026694499 0.72500002 -0.054660168 1.9176341e-38 299 283
-0.025423333 0.72500002 -0.054660168 1.8156756e-38 300 283
-0.024152167 0.72500002 -0.054660168 1.3085996e-38 301 283
-0.022880999 0.72500002 -0.054660168 1.4642853e-38 302 283
-0.021520413 0.722 -0.054433983 1.4642853e-38 303 283
-0.020254506 0.722 -0.054433983 1.4733231e-38 304 283
-0.018857099 0.71700001 -0.054057021 1.4272254e-38 305 283
-0.017526319 0.71399999 -0.053830836 1.4639575e-38 306 283
-0.01620606 0.71100003 -0.053604662 1.4270793e-38 307 283
-0.014938398 0.70999998 -0.053529263 1.4362613e-38 308 283
-0.013693533 0.70999998 -0.053529263 1.4086385e-38 309 283
-0.012396066 0.70700002 -0.053303085 1.4177854e-38 310 283
-0.011140679 0.70599997 -0.053227689 1.40853e-38 311 283
-0.0099028256 0.70599997 -0.053227689 1.4084581e-38 312 283
-0.0086404262 0.704 -0.053076904 1.4084581e-38 313 283
-0.0074060797 0.704 -0.053076904 1.4267533e-38 314 283
-0.0061717331 0.704 -0.053076904 1.4174979e-38 315 283
-0.0049373866 0.704 -0.053076904 1.4174617e-38 316 283
-0.0037030398 0.704 -0.053076904 1.4082063e-38 317 283
-0.0024651866 0.70300001 -0.053001512 1.3990236e-38 318 283
-0.0012325933 0.70300001 -0.053001512 1.389804e-38 319 283
0 0.70099998 -0.052850723 1.389769e-38 320 283
0.0012290865 0.70099998 -0.052850723 1.37133e-38 321 283
0.0024546667 0.69999999 -0.052775331 1.3714019e-38 322 283
0.0036819996 0.69999999 -0.052775331 1.389877e-38 323 283
0.0049093333 0.69999999 -0.052775331 1.3623991e-38 324 283
0.006119133 0.69800001 -0.052624546 1.343996e-38 325 283
0.0073429602 0.69800001 -0.052624546 1.3255933e-38 326 283
0.0085667865 0.69800001 -0.052624546 1.3163738e-38 327 283
0.0097906133 0.69800001 -0.052624546 1.3346318e-38 328 283
0.01101444 0.69800001 -0.052624546 1.3161568e-38 329 283
0.012238266 0.69800001 -0.052624546 1.3161198e-38 330 283
0.013462093 0.69800001 -0.052624546 1.3069003e-38 331 283
0.014727999 0.69999999 -0.052775331 1.2885693e-38 332 283
0.015955333 0.69999999 -0.052775331 1.2793498e-38 333 283
0.017182667 0.69999999 -0.052775331 1.2975738e-38 334 283
0.018409999 0.69999999 -0.052775331 1.2975738e-38 335 283
0.019637333 0.69999999 -0.052775331 1.2975738e-38 336 283
0.020864666 0.69999999 -0.052775331 1.2975738e-38 337 283
0.022123558 0.70099998 -0.052850723 1.297646e-38 338 283
0.023352645 0.70099998 -0.052850723 1.297646e-38 339 283
0.024581732 0.70099998 -0.052850723 1.2793863e-38 340 283
0.025810819 0.70099998 -0.052850723 1.2793863e-38 341 283
0.027039904 0.70099998 -0.052850723 1.2886056e-38 342 283
0.028389972 0.704 -0.053076904 1.2978253e-38 343 283
0.029624319 0.704 -0.053076904 1.3161924e-38 344 283
0.030858666 0.704 -0.053076904 1.3161924e-38 345 283
0.032093015 0.704 -0.053076904 1.2978256e-38 346 283
0.033422034 0.70599997 -0.053227689 1.3070452e-38 347 283
0.034659892 0.70599997 -0.053227689 1.3071171e-38 348 283
0.035948593 0.70700002 -0.053303085 1.3163366e-38 349 283
0.0372408 0.708 -0.053378478 1.3073324e-38 350 283
0.038590867 0.70999998 -0.053529263 1.3165521e-38 351 283
0.039891839 0.71100003 -0.053604662 1.3258083e-38 352 283
0.041138459 0.71100003 -0.053604662 1.3442833e-38 353 283
0.042385083 0.71100003 -0.053604662 1.3260253e-38 354 283
0.043754432 0.713 -0.053755447 1.3444645e-38 355 283
0.045067675 0.71399999 -0.053830836 1.3813803e-38 356 283
0.046449307 0.71600002 -0.053981625 1.4919792e-38 357 283
0.047704693 0.71600002 -0.053981625 1.6770938e-38 358 283
-0.026694499 0.72500002 -0.055931333 1.991283e-38 299 284
-0.025318133 0.722 -0.055699892 1.9262027e-38 300 284
-0.024052227 0.722 -0.055699892 1.4191628e-38 301 284
-0.02281788 0.72299999 -0.055777039 1.4918724e-38 302 284
-0.021520413 0.722 -0.055699892 1.4641778e-38 303 284
-0.020254506 0.722 -0.055699892 1.482615e-38 304 284
-0.018857099 0.71700001 -0.055314157 1.4272976e-38 305 284
-0.017526319 0.71399999 -0.05508272 1.445591e-38 306 284
-0.016251646 0.713 -0.055005573 1.4271158e-38 307 284
-0.014959441 0.71100003 -0.054851279 1.4362262e-38 308 284
-0.013693533 0.70999998 -0.054774132 1.4270067e-38 309 284
-0.0124136 0.708 -0.054619838 1.3993833e-38 310 284
-0.011140679 0.70599997 -0.054465543 1.3901637e-38 311 284
-0.0099028256 0.70599997 -0.054465543 1.3992388e-38 312 284
-0.0086404262 0.704 -0.054311249 1.3900193e-38 313 284
-0.0074060797 0.704 -0.054311249 1.4082785e-38 314 284
-0.0061717331 0.704 -0.054311249 1.4174982e-38 315 284
-0.0049373866 0.704 -0.054311249 1.3899118e-38 316 284
-0.0037030398 0.704 -0.054311249 1.3714725e-38 317 284
-0.0024651866 0.70300001 -0.054234106 1.3714372e-38 318 284
-0.0012325933 0.70300001 -0.054234106 1.3529981e-38 319 284
0 0.70099998 -0.054079808 1.3529275e-38 320 284
0.0012290865 0.70099998 -0.054079808 1.3529275e-38 321 284
0.0024546667 0.69999999 -0.054002665 1.3438164e-38 322 284
0.0036819996 0.69999999 -0.054002665 1.3530359e-38 323 284
0.0049093333 0.69999999 -0.054002665 1.3347058e-38 324 284
0.006119133 0.69800001 -0.053848371 1.3254861e-38 325 284
0.0073429602 0.69800001 -0.053848371 1.3254508e-38 326 284
0.0085667865 0.69800001 -0.053848371 1.3162312e-38 327 284
0.0097906133 0.69800001 -0.053848371 1.3253416e-38 328 284
0.01101444 0.69800001 -0.053848371 1.297683e-38 329 284
0.012238266 0.69800001 -0.053848371 1.2793145e-38 330 284
0.013462093 0.69800001 -0.053848371 1.2793145e-38 331 284
0.014727999 0.69999999 -0.054002665 1.2700946e-38 332 284
0.015955333 0.69999999 -0.054002665 1.2700946e-38 333 284
0.017182667 0.69999999 -0.054002665 1.2884261e-38 334 284
0.018409999 0.69999999 -0.054002665 1.2884261e-38 335 284
0.019637333 0.69999999 -0.054002665 1.2700949e-38 336 284
0.020864666 0.69999999 -0.054002665 1.2608395e-38 337 284
0.022123558 0.70099998 -0.054079808 1.2700949e-38 338 284
0.023352645 0.70099998 -0.054079808 1.2700949e-38 339 284
0.024581732 0.70099998 -0.054079808 1.2517281e-38 340 284
0.025810819 0.70099998 -0.054079808 1.2517281e-38 341 284
0.027117053 0.70300001 -0.054234106 1.2701665e-38 342 284
0.028389972 0.704 -0.054311249 1.2793861e-38 343 284
0.029624319 0.704 -0.054311249 1.2885337e-38 344 284
0.030858666 0.704 -0.054311249 1.2977533e-38 345 284
0.032093015 0.704 -0.054311249 1.2702747e-38 346 284
0.033422034 0.70599997 -0.054465543 1.2978975e-38 347 284
0.034659892 0.70599997 -0.054465543 1.2887858e-38 348 284
0.035948593 0.70700002 -0.054542694 1.2980054e-38 349 284
0.037345998 0.70999998 -0.054774132 1.3073324e-38 350 284
0.038590867 0.70999998 -0.054774132 1.3165521e-38 351 284
0.039891839 0.71100003 -0.054851279 1.3258804e-38 352 284
0.041138459 0.71100003 -0.054851279 1.3351e-38 353 284
0.042504307 0.713 -0.055005573 1.3535761e-38 354 284
0.043754432 0.713 -0.055005573 1.3627957e-38 355 284
0.045067675 0.71399999 -0.05508272 1.3997481e-38 356 284
0.046449307 0.71600002 -0.055237014 1.5657362e-38 357 284
0.047704693 0.71600002 -0.055237014 1.7417396e-38 358 284
-0.025318133 0.722 -0.056965802 1.9634054e-38 300 285
-0.024052227 0.722 -0.056965802 1.5024272e-38 301 285
-0.02281788 0.72299999 -0.057044696 1.5380062e-38 302 285
-0.021520413 0.722 -0.056965802 1.4734693e-38 303 285
-0.020254506 0.722 -0.056965802 1.5010175e-38 304 285
-0.018857099 0.71700001 -0.056571297 1.4641033e-38 305 285
-0.017575413 0.71600002 -0.056492399 1.4639219e-38 306 285
-0.016251646 0.713 -0.056255698 1.4362991e-38 307 285
-0.014959441 0.71100003 -0.056097899 1.4453739e-38 308 285
-0.01371282 0.71100003 -0.056097899 1.4361544e-38 309 285
-0.012448666 0.70999998 -0.056018997 1.4177498e-38 310 285
-0.011156459 0.70700002 -0.055782299 1.4085303e-38 311 285
-0.0099028256 0.70599997 -0.055703394 1.3992386e-38 312 285
-0.0086649731 0.70599997 -0.055703394 1.390019e-38 313 285
-0.0074060797 0.704 -0.055545598 1.3900193e-38 314 285
-0.0061717331 0.704 -0.055545598 1.3807996e-38 315 285
-0.0049373866 0.704 -0.055545598 1.3807274e-38 316 285
-0.0037030398 0.704 -0.055545598 1.3622883e-38 317 285
-0.0024686933 0.704 -0.055545598 1.3621811e-38 318 285
-0.0012325933 0.70300001 -0.0554667 1.3621811e-38 319 285
0 0.70099998 -0.055308893 1.3253764e-38 320 285
0.0012290865 0.70099998 -0.055308893 1.3346318e-38 321 285
0.0024546667 0.69999999 -0.055229999 1.3253063e-38 322 285
0.0036819996 0.69999999 -0.055229999 1.3345259e-38 323 285
0.0049093333 0.69999999 -0.055229999 1.3161959e-38 324 285
0.006119133 0.69800001 -0.0550722 1.3161959e-38 325 285
0.0073429602 0.69800001 -0.0550722 1.3161596e-38 326 285
0.0085667865 0.69800001 -0.0550722 1.3069401e-38 327 285
0.0097906133 0.69800001 -0.0550722 1.297755e-38 328 285
0.01101444 0.69800001 -0.0550722 1.2885353e-38 329 285
0.012238266 0.69800001 -0.0550722 1.2976457e-38 330 285
0.013500666 0.69999999 -0.055229999 1.2884261e-38 331 285
0.014727999 0.69999999 -0.055229999 1.2793142e-38 332 285
0.015955333 0.69999999 -0.055229999 1.2700946e-38 333 285
0.017182667 0.69999999 -0.055229999 1.2700946e-38 334 285
0.018409999 0.69999999 -0.055229999 1.2700946e-38 335 285
0.019637333 0.69999999 -0.055229999 1.270023e-38 336 285
0.020864666 0.69999999 -0.055229999 1.270023e-38 337 285
0.022123558 0.70099998 -0.055308893 1.270023e-38 338 285
0.023352645 0.70099998 -0.055308893 1.270023e-38 339 285
0.024581732 0.70099998 -0.055308893 1.2700227e-38 340 285
0.025884461 0.70300001 -0.0554667 1.2884258e-38 341 285
0.027117053 0.70300001 -0.0554667 1.2517634e-38 342 285
0.028389972 0.704 -0.055545598 1.2517634e-38 343 285
0.029624319 0.704 -0.055545598 1.2793145e-38 344 285
0.030858666 0.704 -0.055545598 1.288534e-38 345 285
0.032093015 0.704 -0.055545598 1.2795663e-38 346 285
0.033422034 0.70599997 -0.055703394 1.2795663e-38 347 285
0.034659892 0.70599997 -0.055703394 1.2887858e-38 348 285
0.03599944 0.708 -0.055861197 1.3164085e-38 349 285
0.037345998 0.70999998 -0.056018997 1.3073691e-38 350 285
0.038590867 0.70999998 -0.056018997 1.3165887e-38 351 285
0.039891839 0.71100003 -0.056097899 1.3075139e-38 352 285
0.041138459 0.71100003 -0.056097899 1.325953e-38 353 285
0.042504307 0.713 -0.056255698 1.3352452e-38 354 285
0.043815799 0.71399999 -0.0563346 1.3444647e-38 355 285
0.045067675 0.71399999 -0.0563346 1.4459185e-38 356 285
0.046449307 0.71600002 -0.056492399 1.6856271e-38 357 285
0.047704693 0.71600002 -0.056492399 1.778727e-38 358 285
-0.024218792 0.727 -0.058634974 1.6314661e-38 301 286
-0.022944121 0.727 -0.058634974 1.5935038e-38 302 286
-0.021520413 0.722 -0.058231708 1.4552102e-38 303 286
-0.020254506 0.722 -0.058231708 1.5103093e-38 304 286
-0.018857099 0.71700001 -0.057828441 1.4549919e-38 305 286
-0.017575413 0.71600002 -0.057747785 1.4549187e-38 306 286
-0.016274439 0.71399999 -0.057586476 1.4088568e-38 307 286
-0.015001519 0.713 -0.057505824 1.4271862e-38 308 286
-0.01371282 0.71100003 -0.057344519 1.4087471e-38 309 286
-0.012448666 0.70999998 -0.057263866 1.4087458e-38 310 286
-0.01117224 0.708 -0.057102561 1.3902707e-38 311 286
-0.0099028256 0.70599997 -0.056941248 1.380872e-38 312 286
-0.0086649731 0.70599997 -0.056941248 1.380872e-38 313 286
-0.0074271196 0.70599997 -0.056941248 1.3807641e-38 314 286
-0.0061717331 0.704 -0.056779943 1.3899837e-38 315 286
-0.0049373866 0.704 -0.056779943 1.3807996e-38 316 286
-0.0037030398 0.704 -0.056779943 1.353141e-38 317 286
-0.0024686933 0.704 -0.056779943 1.3439212e-38 318 286
-0.0012325933 0.70300001 -0.056699295 1.3254821e-38 319 286
0 0.70300001 -0.056699295 1.3163356e-38 320 286
0.0012290865 0.70099998 -0.056537982 1.2978606e-38 321 286
0.0024546667 0.69999999 -0.056457333 1.2977553e-38 322 286
0.0036819996 0.69999999 -0.056457333 1.3069748e-38 323 286
0.0049093333 0.69999999 -0.056457333 1.3070117e-38 324 286
0.006119133 0.69800001 -0.056296028 1.2977921e-38 325 286
0.0073429602 0.69800001 -0.056296028 1.3069395e-38 326 286
0.0085667865 0.69800001 -0.056296028 1.3069395e-38 327 286
0.0097906133 0.69800001 -0.056296028 1.2885357e-38 328 286
0.01101444 0.69800001 -0.056296028 1.2700964e-38 329 286
0.012238266 0.69800001 -0.056296028 1.2883911e-38 330 286
0.013500666 0.69999999 -0.056457333 1.2883911e-38 331 286
0.014727999 0.69999999 -0.056457333 1.2883905e-38 332 286
0.015955333 0.69999999 -0.056457333 1.2699874e-38 333 286
0.017182667 0.69999999 -0.056457333 1.2699874e-38 334 286
0.018409999 0.69999999 -0.056457333 1.2699874e-38 335 286
0.019637333 0.69999999 -0.056457333 1.2699874e-38 336 286
0.020864666 0.69999999 -0.056457333 1.2699874e-38 337 286
0.022123558 0.70099998 -0.056537982 1.260875e-38 338 286
0.023352645 0.70099998 -0.056537982 1.260875e-38 339 286
0.024651866 0.70300001 -0.056699295 1.2517987e-38 340 286
0.025884461 0.70300001 -0.056699295 1.2517987e-38 341 286
0.027117053 0.70300001 -0.056699295 1.2701299e-38 342 286
0.028389972 0.704 -0.056779943 1.2701299e-38 343 286
0.029708479 0.70599997 -0.056941248 1.2701662e-38 344 286
0.030946331 0.70599997 -0.056941248 1.2886412e-38 345 286
0.032184184 0.70599997 -0.056941248 1.2702747e-38 346 286
0.033422034 0.70599997 -0.056941248 1.3071171e-38 347 286
0.034659892 0.70599997 -0.056941248 1.2888577e-38 348 286
0.03599944 0.708 -0.057102561 1.2980773e-38 349 286
0.037345998 0.70999998 -0.057263866 1.2890379e-38 350 286
0.038590867 0.70999998 -0.057263866 1.307477e-38 351 286
0.039891839 0.71100003 -0.057344519 1.3351e-38 352 286
0.041138459 0.71100003 -0.057344519 1.3443196e-38 353 286
0.042504307 0.713 -0.057505824 1.3627957e-38 354 286
0.043815799 0.71399999 -0.057586476 1.3535761e-38 355 286
0.045257039 0.71700001 -0.057828441 1.501417e-38 356 286
0.0467088 0.72000003 -0.058070403 1.7411615e-38 357 286
-0.022880999 0.72500002 -0.059744831 1.6584004e-38 302 287
-0.021550218 0.72299999 -0.059580017 1.4279112e-38 303 287
-0.020282559 0.72299999 -0.059580017 1.5195636e-38 304 287
-0.018909698 0.71899998 -0.059250388 1.4919049e-38 305 287
-0.017575413 0.71600002 -0.059003171 1.5008711e-38 306 287
-0.016274439 0.71399999 -0.058838356 1.463957e-38 307 287
-0.015001519 0.713 -0.058755953 1.454736e-38 308 287
-0.01371282 0.71100003 -0.058591139 1.4455164e-38 309 287
-0.012448666 0.70999998 -0.058508728 1.4362247e-38 310 287
-0.01117224 0.708 -0.058343921 1.4177854e-38 311 287
-0.0099168532 0.70700002 -0.05826151 1.4175703e-38 312 287
-0.0086649731 0.70599997 -0.058179103 1.3991672e-38 313 287
-0.0074271196 0.70599997 -0.058179103 1.3716525e-38 314 287
-0.0061717331 0.704 -0.058014292 1.3716525e-38 315 287
-0.0049373866 0.704 -0.058014292 1.3623962e-38 316 287
-0.0037030398 0.704 -0.058014292 1.3531766e-38 317 287
-0.0024686933 0.704 -0.058014292 1.3439212e-38 318 287
-0.0012325933 0.70300001 -0.057931885 1.3254821e-38 319 287
0 0.70300001 -0.057931885 1.3070805e-38 320 287
0.0012290865 0.70099998 -0.057767071 1.2978609e-38 321 287
0.0024581731 0.70099998 -0.057767071 1.2794238e-38 322 287
0.0036819996 0.69999999 -0.05768466 1.2978269e-38 323 287
0.0049093333 0.69999999 -0.05768466 1.2886805e-38 324 287
0.0061366665 0.69999999 -0.05768466 1.2794609e-38 325 287
0.0073429602 0.69800001 -0.057519849 1.2793887e-38 326 287
0.0085667865 0.69800001 -0.057519849 1.2793887e-38 327 287
0.0097906133 0.69800001 -0.057519849 1.2793157e-38 328 287
0.011045999 0.69999999 -0.05768466 1.2700962e-38 329 287
0.012273333 0.69999999 -0.05768466 1.297646e-38 330 287
0.013500666 0.69999999 -0.05768466 1.2883905e-38 331 287
0.014727999 0.69999999 -0.05768466 1.2791347e-38 332 287
0.015955333 0.69999999 -0.05768466 1.2791347e-38 333 287
0.017182667 0.69999999 -0.05768466 1.2699874e-38 334 287
0.018436298 0.70099998 -0.057767071 1.2699874e-38 335 287
0.019665385 0.70099998 -0.057767071 1.2608397e-38 336 287
0.020894472 0.70099998 -0.057767071 1.2700593e-38 337 287
0.022123558 0.70099998 -0.057767071 1.2425435e-38 338 287
0.023419274 0.70300001 -0.057931885 1.2517631e-38 339 287
0.024651866 0.70300001 -0.057931885 1.2426507e-38 340 287
0.025884461 0.70300001 -0.057931885 1.2518703e-38 341 287
0.027117053 0.70300001 -0.057931885 1.2702015e-38 342 287
0.028389972 0.704 -0.058014292 1.2702015e-38 343 287
0.029708479 0.70599997 -0.058179103 1.2793858e-38 344 287
0.030946331 0.70599997 -0.058179103 1.2886412e-38 345 287
0.032184184 0.70599997 -0.058179103 1.2795307e-38 346 287
0.033516716 0.708 -0.058343921 1.2887861e-38 347 287
0.034758076 0.708 -0.058343921 1.298042e-38 348 287
0.03599944 0.708 -0.058343921 1.3072974e-38 349 287
0.037345998 0.70999998 -0.058508728 1.2982938e-38 350 287
0.038645219 0.71100003 -0.058591139 1.3075492e-38 351 287
0.039891839 0.71100003 -0.058591139 1.3167337e-38 352 287
0.041138459 0.71100003 -0.058591139 1.3535761e-38 353 287
0.042385083 0.71100003 -0.058591139 1.3261348e-38 354 287
0.043631699 0.71100003 -0.058591139 1.3722326e-38 355 287
0.045257039 0.71700001 -0.059085581 1.5109618e-38 356 287
-0.021550218 0.72299999 -0.060847677 1.4834829e-38 303 288
-0.020282559 0.72299999 -0.060847677 1.5288217e-38 304 288
-0.018909698 0.71899998 -0.060511041 1.4735402e-38 305 288
-0.017599959 0.71700001 -0.060342718 1.4917977e-38 306 288
-0.016274439 0.71399999 -0.060090236 1.4364803e-38 307 288
-0.015001519 0.713 -0.060006075 1.445626e-38 308 288
-0.01371282 0.71100003 -0.059837762 1.4271509e-38 309 288
-0.012448666 0.70999998 -0.059753593 1.436226e-38 310 288
-0.011203799 0.70999998 -0.059753593 1.4086033e-38 311 288
-0.0099168532 0.70700002 -0.059501119 1.4083878e-38 312 288
-0.008677247 0.70700002 -0.059501119 1.4083878e-38 313 288
-0.0074271196 0.70599997 -0.059416957 1.3625051e-38 314 288
-0.0061892662 0.70599997 -0.059416957 1.3625051e-38 315 288
-0.0049373866 0.704 -0.059248637 1.3624332e-38 316 288
-0.0037030398 0.704 -0.059248637 1.3531776e-38 317 288
-0.0024686933 0.704 -0.059248637 1.3438511e-38 318 288
-0.0012325933 0.70300001 -0.059164476 1.325412e-38 319 288
0 0.70300001 -0.059164476 1.3070808e-38 320 288
0.0012290865 0.70099998 -0.058996156 1.2978253e-38 321 288
0.0024581731 0.70099998 -0.058996156 1.2885703e-38 322 288
0.0036819996 0.69999999 -0.058911994 1.2978259e-38 323 288
0.0049093333 0.69999999 -0.058911994 1.2794593e-38 324 288
0.0061366665 0.69999999 -0.058911994 1.2794593e-38 325 288
0.0073639993 0.69999999 -0.058911994 1.2885709e-38 326 288
0.0085913334 0.69999999 -0.058911994 1.2885709e-38 327 288
0.0098186666 0.69999999 -0.058911994 1.279351e-38 328 288
0.011045999 0.69999999 -0.058911994 1.279351e-38 329 288
0.012273333 0.69999999 -0.058911994 1.2793507e-38 330 288
0.013500666 0.69999999 -0.058911994 1.2701312e-38 331 288
0.014727999 0.69999999 -0.058911994 1.2792789e-38 332 288
0.015955333 0.69999999 -0.058911994 1.2700593e-38 333 288
0.017182667 0.69999999 -0.058911994 1.2608397e-38 334 288
0.018436298 0.70099998 -0.058996156 1.2700593e-38 335 288
0.019665385 0.70099998 -0.058996156 1.2517278e-38 336 288
0.020894472 0.70099998 -0.058996156 1.2517278e-38 337 288
0.022123558 0.70099998 -0.058996156 1.2517634e-38 338 288
0.023419274 0.70300001 -0.059164476 1.2517634e-38 339 288
0.024651866 0.70300001 -0.059164476 1.2610548e-38 340 288
0.025884461 0.70300001 -0.059164476 1.2610548e-38 341 288
0.027117053 0.70300001 -0.059164476 1.2610911e-38 342 288
0.028389972 0.704 -0.059248637 1.2610911e-38 343 288
0.029708479 0.70599997 -0.059416957 1.2793861e-38 344 288
0.030946331 0.70599997 -0.059416957 1.2886056e-38 345 288
0.032184184 0.70599997 -0.059416957 1.2978975e-38 346 288
0.033516716 0.708 -0.059585281 1.3163366e-38 347 288
0.034758076 0.708 -0.059585281 1.3072971e-38 348 288
0.03599944 0.708 -0.059585281 1.3165168e-38 349 288
0.037345998 0.70999998 -0.059753593 1.3074773e-38 350 288
0.038645219 0.71100003 -0.059837762 1.3258804e-38 351 288
0.039891839 0.71100003 -0.059837762 1.335065e-38 352 288
0.041138459 0.71100003 -0.059837762 1.3627238e-38 353 288
0.042325463 0.70999998 -0.059753593 1.3721254e-38 354 288
0.043570329 0.70999998 -0.059753593 1.4919797e-38 355 288
0.044815198 0.70999998 -0.059753593 1.5572407e-38 356 288
-0.020198401 0.72000003 -0.061857603 1.5474416e-38 304 289
-0.018857099 0.71700001 -0.061599858 1.4736851e-38 305 289
-0.017599959 0.71700001 -0.061599858 1.5193122e-38 306 289
-0.016274439 0.71399999 -0.061342116 1.4916533e-38 307 289
-0.015022559 0.71399999 -0.061342116 1.4548456e-38 308 289
-0.013751393 0.713 -0.061256204 1.4271509e-38 309 289
-0.0124662 0.71100003 -0.061084379 1.4361909e-38 310 289
-0.011203799 0.70999998 -0.060998458 1.4269714e-38 311 289
-0.0099308798 0.708 -0.060826641 1.4084599e-38 312 289
