# .PCD v.7 - Point Cloud Data file format
FIELDS x y z rgb imX imY
SIZE 4 4 4 4 4 4
TYPE F F F F F F
COUNT 1 1 1 1 1 1
WIDTH 826
HEIGHT 1
VIEWPOINT 0 0 0 1 0 0 0
POINTS 826
DATA ascii
-0.020566599 0.69 0.0012097999 1.601889e-38 303 239
-0.019356798 0.69 0.0012097999 1.6296556e-38 304 239
-0.0180944 0.68800002 0.0012062934 1.6573144e-38 305 239
-0.01686356 0.68699998 0.0012045399 1.6849011e-38 306 239
-0.015659019 0.68699998 0.0012045399 1.666426e-38 307 239
-0.014454478 0.68699998 0.0012045399 1.6756092e-38 308 239
-0.013249939 0.68699998 0.0012045399 1.7124516e-38 309 239
-0.012045399 0.68699998 0.0012045399 1.7035918e-38 310 239
-0.010840859 0.68699998 0.0012045399 1.7404699e-38 311 239
-0.0096363192 0.68699998 0.0012045399 1.7587996e-38 312 239
-0.0084440531 0.68800002 0.0012062934 1.5928833e-38 313 239
-0.0072377604 0.68800002 0.0012062934 1.6201799e-38 314 239
-0.0060314666 0.68800002 0.0012062934 1.5925571e-38 315 239
-0.0048251734 0.68800002 0.0012062934 1.6015608e-38 316 239
-0.0036293997 0.69 0.0012097999 1.5923414e-38 317 239
-0.0024231065 0.69099998 0.0012115532 1.5831579e-38 318 239
-0.0012115532 0.69099998 0.0012115532 1.5831579e-38 319 239
0 0.69099998 0.0012115532 1.5831579e-38 320 239
0.00121506 0.69300002 0.00121506 1.6015967e-38 321 239
0.00243012 0.69300002 0.00121506 1.5741178e-38 322 239
0.0036504399 0.69400001 0.0012168133 1.5833372e-38 323 239
0.0048812795 0.69599998 0.0012203199 1.5558224e-38 324 239
0.0061015999 0.69599998 0.0012203199 1.5650419e-38 325 239
0.0073219193 0.69599998 0.0012203199 1.5467824e-38 326 239
0.0085545136 0.69700003 0.0012220733 1.5651854e-38 327 239
0.0097765867 0.69700003 0.0012220733 1.5193783e-38 328 239
0.01101444 0.69800001 0.0012238267 1.5562206e-38 329 239
-0.04405776 0.69800001 -0 1.390312e-38 284 240
-0.042833932 0.69800001 -0 1.2981165e-38 285 240
-0.041729331 0.69999999 -0 1.4177486e-38 286 240
-0.040386278 0.69800001 -0 1.454591e-38 287 240
-0.039162453 0.69800001 -0 1.49129e-38 288 240
-0.037884273 0.69700003 -0 1.5097291e-38 289 240
-0.036662199 0.69700003 -0 1.5373158e-38 290 240
-0.035389278 0.69599998 -0 1.5373158e-38 291 240
-0.034168959 0.69599998 -0 1.5373871e-38 292 240
-0.032853961 0.69400001 -0 1.5281675e-38 293 240
-0.031591557 0.69300002 -0 1.5282029e-38 294 240
-0.0303765 0.69300002 -0 1.5097997e-38 295 240
-0.029077278 0.69099998 -0 1.5280957e-38 296 240
-0.027865725 0.69099998 -0 1.5280957e-38 297 240
-0.026654173 0.69099998 -0 1.5281681e-38 298 240
-0.025442619 0.69099998 -0 1.5281681e-38 299 240
-0.024195999 0.69 -0 1.5373877e-38 300 240
-0.022986198 0.69 -0 1.5373877e-38 301 240
-0.021776399 0.69 -0 1.537497e-38 302 240
-0.020566599 0.69 -0 1.5835948e-38 303 240
-0.019300694 0.68800002 -0 1.5929591e-38 304 240
-0.018068098 0.68699998 -0 1.6205819e-38 305 240
-0.01686356 0.68699998 -0 1.6480597e-38 306 240
-0.015659019 0.68699998 -0 1.6388401e-38 307 240
-0.014454478 0.68699998 -0 1.6573866e-38 308 240
-0.013249939 0.68699998 -0 1.6850453e-38 309 240
-0.012045399 0.68699998 -0 1.6944816e-38 310 240
-0.010840859 0.68699998 -0 1.7129206e-38 311 240
-0.0096363192 0.68699998 -0 1.7128835e-38 312 240
-0.0084317802 0.68699998 -0 1.5284922e-38 313 240
-0.0072272392 0.68699998 -0 1.5925583e-38 314 240
-0.0060226996 0.68699998 -0 1.5556802e-38 315 240
-0.0048181596 0.68699998 -0 1.5831579e-38 316 240
-0.0036188802 0.68800002 -0 1.5739026e-38 317 240
-0.0024125867 0.68800002 -0 1.5463878e-38 318 240
-0.0012115532 0.69099998 -0 1.5556072e-38 319 240
0 0.69099998 -0 1.5556072e-38 320 240
0.0012115532 0.69099998 -0 1.5648266e-38 321 240
0.0024231065 0.69099998 -0 1.5647908e-38 322 240
0.0036451798 0.69300002 -0 1.5832297e-38 323 240
0.0048672534 0.69400001 -0 1.5466032e-38 324 240
0.0061015999 0.69599998 -0 1.5558227e-38 325 240
0.0073219193 0.69599998 -0 1.565007e-38 326 240
0.0085422397 0.69599998 -0 1.5742624e-38 327 240
0.0097765867 0.69700003 -0 1.52849e-38 328 240
0.01099866 0.69700003 -0 1.5377095e-38 329 240
0.012220734 0.69700003 -0 1.3721212e-38 330 240
-0.04541133 0.69999999 -0.0012273333 9.5890462e-39 283 241
-0.04405776 0.69800001 -0.0012238267 1.2609492e-38 284 241
-0.042833932 0.69800001 -0.0012238267 1.4084623e-38 285 241
-0.041729331 0.69999999 -0.0012273333 1.4545557e-38 286 241
-0.040386278 0.69800001 -0.0012238267 1.4545557e-38 287 241
-0.039162453 0.69800001 -0.0012238267 1.5188764e-38 288 241
-0.037884273 0.69700003 -0.0012220733 1.5280959e-38 289 241
-0.036662199 0.69700003 -0.0012220733 1.5373155e-38 290 241
-0.035287585 0.69400001 -0.0012168133 1.5465351e-38 291 241
-0.034070771 0.69400001 -0.0012168133 1.5190206e-38 292 241
-0.032853961 0.69400001 -0.0012168133 1.509801e-38 293 241
-0.031591557 0.69300002 -0.00121506 1.5373877e-38 294 241
-0.0303765 0.69300002 -0.00121506 1.5281681e-38 295 241
-0.029077278 0.69099998 -0.0012115532 1.5281675e-38 296 241
-0.027865725 0.69099998 -0.0012115532 1.5097644e-38 297 241
-0.026654173 0.69099998 -0.0012115532 1.5281307e-38 298 241
-0.025405798 0.69 -0.0012097999 1.5373861e-38 299 241
-0.024195999 0.69 -0.0012097999 1.5282379e-38 300 241
-0.022986198 0.69 -0.0012097999 1.5282379e-38 301 241
-0.021713281 0.68800002 -0.0012062934 1.5649016e-38 302 241
-0.020506985 0.68800002 -0.0012062934 1.6109994e-38 303 241
-0.019300694 0.68800002 -0.0012062934 1.6020689e-38 304 241
-0.018068098 0.68699998 -0.0012045399 1.6113244e-38 305 241
-0.01686356 0.68699998 -0.0012045399 1.6388386e-38 306 241
-0.015636226 0.68599999 -0.0012027866 1.675681e-38 307 241
-0.01443344 0.68599999 -0.0012027866 1.6482747e-38 308 241
-0.013230653 0.68599999 -0.0012027866 1.6943725e-38 309 241
-0.012027865 0.68599999 -0.0012027866 1.703592e-38 310 241
-0.010825079 0.68599999 -0.0012027866 1.6298355e-38 311 241
-0.0096222926 0.68599999 -0.0012027866 1.6204342e-38 312 241
-0.0084195063 0.68599999 -0.0012027866 1.5466777e-38 313 241
-0.0072167199 0.68599999 -0.0012027866 1.6015262e-38 314 241
-0.0060226996 0.68699998 -0.0012045399 1.5923067e-38 315 241
-0.0048181596 0.68699998 -0.0012045399 1.5555355e-38 316 241
-0.0036136196 0.68699998 -0.0012045399 1.546316e-38 317 241
-0.0024125867 0.68800002 -0.0012062934 1.5370966e-38 318 241
-0.0012097999 0.69 -0.0012097999 1.5370966e-38 319 241
0 0.68699998 -0.0012045399 1.5370966e-38 320 241
0.0012045399 0.68699998 -0.0012045399 1.5370966e-38 321 241
0.0024231065 0.69099998 -0.0012115532 1.5462802e-38 322 241
0.0036346598 0.69099998 -0.0012115532 1.5554996e-38 323 241
0.00486024 0.69300002 -0.00121506 1.5373119e-38 324 241
0.0060753003 0.69300002 -0.00121506 1.5465672e-38 325 241
0.0073008798 0.69400001 -0.0012168133 1.5375631e-38 326 241
0.0085176928 0.69400001 -0.0012168133 1.5467827e-38 327 241
0.0097625591 0.69599998 -0.0012203199 1.5283814e-38 328 241
0.010982879 0.69599998 -0.0012203199 1.5560042e-38 329 241
0.012220734 0.69700003 -0.0012220733 1.4642071e-38 330 241
0.013462093 0.69800001 -0.0012238267 1.4826821e-38 331 241
0.014812159 0.704 -0.0012343467 1.3360043e-38 332 241
0.016092092 0.70599997 -0.0012378532 1.6494694e-38 333 241
-0.04541133 0.69999999 -0.0024546667 1.0498741e-38 283 242
-0.044183996 0.69999999 -0.0024546667 1.3531057e-38 284 242
-0.042956665 0.69999999 -0.0024546667 1.4176426e-38 285 242
-0.041729331 0.69999999 -0.0024546667 1.4545195e-38 286 242
-0.040386278 0.69800001 -0.0024476533 1.4637392e-38 287 242
-0.039106347 0.69700003 -0.0024441467 1.4912903e-38 288 242
-0.037829921 0.69599998 -0.0024406398 1.5005098e-38 289 242
-0.036609598 0.69599998 -0.0024406398 1.5281681e-38 290 242
-0.035287585 0.69400001 -0.0024336267 1.5373877e-38 291 242
-0.034070771 0.69400001 -0.0024336267 1.5190206e-38 292 242
-0.032853961 0.69400001 -0.0024336267 1.5190206e-38 293 242
-0.031591557 0.69300002 -0.00243012 1.5373158e-38 294 242
-0.030288832 0.69099998 -0.0024231065 1.5373158e-38 295 242
-0.029077278 0.69099998 -0.0024231065 1.5281312e-38 296 242
-0.027825398 0.69 -0.0024195998 1.5373508e-38 297 242
-0.026615599 0.69 -0.0024195998 1.5099069e-38 298 242
-0.02533216 0.68800002 -0.0024125867 1.5006874e-38 299 242
-0.024125867 0.68800002 -0.0024125867 1.528166e-38 300 242
-0.022919573 0.68800002 -0.0024125867 1.528166e-38 301 242
-0.021713281 0.68800002 -0.0024125867 1.5556823e-38 302 242
-0.020506985 0.68800002 -0.0024125867 1.5833411e-38 303 242
-0.019300694 0.68800002 -0.0024125867 1.555972e-38 304 242
-0.018068098 0.68699998 -0.0024090798 1.5835948e-38 305 242
-0.016839013 0.68599999 -0.0024055731 1.6111456e-38 306 242
-0.015636226 0.68599999 -0.0024055731 1.6388401e-38 307 242
-0.01443344 0.68599999 -0.0024055731 1.6206169e-38 308 242
-0.013230653 0.68599999 -0.0024055731 1.6298724e-38 309 242
-0.012027865 0.68599999 -0.0024055731 1.6480944e-38 310 242
-0.010825079 0.68599999 -0.0024055731 1.5928131e-38 311 242
-0.0096222926 0.68599999 -0.0024055731 1.6202177e-38 312 242
-0.0084195063 0.68599999 -0.0024055731 1.5833035e-38 313 242
-0.0072167199 0.68599999 -0.0024055731 1.5555359e-38 314 242
-0.0060139326 0.68599999 -0.0024055731 1.5463163e-38 315 242
-0.0048111463 0.68599999 -0.0024055731 1.5371325e-38 316 242
-0.00360836 0.68599999 -0.0024055731 1.5095101e-38 317 242
-0.0024090798 0.68699998 -0.0024090798 1.5187654e-38 318 242
-0.0012062934 0.68800002 -0.0024125867 1.509546e-38 319 242
0 0.68699998 -0.0024090798 1.5095101e-38 320 242
0.0012045399 0.68699998 -0.0024090798 1.5095101e-38 321 242
0.0024195998 0.69 -0.0024195998 1.5186936e-38 322 242
0.0036293997 0.69 -0.0024195998 1.546316e-38 323 242
0.0048462129 0.69099998 -0.0024231065 1.5189096e-38 324 242
0.0060753003 0.69300002 -0.00243012 1.5465681e-38 325 242
0.0072903596 0.69300002 -0.00243012 1.5099783e-38 326 242
0.0085176928 0.69400001 -0.0024336267 1.5192337e-38 327 242
0.0097625591 0.69599998 -0.0024406398 1.5100513e-38 328 242
0.010982879 0.69599998 -0.0024406398 1.5100513e-38 329 242
0.012220734 0.69700003 -0.0024441467 1.4918288e-38 330 242
0.013462093 0.69800001 -0.0024476533 1.4918288e-38 331 242
0.014791119 0.70300001 -0.0024651866 1.3352462e-38 332 242
0.016046507 0.704 -0.0024686933 1.5657712e-38 333 242
0.017329946 0.70599997 -0.0024757064 1.6410469e-38 334 242
-0.046705291 0.70099998 -0.0036872597 1.0396093e-38 282 243
-0.04541133 0.69999999 -0.0036819996 1.214817e-38 283 243
-0.044183996 0.69999999 -0.0036819996 1.3900193e-38 284 243
-0.042956665 0.69999999 -0.0036819996 1.3992388e-38 285 243
-0.041610107 0.69800001 -0.0036714801 1.4635237e-38 286 243
-0.040386278 0.69800001 -0.0036714801 1.4635237e-38 287 243
-0.039106347 0.69700003 -0.00366622 1.5003299e-38 288 243
-0.037721213 0.69400001 -0.0036504399 1.5095496e-38 289 243
-0.036504399 0.69400001 -0.0036504399 1.5097647e-38 290 243
-0.035287585 0.69400001 -0.0036504399 1.5281678e-38 291 243
-0.034021679 0.69300002 -0.0036451798 1.5098366e-38 292 243
-0.03280662 0.69300002 -0.0036451798 1.5098366e-38 293 243
-0.031500384 0.69099998 -0.0036346598 1.5281325e-38 294 243
-0.030244999 0.69 -0.0036293997 1.5281325e-38 295 243
-0.028951041 0.68800002 -0.0036188802 1.5556467e-38 296 243
-0.027744746 0.68800002 -0.0036188802 1.5556467e-38 297 243
-0.026538454 0.68800002 -0.0036188802 1.5281312e-38 298 243
-0.02533216 0.68800002 -0.0036188802 1.5281312e-38 299 243
-0.024125867 0.68800002 -0.0036188802 1.5372779e-38 300 243
-0.022919573 0.68800002 -0.0036188802 1.5188748e-38 301 243
-0.021681719 0.68699998 -0.0036136196 1.5188398e-38 302 243
-0.020477179 0.68699998 -0.0036136196 1.5464625e-38 303 243
-0.019272638 0.68699998 -0.0036136196 1.5466424e-38 304 243
-0.018041799 0.68599999 -0.00360836 1.5650815e-38 305 243
-0.016839013 0.68599999 -0.00360836 1.5834831e-38 306 243
-0.015636226 0.68599999 -0.00360836 1.5742635e-38 307 243
-0.01443344 0.68599999 -0.00360836 1.574407e-38 308 243
-0.013230653 0.68599999 -0.00360836 1.5559679e-38 309 243
-0.0119928 0.68400002 -0.00359784 1.5833032e-38 310 243
-0.01079352 0.68400002 -0.00359784 1.5833032e-38 311 243
-0.0095942402 0.68400002 -0.00359784 1.5830871e-38 312 243
-0.0083949603 0.68400002 -0.00359784 1.5830871e-38 313 243
-0.0071956799 0.68400002 -0.00359784 1.5186936e-38 314 243
-0.0059964 0.68400002 -0.00359784 1.5186936e-38 315 243
-0.0048111463 0.68599999 -0.00360836 1.5003624e-38 316 243
-0.00360836 0.68599999 -0.00360836 1.491143e-38 317 243
-0.0024055731 0.68599999 -0.00360836 1.4820312e-38 318 243
-0.0012045399 0.68699998 -0.0036136196 1.4728118e-38 319 243
0 0.68699998 -0.0036136196 1.5003624e-38 320 243
0.0012045399 0.68699998 -0.0036136196 1.491143e-38 321 243
0.0024125867 0.68800002 -0.0036188802 1.5094742e-38 322 243
0.0036293997 0.69 -0.0036293997 1.5186936e-38 323 243
0.0048462129 0.69099998 -0.0036346598 1.5005072e-38 324 243
0.0060577663 0.69099998 -0.0036346598 1.5097269e-38 325 243
0.0072903596 0.69300002 -0.0036451798 1.4915401e-38 326 243
0.0085054198 0.69300002 -0.0036451798 1.5099432e-38 327 243
0.0097345067 0.69400001 -0.0036504399 1.5008672e-38 328 243
0.010982879 0.69599998 -0.0036609597 1.5008672e-38 329 243
0.0122032 0.69599998 -0.0036609597 1.491649e-38 330 243
0.013442807 0.69700003 -0.00366622 1.5100881e-38 331 243
0.014727999 0.69999999 -0.0036819996 1.4086414e-38 332 243
0.016023712 0.70300001 -0.0036977797 1.4823979e-38 333 243
0.017329946 0.70599997 -0.0037135598 1.4656567e-38 334 243
0.018567799 0.70599997 -0.0037135598 1.696146e-38 335 243
-0.047865998 0.69999999 -0.0049093333 9.2173952e-39 281 244
-0.046638668 0.69999999 -0.0049093333 1.2055242e-38 282 244
-0.045476202 0.70099998 -0.0049163462 1.3069395e-38 283 244
-0.044183996 0.69999999 -0.0049093333 1.4083138e-38 284 244
-0.042956665 0.69999999 -0.0049093333 1.4083138e-38 285 244
-0.041610107 0.69800001 -0.0048953067 1.4543392e-38 286 244
-0.040328421 0.69700003 -0.0048882933 1.4451196e-38 287 244
-0.039106347 0.69700003 -0.0048882933 1.4819258e-38 288 244
-0.037721213 0.69400001 -0.0048672534 1.5003649e-38 289 244
-0.036451802 0.69300002 -0.00486024 1.5098e-38 290 244
-0.035236739 0.69300002 -0.00486024 1.5374227e-38 291 244
-0.034021679 0.69300002 -0.00486024 1.5190559e-38 292 244
-0.032711938 0.69099998 -0.0048462129 1.5098363e-38 293 244
-0.031500384 0.69099998 -0.0048462129 1.5373155e-38 294 244
-0.030244999 0.69 -0.0048391996 1.5280959e-38 295 244
-0.028951041 0.68800002 -0.0048251734 1.555682e-38 296 244
-0.027744746 0.68800002 -0.0048251734 1.5649016e-38 297 244
-0.026538454 0.68800002 -0.0048251734 1.5372782e-38 298 244
-0.02533216 0.68800002 -0.0048251734 1.5372782e-38 299 244
-0.024125867 0.68800002 -0.0048251734 1.5187662e-38 300 244
-0.022886258 0.68699998 -0.0048181596 1.5187662e-38 301 244
-0.021681719 0.68699998 -0.0048181596 1.5186946e-38 302 244
-0.020477179 0.68699998 -0.0048181596 1.5279142e-38 303 244
-0.019272638 0.68699998 -0.0048181596 1.5006152e-38 304 244
-0.0179892 0.68400002 -0.0047971201 1.5098348e-38 305 244
-0.016789921 0.68400002 -0.0047971201 1.5556076e-38 306 244
-0.01559064 0.68400002 -0.0047971201 1.5372044e-38 307 244
-0.01439136 0.68400002 -0.0047971201 1.5372764e-38 308 244
-0.01319208 0.68400002 -0.0047971201 1.5372764e-38 309 244
-0.011975267 0.68300003 -0.0047901068 1.5463163e-38 310 244
-0.01077774 0.68300003 -0.0047901068 1.5186578e-38 311 244
-0.0095802136 0.68300003 -0.0047901068 1.47274e-38 312 244
-0.0083826864 0.68300003 -0.0047901068 1.4911789e-38 313 244
-0.0071851597 0.68300003 -0.0047901068 1.4821747e-38 314 244
-0.0059964 0.68400002 -0.0047971201 1.4544805e-38 315 244
-0.0047971201 0.68400002 -0.0047971201 1.5002907e-38 316 244
-0.00359784 0.68400002 -0.0047971201 1.4910712e-38 317 244
-0.0024055731 0.68599999 -0.0048111463 1.491143e-38 318 244
-0.0012027866 0.68599999 -0.0048111463 1.47274e-38 319 244
0 0.68699998 -0.0048181596 1.4910712e-38 320 244
0.0012045399 0.68699998 -0.0048181596 1.5002907e-38 321 244
0.0024125867 0.68800002 -0.0048251734 1.5003265e-38 322 244
0.0036188802 0.68800002 -0.0048251734 1.509546e-38 323 244
0.0048391996 0.69 -0.0048391996 1.4820687e-38 324 244
0.0060577663 0.69099998 -0.0048462129 1.5096916e-38 325 244
0.0072693196 0.69099998 -0.0048462129 1.4731376e-38 326 244
0.0085054198 0.69300002 -0.00486024 1.4823571e-38 327 244
0.0097345067 0.69400001 -0.0048672534 1.4732452e-38 328 244
0.01095132 0.69400001 -0.0048672534 1.4732452e-38 329 244
0.012168133 0.69400001 -0.0048672534 1.4916487e-38 330 244
0.013442807 0.69700003 -0.0048882933 1.5008683e-38 331 244
0.01468592 0.69800001 -0.0048953067 1.4639203e-38 332 244
0.015978126 0.70099998 -0.0049163462 1.4639203e-38 333 244
0.017280852 0.704 -0.0049373866 1.280652e-38 334 244
0.018515198 0.704 -0.0049373866 1.6770932e-38 335 244
0.019749546 0.704 -0.0049373866 1.7701576e-38 336 244
-0.049163464 0.70099998 -0.0061454331 9.7651543e-39 280 245
-0.047865998 0.69999999 -0.0061366665 8.2903844e-39 281 245
-0.046638668 0.69999999 -0.0061366665 1.2794591e-38 282 245
-0.04541133 0.69999999 -0.0061366665 1.3255567e-38 283 245
-0.04405776 0.69800001 -0.006119133 1.3807271e-38 284 245
-0.042833932 0.69800001 -0.006119133 1.3899826e-38 285 245
-0.041610107 0.69800001 -0.006119133 1.4267531e-38 286 245
-0.040328421 0.69700003 -0.0061103669 1.4267531e-38 287 245
-0.038938027 0.69400001 -0.0060840664 1.4818905e-38 288 245
-0.037721213 0.69400001 -0.0060840664 1.5095493e-38 289 245
-0.036451802 0.69300002 -0.0060753003 1.4822505e-38 290 245
-0.035236739 0.69300002 -0.0060753003 1.4914701e-38 291 245
-0.034021679 0.69300002 -0.0060753003 1.4914701e-38 292 245
-0.032711938 0.69099998 -0.0060577663 1.4914701e-38 293 245
-0.031454802 0.69 -0.0060489997 1.5005814e-38 294 245
-0.030157333 0.68800002 -0.0060314666 1.5005814e-38 295 245
-0.028951041 0.68800002 -0.0060314666 1.5097291e-38 296 245
-0.027744746 0.68800002 -0.0060314666 1.5097291e-38 297 245
-0.026538454 0.68800002 -0.0060314666 1.4913253e-38 298 245
-0.025295338 0.68699998 -0.0060226996 1.4821057e-38 299 245
-0.024090799 0.68699998 -0.0060226996 1.5003281e-38 300 245
-0.022886258 0.68699998 -0.0060226996 1.481889e-38 301 245
-0.021650158 0.68599999 -0.0060139326 1.4910357e-38 302 245
-0.020447372 0.68599999 -0.0060139326 1.4726324e-38 303 245
-0.01918848 0.68400002 -0.0059964 1.4725975e-38 304 245
-0.017962901 0.68300003 -0.0059876335 1.5094397e-38 305 245
-0.016765373 0.68300003 -0.0059876335 1.4910385e-38 306 245
-0.015567848 0.68300003 -0.0059876335 1.4910385e-38 307 245
-0.014370319 0.68300003 -0.0059876335 1.4635237e-38 308 245
-0.013172794 0.68300003 -0.0059876335 1.4727432e-38 309 245
-0.011975267 0.68300003 -0.0059876335 1.4543394e-38 310 245
-0.01077774 0.68300003 -0.0059876335 1.4451199e-38 311 245
-0.009566186 0.68199998 -0.005978866 1.4268587e-38 312 245
-0.0083704125 0.68199998 -0.005978866 1.4452978e-38 313 245
-0.00717464 0.68199998 -0.005978866 1.4637358e-38 314 245
-0.005978866 0.68199998 -0.005978866 1.445297e-38 315 245
-0.0047901068 0.68300003 -0.0059876335 1.4634847e-38 316 245
-0.00359784 0.68400002 -0.0059964 1.4634847e-38 317 245
-0.0023985601 0.68400002 -0.0059964 1.4634489e-38 318 245
-0.0012027866 0.68599999 -0.0060139326 1.4910712e-38 319 245
0 0.68599999 -0.0060139326 1.4911071e-38 320 245
0.0012027866 0.68599999 -0.0060139326 1.4911071e-38 321 245
0.0024090798 0.68699998 -0.0060226996 1.4819594e-38 322 245
0.0036136196 0.68699998 -0.0060226996 1.5004342e-38 323 245
0.0048251734 0.68800002 -0.0060314666 1.4728855e-38 324 245
0.0060489997 0.69 -0.0060489997 1.4821052e-38 325 245
0.0072693196 0.69099998 -0.0060577663 1.463883e-38 326 245
0.008480873 0.69099998 -0.0060577663 1.4823221e-38 327 245
0.0097204801 0.69300002 -0.0060753003 1.4732458e-38 328 245
0.01095132 0.69400001 -0.0060840664 1.491649e-38 329 245
0.012168133 0.69400001 -0.0060840664 1.4549863e-38 330 245
0.013423519 0.69599998 -0.0061015999 1.4549863e-38 331 245
0.01468592 0.69800001 -0.006119133 1.4640625e-38 332 245
0.015978126 0.70099998 -0.0061454331 1.4640625e-38 333 245
0.017256306 0.70300001 -0.0061629666 1.1970975e-38 334 245
0.018488899 0.70300001 -0.0061629666 1.5566964e-38 335 245
0.019721493 0.70300001 -0.0061629666 1.7148034e-38 336 245
0.020954086 0.70300001 -0.0061629666 1.7701208e-38 337 245
-0.049163464 0.70099998 -0.0073745195 9.0207398e-39 280 246
-0.047865998 0.69999999 -0.0073639993 1.0311479e-38 281 246
-0.046638668 0.69999999 -0.0073639993 1.3347022e-38 282 246
-0.04541133 0.69999999 -0.0073639993 1.3439217e-38 283 246
-0.04405776 0.69800001 -0.0073429602 1.4082041e-38 284 246
-0.042833932 0.69800001 -0.0073429602 1.4174236e-38 285 246
-0.041490879 0.69599998 -0.0073219193 1.4358265e-38 286 246
-0.040154841 0.69400001 -0.0073008798 1.4358265e-38 287 246
-0.038938027 0.69400001 -0.0073008798 1.4543029e-38 288 246
-0.037666857 0.69300002 -0.0072903596 1.472706e-38 289 246
-0.036451802 0.69300002 -0.0072903596 1.4911098e-38 290 246
-0.035135046 0.69099998 -0.0072693196 1.5188045e-38 291 246
-0.033923492 0.69099998 -0.0072693196 1.5281678e-38 292 246
-0.032664597 0.69 -0.0072587994 1.5373874e-38 293 246
-0.031363625 0.68800002 -0.0072377604 1.4912897e-38 294 246
-0.030157333 0.68800002 -0.0072377604 1.4728504e-38 295 246
-0.028908957 0.68699998 -0.0072272392 1.4911454e-38 296 246
-0.027704418 0.68699998 -0.0072272392 1.4911454e-38 297 246
-0.026499879 0.68699998 -0.0072272392 1.4452625e-38 298 246
-0.025295338 0.68699998 -0.0072272392 1.4452625e-38 299 246
-0.024055731 0.68599999 -0.0072167199 1.4726324e-38 300 246
-0.022786319 0.68400002 -0.0071956799 1.4449741e-38 301 246
-0.02158704 0.68400002 -0.0071956799 1.4539783e-38 302 246
-0.020447372 0.68599999 -0.0072167199 1.4631977e-38 303 246
-0.019160427 0.68300003 -0.0071851597 1.4631977e-38 304 246
-0.017962901 0.68300003 -0.0071851597 1.4631977e-38 305 246
-0.016740825 0.68199998 -0.00717464 1.4815648e-38 306 246
-0.015545053 0.68199998 -0.00717464 1.5000396e-38 307 246
-0.01434928 0.68199998 -0.00717464 1.4541936e-38 308 246
-0.013153506 0.68199998 -0.00717464 1.463413e-38 309 246
-0.011957732 0.68199998 -0.00717464 1.4541936e-38 310 246
-0.010761959 0.68199998 -0.00717464 1.4541936e-38 311 246
-0.009566186 0.68199998 -0.00717464 1.4543012e-38 312 246
-0.0083704125 0.68199998 -0.00717464 1.4727759e-38 313 246
-0.00717464 0.68199998 -0.00717464 1.4543371e-38 314 246
-0.005978866 0.68199998 -0.00717464 1.4266788e-38 315 246
-0.0047901068 0.68300003 -0.0071851597 1.4541577e-38 316 246
-0.0035925799 0.68300003 -0.0071851597 1.4541577e-38 317 246
-0.0023950534 0.68300003 -0.0071851597 1.4542294e-38 318 246
-0.00119928 0.68400002 -0.0071956799 1.4911071e-38 319 246
0 0.68599999 -0.0072167199 1.47274e-38 320 246
0.0012027866 0.68599999 -0.0072167199 1.4912147e-38 321 246
0.0024090798 0.68699998 -0.0072272392 1.4819956e-38 322 246
0.0036136196 0.68699998 -0.0072272392 1.4912152e-38 323 246
0.0048251734 0.68800002 -0.0072377604 1.4728858e-38 324 246
0.0060314666 0.68800002 -0.0072377604 1.4821055e-38 325 246
0.0072587994 0.69 -0.0072587994 1.4730304e-38 326 246
0.0084686 0.69 -0.0072587994 1.4822499e-38 327 246
0.0096924258 0.69099998 -0.0072693196 1.4549512e-38 328 246
0.010935539 0.69300002 -0.0072903596 1.4733544e-38 329 246
0.012150601 0.69300002 -0.0072903596 1.4733188e-38 330 246
0.01336566 0.69300002 -0.0072903596 1.4456959e-38 331 246
0.01466488 0.69700003 -0.00733244 1.4548429e-38 332 246
0.015909746 0.69800001 -0.0073429602 1.4364398e-38 333 246
0.017207211 0.70099998 -0.0073745195 1.3164465e-38 334 246
0.018436298 0.70099998 -0.0073745195 1.53768e-38 335 246
0.019665385 0.70099998 -0.0073745195 1.5580693e-38 336 246
-0.050392549 0.70099998 -0.0086036054 1.0602866e-38 279 247
-0.049163464 0.70099998 -0.0086036054 9.5713772e-39 280 247
-0.047865998 0.69999999 -0.0085913334 1.0862116e-38 281 247
-0.046638668 0.69999999 -0.0085913334 1.3437413e-38 282 247
-0.04541133 0.69999999 -0.0085913334 1.352961e-38 283 247
-0.043994639 0.69700003 -0.0085545136 1.3805473e-38 284 247
-0.042711195 0.69599998 -0.0085422397 1.3897669e-38 285 247
-0.041371655 0.69400001 -0.0085176928 1.4080987e-38 286 247
-0.040154841 0.69400001 -0.0085176928 1.4080987e-38 287 247
-0.03888192 0.69300002 -0.0085054198 1.4173913e-38 288 247
-0.037666857 0.69300002 -0.0085054198 1.4450139e-38 289 247
-0.036346599 0.69099998 -0.008480873 1.4634889e-38 290 247
-0.035084199 0.69 -0.0084686 1.4819282e-38 291 247
-0.0338744 0.69 -0.0084686 1.482072e-38 292 247
-0.032569919 0.68800002 -0.0084440531 1.4636689e-38 293 247
-0.031363625 0.68800002 -0.0084440531 1.4452293e-38 294 247
-0.030157333 0.68800002 -0.0084440531 1.4360097e-38 295 247
-0.028908957 0.68699998 -0.0084317802 1.4359729e-38 296 247
-0.027704418 0.68699998 -0.0084317802 1.4451925e-38 297 247
-0.026499879 0.68699998 -0.0084317802 1.4360783e-38 298 247
-0.025258519 0.68599999 -0.0084195063 1.4083836e-38 299 247
-0.024055731 0.68599999 -0.0084195063 1.4358623e-38 300 247
-0.022786319 0.68400002 -0.0083949603 1.4082041e-38 301 247
-0.02158704 0.68400002 -0.0083949603 1.4264277e-38 302 247
-0.020387759 0.68400002 -0.0083949603 1.4264277e-38 303 247
-0.019160427 0.68300003 -0.0083826864 1.3805817e-38 304 247
-0.017936599 0.68199998 -0.0083704125 1.3898011e-38 305 247
-0.016740825 0.68199998 -0.0083704125 1.408025e-38 306 247
-0.015545053 0.68199998 -0.0083704125 1.4264281e-38 307 247
-0.01434928 0.68199998 -0.0083704125 1.4173164e-38 308 247
-0.013153506 0.68199998 -0.0083704125 1.4265719e-38 309 247
-0.011957732 0.68199998 -0.0083704125 1.4266788e-38 310 247
-0.010761959 0.68199998 -0.0083704125 1.4266788e-38 311 247
-0.009566186 0.68199998 -0.0083704125 1.4360058e-38 312 247
-0.0083704125 0.68199998 -0.0083704125 1.4083834e-38 313 247
-0.00717464 0.68199998 -0.0083704125 1.4267505e-38 314 247
-0.005978866 0.68199998 -0.0083704125 1.4082758e-38 315 247
-0.004783093 0.68199998 -0.0083704125 1.4175311e-38 316 247
-0.0035925799 0.68300003 -0.0083826864 1.4267505e-38 317 247
-0.0023950534 0.68300003 -0.0083826864 1.4359341e-38 318 247
-0.0011975267 0.68300003 -0.0083826864 1.4543729e-38 319 247
0 0.68599999 -0.0084195063 1.4452625e-38 320 247
0.0012027866 0.68599999 -0.0084195063 1.4452625e-38 321 247
0.0024090798 0.68699998 -0.0084317802 1.445335e-38 322 247
0.0036136196 0.68699998 -0.0084317802 1.4637742e-38 323 247
0.0048251734 0.68800002 -0.0084440531 1.4362247e-38 324 247
0.0060314666 0.68800002 -0.0084440531 1.4454443e-38 325 247
0.0072587994 0.69 -0.0084686 1.4271143e-38 326 247
0.0084686 0.69 -0.0084686 1.4639926e-38 327 247
0.0096924258 0.69099998 -0.008480873 1.4366213e-38 328 247
0.01090398 0.69099998 -0.008480873 1.4550244e-38 329 247
0.012115533 0.69099998 -0.008480873 1.4457683e-38 330 247
0.01336566 0.69300002 -0.0085054198 1.4365485e-38 331 247
0.01466488 0.69700003 -0.0085545136 1.4181449e-38 332 247
0.015909746 0.69800001 -0.0085667865 1.3997057e-38 333 247
0.017182667 0.69999999 -0.0085913334 1.3165171e-38 334 247
0.018436298 0.70099998 -0.0086036054 1.4178963e-38 335 247
0.019665385 0.70099998 -0.0086036054 1.4103022e-38 336 247
-0.050392549 0.70099998 -0.0098326923 7.8351824e-39 279 248
-0.049163464 0.70099998 -0.0098326923 1.0860666e-38 280 248
-0.047865998 0.69999999 -0.0098186666 1.1690426e-38 281 248
-0.046638668 0.69999999 -0.0098186666 1.3069359e-38 282 248
-0.04541133 0.69999999 -0.0098186666 1.3161554e-38 283 248
-0.043994639 0.69700003 -0.0097765867 1.3895151e-38 284 248
-0.042711195 0.69599998 -0.0097625591 1.3895151e-38 285 248
-0.041371655 0.69400001 -0.0097345067 1.3895507e-38 286 248
-0.04009698 0.69300002 -0.0097204801 1.3895507e-38 287 248
-0.03888192 0.69300002 -0.0097204801 1.4263931e-38 288 248
-0.03755815 0.69099998 -0.0096924258 1.4356126e-38 289 248
-0.036346599 0.69099998 -0.0096924258 1.4541224e-38 290 248
-0.035084199 0.69 -0.0096783992 1.4541224e-38 291 248
-0.0338744 0.69 -0.0096783992 1.4633775e-38 292 248
-0.032569919 0.68800002 -0.0096503468 1.4633775e-38 293 248
-0.031363625 0.68800002 -0.0096503468 1.4448675e-38 294 248
-0.030157333 0.68800002 -0.0096503468 1.4448675e-38 295 248
-0.028908957 0.68699998 -0.0096363192 1.4357914e-38 296 248
-0.027704418 0.68699998 -0.0096363192 1.4541945e-38 297 248
-0.026499879 0.68699998 -0.0096363192 1.426894e-38 298 248
-0.025258519 0.68599999 -0.0096222926 1.4084193e-38 299 248
-0.024055731 0.68599999 -0.0096222926 1.4357906e-38 300 248
-0.022786319 0.68400002 -0.0095942402 1.4081323e-38 301 248
-0.02155548 0.68300003 -0.0095802136 1.3896935e-38 302 248
-0.020357953 0.68300003 -0.0095802136 1.3989129e-38 303 248
-0.019132372 0.68199998 -0.009566186 1.4080247e-38 304 248
-0.017936599 0.68199998 -0.009566186 1.4080247e-38 305 248
-0.016691733 0.68000001 -0.0095381327 1.4080247e-38 306 248
-0.015499466 0.68000001 -0.0095381327 1.4172441e-38 307 248
-0.014307199 0.68000001 -0.0095381327 1.4264994e-38 308 248
-0.013114933 0.68000001 -0.0095381327 1.4264994e-38 309 248
-0.011922667 0.68000001 -0.0095381327 1.4175311e-38 310 248
-0.0107304 0.68000001 -0.0095381327 1.4175311e-38 311 248
-0.0095381327 0.68000001 -0.0095381327 1.4174952e-38 312 248
-0.0083458666 0.68000001 -0.0095381327 1.3898728e-38 313 248
-0.0071535995 0.68000001 -0.0095381327 1.4082041e-38 314 248
-0.0059613334 0.68000001 -0.0095381327 1.4082041e-38 315 248
-0.0047690663 0.68000001 -0.0095381327 1.3899446e-38 316 248
-0.00358732 0.68199998 -0.009566186 1.3899446e-38 317 248
-0.0023915465 0.68199998 -0.009566186 1.4174594e-38 318 248
-0.0011957732 0.68199998 -0.009566186 1.4543729e-38 319 248
0 0.68300003 -0.0095802136 1.4268237e-38 320 248
0.0012027866 0.68599999 -0.0096222926 1.4452628e-38 321 248
0.0024090798 0.68699998 -0.0096363192 1.4177483e-38 322 248
0.0036136196 0.68699998 -0.0096363192 1.4269679e-38 323 248
0.0048251734 0.68800002 -0.0096503468 1.445336e-38 324 248
0.0060314666 0.68800002 -0.0096503468 1.4545557e-38 325 248
0.0072377604 0.68800002 -0.0096503468 1.4179298e-38 326 248
0.0084686 0.69 -0.0096783992 1.4271493e-38 327 248
0.0096783992 0.69 -0.0096783992 1.4181101e-38 328 248
0.01090398 0.69099998 -0.0096924258 1.4365132e-38 329 248
0.012115533 0.69099998 -0.0096924258 1.4273664e-38 330 248
0.013327086 0.69099998 -0.0096924258 1.4273664e-38 331 248
0.014643839 0.69599998 -0.0097625591 1.4181814e-38 332 248
0.015909746 0.69800001 -0.0097906133 1.3721196e-38 333 248
0.017182667 0.69999999 -0.0098186666 1.3811237e-38 334 248
0.018436298 0.70099998 -0.0098326923 1.3626846e-38 335 248
0.019721493 0.70300001 -0.0098607466 1.2991983e-38 336 248
0.020954086 0.70300001 -0.0098607466 1.7509569e-38 337 248
-0.053076904 0.704 -0.011109119 1.6134977e-38 277 249
-0.050392549 0.70099998 -0.011061779 6.4525955e-39 279 249
-0.049163464 0.70099998 -0.011061779 1.1781528e-38 280 249
-0.047934376 0.70099998 -0.011061779 1.2242504e-38 281 249
-0.046638668 0.69999999 -0.011045999 1.306864e-38 282 249
-0.045281585 0.69800001 -0.01101444 1.306864e-38 283 249
-0.043994639 0.69700003 -0.01099866 1.3527091e-38 284 249
-0.042711195 0.69599998 -0.010982879 1.3527091e-38 285 249
-0.041371655 0.69400001 -0.01095132 1.3710757e-38 286 249
-0.04009698 0.69300002 -0.010935539 1.3710757e-38 287 249
-0.03888192 0.69300002 -0.010935539 1.3712555e-38 288 249
-0.03755815 0.69099998 -0.01090398 1.380511e-38 289 249
-0.036293998 0.69 -0.010888199 1.4081323e-38 290 249
-0.035084199 0.69 -0.010888199 1.4081323e-38 291 249
-0.033776212 0.68800002 -0.010856641 1.435683e-38 292 249
-0.032569919 0.68800002 -0.010856641 1.435683e-38 293 249
-0.031318039 0.68699998 -0.010840859 1.3988423e-38 294 249
-0.030113498 0.68699998 -0.010840859 1.3896226e-38 295 249
-0.028908957 0.68699998 -0.010840859 1.3988423e-38 296 249
-0.027704418 0.68699998 -0.010840859 1.4080618e-38 297 249
-0.026499879 0.68699998 -0.010840859 1.4081688e-38 298 249
-0.025184879 0.68400002 -0.01079352 1.3805461e-38 299 249
-0.0239856 0.68400002 -0.01079352 1.3989488e-38 300 249
-0.022753006 0.68300003 -0.01077774 1.3897293e-38 301 249
-0.02155548 0.68300003 -0.01077774 1.3713264e-38 302 249
-0.020357953 0.68300003 -0.01077774 1.3713264e-38 303 249
-0.019132372 0.68199998 -0.010761959 1.3621069e-38 304 249
-0.017883999 0.68000001 -0.0107304 1.3713264e-38 305 249
-0.016691733 0.68000001 -0.0107304 1.3897652e-38 306 249
-0.015499466 0.68000001 -0.0107304 1.3897652e-38 307 249
-0.014307199 0.68000001 -0.0107304 1.3897652e-38 308 249
-0.013114933 0.68000001 -0.0107304 1.4082041e-38 309 249
-0.011922667 0.68000001 -0.0107304 1.3716134e-38 310 249
-0.0107304 0.68000001 -0.0107304 1.3623581e-38 311 249
-0.0095381327 0.68000001 -0.0107304 1.3806175e-38 312 249
-0.0083458666 0.68000001 -0.0107304 1.3806175e-38 313 249
-0.0071535995 0.68000001 -0.0107304 1.3897293e-38 314 249
-0.0059613334 0.68000001 -0.0107304 1.3897293e-38 315 249
-0.0047690663 0.68000001 -0.0107304 1.3714699e-38 316 249
-0.0035767998 0.68000001 -0.0107304 1.3806893e-38 317 249
-0.0023915465 0.68199998 -0.010761959 1.3990927e-38 318 249
-0.0011957732 0.68199998 -0.010761959 1.4359351e-38 319 249
0 0.68300003 -0.01077774 1.4176407e-38 320 249
0.00119928 0.68400002 -0.01079352 1.4268603e-38 321 249
0.0024055731 0.68599999 -0.010825079 1.399346e-38 322 249
0.0036136196 0.68699998 -0.010840859 1.4177852e-38 323 249
0.0048181596 0.68699998 -0.010840859 1.427005e-38 324 249
0.0060226996 0.68699998 -0.010840859 1.427005e-38 325 249
0.0072377604 0.68800002 -0.010856641 1.4087824e-38 326 249
0.0084440531 0.68800002 -0.010856641 1.4180019e-38 327 249
0.0096783992 0.69 -0.010888199 1.3997076e-38 328 249
0.01090398 0.69099998 -0.01090398 1.4181468e-38 329 249
0.012115533 0.69099998 -0.01090398 1.4181468e-38 330 249
0.013327086 0.69099998 -0.01090398 1.4181468e-38 331 249
0.014643839 0.69599998 -0.010982879 1.3997426e-38 332 249
0.015886955 0.69700003 -0.01099866 1.390523e-38 333 249
0.017133573 0.69800001 -0.01101444 1.3721194e-38 334 249
0.018409999 0.69999999 -0.011045999 1.2891432e-38 335 249
0.019721493 0.70300001 -0.01109334 1.2064975e-38 336 249
0.020954086 0.70300001 -0.01109334 1.7135376e-38 337 249
-0.054465543 0.70599997 -0.012378532 1.6780343e-38 276 250
-0.051842559 0.704 -0.012343466 8.9368202e-39 278 250
-0.050392549 0.70099998 -0.012290866 7.3694945e-39 279 250
-0.049163464 0.70099998 -0.012290866 1.251835e-38 280 250
-0.047934376 0.70099998 -0.012290866 1.251835e-38 281 250
-0.046638668 0.69999999 -0.012273333 1.3160107e-38 282 250
-0.045281585 0.69800001 -0.012238266 1.3160107e-38 283 250
-0.043994639 0.69700003 -0.012220734 1.3434887e-38 284 250
-0.042711195 0.69599998 -0.0122032 1.3342693e-38 285 250
-0.041371655 0.69400001 -0.012168133 1.3435246e-38 286 250
-0.04009698 0.69300002 -0.012150601 1.3435246e-38 287 250
-0.03888192 0.69300002 -0.012150601 1.3528158e-38 288 250
-0.03755815 0.69099998 -0.012115533 1.3620352e-38 289 250
-0.036293998 0.69 -0.012097999 1.3621069e-38 290 250
-0.035084199 0.69 -0.012097999 1.3713264e-38 291 250
-0.033776212 0.68800002 -0.012062933 1.3987335e-38 292 250
-0.032569919 0.68800002 -0.012062933 1.3987335e-38 293 250
-0.031318039 0.68699998 -0.012045399 1.3711829e-38 294 250
-0.030113498 0.68699998 -0.012045399 1.3619635e-38 295 250
-0.02886688 0.68599999 -0.012027865 1.35278e-38 296 250
-0.027664091 0.68599999 -0.012027865 1.35278e-38 297 250
-0.02638416 0.68400002 -0.0119928 1.361964e-38 298 250
-0.025184879 0.68400002 -0.0119928 1.361964e-38 299 250
-0.0239856 0.68400002 -0.0119928 1.3529234e-38 300 250
-0.022753006 0.68300003 -0.011975267 1.3529234e-38 301 250
-0.02155548 0.68300003 -0.011975267 1.3438475e-38 302 250
-0.020357953 0.68300003 -0.011975267 1.3530669e-38 303 250
-0.019076265 0.68000001 -0.011922667 1.3621787e-38 304 250
-0.017883999 0.68000001 -0.011922667 1.3621787e-38 305 250
-0.016691733 0.68000001 -0.011922667 1.3621787e-38 306 250
-0.015499466 0.68000001 -0.011922667 1.3621787e-38 307 250
-0.014307199 0.68000001 -0.011922667 1.3621787e-38 308 250
-0.013114933 0.68000001 -0.011922667 1.3806534e-38 309 250
-0.011922667 0.68000001 -0.011922667 1.3714699e-38 310 250
-0.0107304 0.68000001 -0.011922667 1.3530669e-38 311 250
-0.0095381327 0.68000001 -0.011922667 1.3713981e-38 312 250
-0.0083458666 0.68000001 -0.011922667 1.3529234e-38 313 250
-0.0071535995 0.68000001 -0.011922667 1.3438116e-38 314 250
-0.0059613334 0.68000001 -0.011922667 1.3438116e-38 315 250
-0.0047690663 0.68000001 -0.011922667 1.3621428e-38 316 250
-0.0035767998 0.68000001 -0.011922667 1.389837e-38 317 250
-0.0023915465 0.68199998 -0.011957732 1.371506e-38 318 250
-0.0011957732 0.68199998 -0.011957732 1.4176038e-38 319 250
0 0.68300003 -0.011975267 1.4176404e-38 320 250
0.00119928 0.68400002 -0.0119928 1.42686e-38 321 250
0.0024055731 0.68599999 -0.012027865 1.3993458e-38 322 250
0.0036136196 0.68699998 -0.012045399 1.4085653e-38 323 250
0.0048181596 0.68699998 -0.012045399 1.3902707e-38 324 250
0.0060226996 0.68699998 -0.012045399 1.4087458e-38 325 250
0.0072272392 0.68699998 -0.012045399 1.4087102e-38 326 250
0.0084440531 0.68800002 -0.012062933 1.4179298e-38 327 250
0.0096783992 0.69 -0.012097999 1.4088552e-38 328 250
0.01090398 0.69099998 -0.012115533 1.4180748e-38 329 250
0.012115533 0.69099998 -0.012115533 1.3997803e-38 330 250
0.013327086 0.69099998 -0.012115533 1.3997803e-38 331 250
0.014580719 0.69300002 -0.012150601 1.3813755e-38 332 250
0.015864158 0.69599998 -0.0122032 1.3629364e-38 333 250
0.017109027 0.69700003 -0.012220734 1.3629001e-38 334 250
0.018331099 0.69700003 -0.012220734 1.2983631e-38 335 250
0.019553173 0.69700003 -0.012220734 1.1967742e-38 336 250
0.020775247 0.69700003 -0.012220734 1.6485328e-38 337 250
-0.055703394 0.70599997 -0.013616386 1.7610463e-38 275 251
-0.054465543 0.70599997 -0.013616386 1.6411193e-38 276 251
-0.053227689 0.70599997 -0.013616386 1.355313e-38 277 251
-0.051842559 0.704 -0.013577812 1.0037764e-38 278 251
-0.050536323 0.70300001 -0.013558527 9.0232523e-39 279 251
-0.049303733 0.70300001 -0.013558527 1.2610901e-38 280 251
-0.047934376 0.70099998 -0.013519952 1.2426151e-38 281 251
-0.046638668 0.69999999 -0.013500666 1.3159388e-38 282 251
-0.045216713 0.69700003 -0.013442807 1.3159388e-38 283 251
-0.043931518 0.69599998 -0.013423519 1.3250858e-38 284 251
-0.042588469 0.69400001 -0.013384946 1.3066828e-38 285 251
-0.041312039 0.69300002 -0.01336566 1.3250858e-38 286 251
-0.04009698 0.69300002 -0.01336566 1.3343052e-38 287 251
-0.038769703 0.69099998 -0.013327086 1.3619635e-38 288 251
-0.03755815 0.69099998 -0.013327086 1.3619635e-38 289 251
-0.0361888 0.68800002 -0.013269227 1.3528158e-38 290 251
-0.03498251 0.68800002 -0.013269227 1.3528158e-38 291 251
-0.033776212 0.68800002 -0.013269227 1.371147e-38 292 251
-0.032522578 0.68699998 -0.013249939 1.371147e-38 293 251
-0.031318039 0.68699998 -0.013249939 1.3435246e-38 294 251
-0.030113498 0.68699998 -0.013249939 1.3435246e-38 295 251
-0.02878272 0.68400002 -0.01319208 1.3343411e-38 296 251
-0.027583439 0.68400002 -0.01319208 1.3251216e-38 297 251
-0.02638416 0.68400002 -0.01319208 1.3343411e-38 298 251
-0.025184879 0.68400002 -0.01319208 1.3343411e-38 299 251
-0.023950534 0.68300003 -0.013172794 1.3436681e-38 300 251
-0.022753006 0.68300003 -0.013172794 1.3436681e-38 301 251
-0.02155548 0.68300003 -0.013172794 1.3529593e-38 302 251
-0.020328145 0.68199998 -0.013153506 1.3529593e-38 303 251
-0.019076265 0.68000001 -0.013114933 1.3528875e-38 304 251
-0.017883999 0.68000001 -0.013114933 1.3621069e-38 305 251
-0.016691733 0.68000001 -0.013114933 1.3529593e-38 306 251
-0.015499466 0.68000001 -0.013114933 1.3529593e-38 307 251
-0.014307199 0.68000001 -0.013114933 1.3621069e-38 308 251
-0.013114933 0.68000001 -0.013114933 1.3713264e-38 309 251
-0.011922667 0.68000001 -0.013114933 1.3530669e-38 310 251
-0.0107304 0.68000001 -0.013114933 1.3345922e-38 311 251
-0.0095381327 0.68000001 -0.013114933 1.3529234e-38 312 251
-0.0083458666 0.68000001 -0.013114933 1.343704e-38 313 251
-0.0071535995 0.68000001 -0.013114933 1.3529234e-38 314 251
-0.0059613334 0.68000001 -0.013114933 1.3529234e-38 315 251
-0.0047690663 0.68000001 -0.013114933 1.3345922e-38 316 251
-0.0035767998 0.68000001 -0.013114933 1.3714699e-38 317 251
-0.0023915465 0.68199998 -0.013153506 1.3899087e-38 318 251
-0.0011957732 0.68199998 -0.013153506 1.417567e-38 319 251
0 0.68199998 -0.013153506 1.4083841e-38 320 251
0.0011975267 0.68300003 -0.013172794 1.4268234e-38 321 251
0.0023985601 0.68400002 -0.01319208 1.3993458e-38 322 251
0.00360836 0.68599999 -0.013230653 1.3993458e-38 323 251
0.0048181596 0.68699998 -0.013249939 1.3810511e-38 324 251
0.0060226996 0.68699998 -0.013249939 1.3994902e-38 325 251
0.0072272392 0.68699998 -0.013249939 1.3994908e-38 326 251
0.0084440531 0.68800002 -0.013269227 1.4087105e-38 327 251
0.0096783992 0.69 -0.0133078 1.3996357e-38 328 251
0.01090398 0.69099998 -0.013327086 1.4088552e-38 329 251
0.012115533 0.69099998 -0.013327086 1.3996723e-38 330 251
0.013327086 0.69099998 -0.013327086 1.3996723e-38 331 251
0.014580719 0.69300002 -0.01336566 1.3814111e-38 332 251
0.015818574 0.69400001 -0.013384946 1.3353133e-38 333 251
0.017035386 0.69400001 -0.013384946 1.3536079e-38 334 251
0.0182522 0.69400001 -0.013384946 1.3074741e-38 335 251
0.019469013 0.69400001 -0.013384946 1.2517665e-38 336 251
-0.056941248 0.70599997 -0.014854239 1.7241321e-38 274 252
-0.055703394 0.70599997 -0.014854239 1.770266e-38 275 252
-0.054465543 0.70599997 -0.014854239 1.6226075e-38 276 252
-0.053076904 0.704 -0.014812159 1.2353858e-38 277 252
-0.051842559 0.704 -0.014812159 1.0679887e-38 278 252
-0.050608214 0.704 -0.014812159 1.0311104e-38 279 252
-0.049303733 0.70300001 -0.014791119 1.2700943e-38 280 252
-0.047934376 0.70099998 -0.014749039 1.2608748e-38 281 252
-0.046505414 0.69800001 -0.01468592 1.2883524e-38 282 252
-0.045216713 0.69700003 -0.01466488 1.3067555e-38 283 252
-0.043931518 0.69599998 -0.014643839 1.3066828e-38 284 252
-0.042588469 0.69400001 -0.01460176 1.2974634e-38 285 252
-0.041312039 0.69300002 -0.014580719 1.3158305e-38 286 252
-0.04009698 0.69300002 -0.014580719 1.3250499e-38 287 252
-0.038769703 0.69099998 -0.014538639 1.3251575e-38 288 252
-0.03755815 0.69099998 -0.014538639 1.3343769e-38 289 252
-0.0361888 0.68800002 -0.014475521 1.3435964e-38 290 252
-0.03498251 0.68800002 -0.014475521 1.3528158e-38 291 252
-0.033727121 0.68699998 -0.014454478 1.3435964e-38 292 252
-0.032522578 0.68699998 -0.014454478 1.3343411e-38 293 252
-0.031318039 0.68699998 -0.014454478 1.3343052e-38 294 252
-0.029982001 0.68400002 -0.01439136 1.3343052e-38 295 252
-0.02878272 0.68400002 -0.01439136 1.3067187e-38 296 252
-0.027583439 0.68400002 -0.01439136 1.3067187e-38 297 252
-0.026345588 0.68300003 -0.014370319 1.3067904e-38 298 252
-0.02514806 0.68300003 -0.014370319 1.3067904e-38 299 252
-0.023950534 0.68300003 -0.014370319 1.3160816e-38 300 252
-0.022753006 0.68300003 -0.014370319 1.3160816e-38 301 252
-0.02155548 0.68300003 -0.014370319 1.3070057e-38 302 252
-0.020328145 0.68199998 -0.01434928 1.3070057e-38 303 252
-0.019076265 0.68000001 -0.014307199 1.3253728e-38 304 252
-0.017883999 0.68000001 -0.014307199 1.3253728e-38 305 252
-0.016691733 0.68000001 -0.014307199 1.3345922e-38 306 252
-0.015499466 0.68000001 -0.014307199 1.3345922e-38 307 252
-0.014307199 0.68000001 -0.014307199 1.334628e-38 308 252
-0.013114933 0.68000001 -0.014307199 1.3438475e-38 309 252
-0.011922667 0.68000001 -0.014307199 1.3345922e-38 310 252
-0.0107304 0.68000001 -0.014307199 1.3253728e-38 311 252
-0.009524107 0.67900002 -0.01428616 1.3253728e-38 312 252
-0.0083335936 0.67900002 -0.01428616 1.3253728e-38 313 252
-0.0071430802 0.67900002 -0.01428616 1.3253728e-38 314 252
-0.0059613334 0.68000001 -0.014307199 1.3253728e-38 315 252
-0.0047690663 0.68000001 -0.014307199 1.3070057e-38 316 252
-0.0035767998 0.68000001 -0.014307199 1.3438475e-38 317 252
-0.0023845332 0.68000001 -0.014307199 1.3531035e-38 318 252
-0.0011957732 0.68199998 -0.01434928 1.380798e-38 319 252
0 0.68199998 -0.01434928 1.380799e-38 320 252
0.0011975267 0.68300003 -0.014370319 1.3900187e-38 321 252
0.0023985601 0.68400002 -0.01439136 1.3533931e-38 322 252
0.00360836 0.68599999 -0.01443344 1.3626127e-38 323 252
0.0048181596 0.68699998 -0.014454478 1.3626495e-38 324 252
0.0060226996 0.68699998 -0.014454478 1.3626495e-38 325 252
0.0072272392 0.68699998 -0.014454478 1.3718341e-38 326 252
0.0084440531 0.68800002 -0.014475521 1.3810538e-38 327 252
0.0096503468 0.68800002 -0.014475521 1.3627591e-38 328 252
0.01090398 0.69099998 -0.014538639 1.3719787e-38 329 252
0.012115533 0.69099998 -0.014538639 1.3628313e-38 330 252
0.013327086 0.69099998 -0.014538639 1.3628313e-38 331 252
0.014580719 0.69300002 -0.014580719 1.335315e-38 332 252
0.015818574 0.69400001 -0.01460176 1.3168757e-38 333 252
0.017035386 0.69400001 -0.01460176 1.3351335e-38 334 252
0.0182522 0.69400001 -0.01460176 1.3166944e-38 335 252
0.019469013 0.69400001 -0.01460176 1.2977918e-38 336 252
0.020805053 0.69800001 -0.01468592 1.6389515e-38 337 252
-0.056941248 0.70599997 -0.016092092 1.7241321e-38 274 253
-0.055703394 0.70599997 -0.016092092 1.7886691e-38 275 253
-0.054311249 0.704 -0.016046507 1.5949844e-38 276 253
-0.053076904 0.704 -0.016046507 1.1340062e-38 277 253
-0.051842559 0.704 -0.016046507 1.0954676e-38 278 253
-0.050536323 0.70300001 -0.016023712 1.104723e-38 279 253
-0.049303733 0.70300001 -0.016023712 1.2700943e-38 280 253
-0.047865998 0.69999999 -0.015955333 1.2424355e-38 281 253
-0.046505414 0.69800001 -0.015909746 1.3066116e-38 282 253
-0.045216713 0.69700003 -0.015886955 1.3250507e-38 283 253
-0.043931518 0.69599998 -0.015864158 1.3250499e-38 284 253
-0.042588469 0.69400001 -0.015818574 1.3158305e-38 285 253
-0.041371655 0.69400001 -0.015818574 1.3157946e-38 286 253
-0.04009698 0.69300002 -0.015795778 1.3157946e-38 287 253
-0.038769703 0.69099998 -0.015750192 1.3158663e-38 288 253
-0.03755815 0.69099998 -0.015750192 1.3343052e-38 289 253
-0.036293998 0.69 -0.015727401 1.3526723e-38 290 253
-0.03498251 0.68800002 -0.015681813 1.3618917e-38 291 253
-0.033727121 0.68699998 -0.015659019 1.3343411e-38 292 253
-0.032522578 0.68699998 -0.015659019 1.3343411e-38 293 253
-0.031272452 0.68599999 -0.015636226 1.3250858e-38 294 253
-0.029982001 0.68400002 -0.01559064 1.3343411e-38 295 253
-0.028740639 0.68300003 -0.015567848 1.3158663e-38 296 253
-0.027543113 0.68300003 -0.015567848 1.3066469e-38 297 253
-0.026345588 0.68300003 -0.015567848 1.2975351e-38 298 253
-0.02514806 0.68300003 -0.015567848 1.3067545e-38 299 253
-0.023950534 0.68300003 -0.015567848 1.306898e-38 300 253
-0.022753006 0.68300003 -0.015567848 1.3161175e-38 301 253
-0.02155548 0.68300003 -0.015567848 1.3161175e-38 302 253
-0.020328145 0.68199998 -0.015545053 1.3253728e-38 303 253
-0.019076265 0.68000001 -0.015499466 1.3254086e-38 304 253
-0.017883999 0.68000001 -0.015499466 1.334628e-38 305 253
-0.016691733 0.68000001 -0.015499466 1.3071133e-38 306 253
-0.015499466 0.68000001 -0.015499466 1.3163327e-38 307 253
-0.014307199 0.68000001 -0.015499466 1.3254445e-38 308 253
-0.013114933 0.68000001 -0.015499466 1.3070415e-38 309 253
-0.011922667 0.68000001 -0.015499466 1.3253728e-38 310 253
-0.0107304 0.68000001 -0.015499466 1.3253728e-38 311 253
-0.009524107 0.67900002 -0.015476674 1.3253728e-38 312 253
-0.0083335936 0.67900002 -0.015476674 1.3161533e-38 313 253
-0.0071430802 0.67900002 -0.015476674 1.3161533e-38 314 253
-0.0059613334 0.68000001 -0.015499466 1.3253728e-38 315 253
-0.0047690663 0.68000001 -0.015499466 1.3253728e-38 316 253
-0.0035767998 0.68000001 -0.015499466 1.3438116e-38 317 253
-0.0023845332 0.68000001 -0.015499466 1.3438475e-38 318 253
-0.0011957732 0.68199998 -0.015545053 1.371506e-38 319 253
0 0.68199998 -0.015545053 1.3622511e-38 320 253
0.0011975267 0.68300003 -0.015567848 1.3991293e-38 321 253
0.0023985601 0.68400002 -0.01559064 1.371688e-38 322 253
0.00360836 0.68599999 -0.015636226 1.3809076e-38 323 253
0.0048181596 0.68699998 -0.015659019 1.3625776e-38 324 253
0.0060226996 0.68699998 -0.015659019 1.3625776e-38 325 253
0.0072272392 0.68699998 -0.015659019 1.380981e-38 326 253
0.0084317802 0.68699998 -0.015659019 1.380981e-38 327 253
0.0096503468 0.68800002 -0.015681813 1.3535379e-38 328 253
0.01090398 0.69099998 -0.015750192 1.3535379e-38 329 253
0.012115533 0.69099998 -0.015750192 1.3536096e-38 330 253
0.013327086 0.69099998 -0.015750192 1.3443899e-38 331 253
0.014580719 0.69300002 -0.015795778 1.353465e-38 332 253
0.015818574 0.69400001 -0.015818574 1.3258423e-38 333 253
