# .PCD v.7 - Point Cloud Data file format
FIELDS x y z rgb imX imY
SIZE 4 4 4 4 4 4
TYPE F F F F F F
COUNT 1 1 1 1 1 1
WIDTH 858
HEIGHT 1
VIEWPOINT 0 0 0 1 0 0 0
POINTS 858
DATA ascii
0.0027036399 0.77100003 0.02568458 1.481748e-38 322 221
0.0040659797 0.773 0.025751207 1.4909676e-38 323 221
-0.028388219 0.77100003 0.02433276 1.5478025e-38 299 222
-0.027036399 0.77100003 0.02433276 1.7583722e-38 300 222
-0.02568458 0.77100003 0.02433276 1.7399329e-38 301 222
-0.02433276 0.77100003 0.02433276 1.8043234e-38 302 222
-0.02298094 0.77100003 0.02433276 1.8227627e-38 303 222
-0.021629119 0.77100003 0.02433276 1.8135784e-38 304 222
-0.020277301 0.77100003 0.02433276 1.8043228e-38 305 222
-0.018974574 0.773 0.024395877 1.8043937e-38 306 222
-0.017619247 0.773 0.024395877 1.8043937e-38 307 222
-0.016263919 0.773 0.024395877 1.7952462e-38 308 222
-0.014908593 0.773 0.024395877 1.7860266e-38 309 222
-0.013518199 0.77100003 0.02433276 1.7768437e-38 310 222
-0.01216638 0.77100003 0.02433276 1.7768437e-38 311 222
-0.01081456 0.77100003 0.02433276 1.7675174e-38 312 222
-0.0094627403 0.77100003 0.02433276 1.7675174e-38 313 222
-0.0080898795 0.76899999 0.024269639 1.7399664e-38 314 222
-0.0067415666 0.76899999 0.024269639 1.7214914e-38 315 222
-0.0053932532 0.76899999 0.024269639 1.7030155e-38 316 222
-0.0040449398 0.76899999 0.024269639 1.6384786e-38 317 222
-0.0026966266 0.76899999 0.024269639 1.6200042e-38 318 222
-0.0013483133 0.76899999 0.024269639 1.5923455e-38 319 222
0 0.76899999 0.024269639 1.6014577e-38 320 222
0.0013483133 0.76899999 0.024269639 1.5830546e-38 321 222
0.0027036399 0.77100003 0.02433276 1.5830558e-38 322 222
0.0040554604 0.77100003 0.02433276 1.5922755e-38 323 222
0.0054072798 0.77100003 0.02433276 1.5279555e-38 324 222
0.0067766332 0.773 0.024395877 1.4726381e-38 325 222
0.0081319595 0.773 0.024395877 1.334997e-38 326 222
-0.032359518 0.76899999 0.022921326 1.8892522e-38 296 223
-0.031011207 0.76899999 0.022921326 1.6956413e-38 297 223
-0.029740039 0.77100003 0.02298094 1.8050463e-38 298 223
-0.028388219 0.77100003 0.02298094 1.6298746e-38 299 223
-0.027036399 0.77100003 0.02298094 1.7675169e-38 300 223
-0.02568458 0.77100003 0.02298094 1.7859919e-38 301 223
-0.02433276 0.77100003 0.02298094 1.7952119e-38 302 223
-0.02298094 0.77100003 0.02298094 1.7952119e-38 303 223
-0.021629119 0.77100003 0.02298094 1.813578e-38 304 223
-0.020277301 0.77100003 0.02298094 1.813578e-38 305 223
-0.018925481 0.77100003 0.02298094 1.8228327e-38 306 223
-0.01757366 0.77100003 0.02298094 1.8228327e-38 307 223
-0.016221842 0.77100003 0.02298094 1.8045734e-38 308 223
-0.01487002 0.77100003 0.02298094 1.8045734e-38 309 223
-0.013518199 0.77100003 0.02298094 1.7860636e-38 310 223
-0.01216638 0.77100003 0.02298094 1.7768439e-38 311 223
-0.01081456 0.77100003 0.02298094 1.7950682e-38 312 223
-0.0094381925 0.76899999 0.022921326 1.7950682e-38 313 223
-0.0080898795 0.76899999 0.022921326 1.7492213e-38 314 223
-0.0067415666 0.76899999 0.022921326 1.7215267e-38 315 223
-0.0053932532 0.76899999 0.022921326 1.7122704e-38 316 223
-0.0040449398 0.76899999 0.022921326 1.656953e-38 317 223
-0.0026966266 0.76899999 0.022921326 1.6016729e-38 318 223
-0.0013483133 0.76899999 0.022921326 1.5831978e-38 319 223
0 0.76899999 0.022921326 1.583163e-38 320 223
0.0013483133 0.76899999 0.022921326 1.5647599e-38 321 223
0.0026966266 0.76899999 0.022921326 1.5555767e-38 322 223
0.0040554604 0.77100003 0.02298094 1.5555767e-38 323 223
0.0054072798 0.77100003 0.02298094 1.518806e-38 324 223
0.0067590997 0.77100003 0.02298094 1.4634887e-38 325 223
0.0081109209 0.77100003 0.02298094 1.3990966e-38 326 223
0.0094872871 0.773 0.023040552 1.4174997e-38 327 223
-0.034014668 0.77600002 0.021769386 1.7975256e-38 295 224
-0.032359518 0.76899999 0.021573013 1.8056609e-38 296 224
-0.031011207 0.76899999 0.021573013 1.5844274e-38 297 224
-0.029740039 0.77100003 0.021629119 1.7491159e-38 298 224
-0.028388219 0.77100003 0.021629119 1.7583354e-38 299 224
-0.027036399 0.77100003 0.021629119 1.8044314e-38 300 224
-0.02568458 0.77100003 0.021629119 1.7952119e-38 301 224
-0.02433276 0.77100003 0.021629119 1.8135784e-38 302 224
-0.022921326 0.76899999 0.021573013 1.8135784e-38 303 224
-0.021573013 0.76899999 0.021573013 1.8044309e-38 304 224
-0.0202247 0.76899999 0.021573013 1.8228699e-38 305 224
-0.018876385 0.76899999 0.021573013 1.8137579e-38 306 224
-0.017528072 0.76899999 0.021573013 1.8229775e-38 307 224
-0.016179759 0.76899999 0.021573013 1.8138295e-38 308 224
-0.014831445 0.76899999 0.021573013 1.8138295e-38 309 224
-0.013483133 0.76899999 0.021573013 1.804503e-38 310 224
-0.012134819 0.76899999 0.021573013 1.7860639e-38 311 224
-0.010786506 0.76899999 0.021573013 1.795141e-38 312 224
-0.0094381925 0.76899999 0.021573013 1.7859213e-38 313 224
-0.0080898795 0.76899999 0.021573013 1.7492578e-38 314 224
-0.0067415666 0.76899999 0.021573013 1.7216352e-38 315 224
-0.0053792265 0.76700002 0.021516906 1.7123423e-38 316 224
-0.00403442 0.76700002 0.021516906 1.6570251e-38 317 224
-0.0026966266 0.76899999 0.021573013 1.6385139e-38 318 224
-0.0013483133 0.76899999 0.021573013 1.6200389e-38 319 224
0 0.76899999 0.021573013 1.5923455e-38 320 224
0.0013483133 0.76899999 0.021573013 1.5923455e-38 321 224
0.0026966266 0.76899999 0.021573013 1.5647599e-38 322 224
0.0040449398 0.76899999 0.021573013 1.5462849e-38 323 224
0.0053932532 0.76899999 0.021573013 1.5186988e-38 324 224
0.0067415666 0.76899999 0.021573013 1.5002597e-38 325 224
0.0080898795 0.76899999 0.021573013 1.4819295e-38 326 224
0.0094627403 0.77100003 0.021629119 1.4727099e-38 327 224
0.010842613 0.773 0.021685226 1.3530026e-38 328 224
-0.035375252 0.77600002 0.0204088 1.778581e-38 294 225
-0.033927001 0.77399999 0.020356199 1.6126287e-38 295 225
-0.032569919 0.77399999 0.020356199 1.7217828e-38 296 225
-0.03117251 0.773 0.0203299 1.6849046e-38 297 225
-0.029740039 0.77100003 0.020277301 1.7950685e-38 298 225
-0.028388219 0.77100003 0.020277301 1.8135078e-38 299 225
-0.027036399 0.77100003 0.020277301 1.8135431e-38 300 225
-0.02568458 0.77100003 0.020277301 1.8135431e-38 301 225
-0.024269639 0.76899999 0.0202247 1.8044309e-38 302 225
-0.022861714 0.76700002 0.020172099 1.8044309e-38 303 225
-0.021516906 0.76700002 0.020172099 1.7952835e-38 304 225
-0.020172099 0.76700002 0.020172099 1.8137226e-38 305 225
-0.018876385 0.76899999 0.0202247 1.8137229e-38 306 225
-0.017528072 0.76899999 0.0202247 1.8413456e-38 307 225
-0.016179759 0.76899999 0.0202247 1.8230146e-38 308 225
-0.014831445 0.76899999 0.0202247 1.8137592e-38 309 225
-0.013483133 0.76899999 0.0202247 1.8045043e-38 310 225
-0.012134819 0.76899999 0.0202247 1.7768816e-38 311 225
-0.010786506 0.76899999 0.0202247 1.785958e-38 312 225
-0.0094136465 0.76700002 0.020172099 1.785958e-38 313 225
-0.00806884 0.76700002 0.020172099 1.7491875e-38 314 225
-0.006724033 0.76700002 0.020172099 1.7215648e-38 315 225
-0.0053792265 0.76700002 0.020172099 1.7031251e-38 316 225
-0.00403442 0.76700002 0.020172099 1.6570273e-38 317 225
-0.0026896133 0.76700002 0.020172099 1.6293685e-38 318 225
-0.0013448066 0.76700002 0.020172099 1.6109294e-38 319 225
0 0.76700002 0.020172099 1.5832711e-38 320 225
0.0013448066 0.76700002 0.020172099 1.5555764e-38 321 225
0.0026896133 0.76700002 0.020172099 1.5555051e-38 322 225
0.00403442 0.76700002 0.020172099 1.5370301e-38 323 225
0.0053792265 0.76700002 0.020172099 1.5277389e-38 324 225
0.0067415666 0.76899999 0.0202247 1.5185192e-38 325 225
0.0080898795 0.76899999 0.0202247 1.4726379e-38 326 225
0.0094381925 0.76899999 0.0202247 1.4634183e-38 327 225
0.01081456 0.77100003 0.020277301 1.4449441e-38 328 225
0.01216638 0.77100003 0.020277301 1.4172856e-38 329 225
0.013518199 0.77100003 0.020277301 1.2796812e-38 330 225
-0.036735836 0.77600002 0.019048214 1.7608293e-38 293 226
-0.03528408 0.77399999 0.018999118 1.6674757e-38 294 226
-0.033927001 0.77399999 0.018999118 1.5384018e-38 295 226
-0.032527838 0.773 0.018974574 1.7122364e-38 296 226
-0.03117251 0.773 0.018974574 1.7583702e-38 297 226
-0.029740039 0.77100003 0.018925481 1.7952468e-38 298 226
-0.028388219 0.77100003 0.018925481 1.7952468e-38 299 226
-0.027036399 0.77100003 0.018925481 1.8136133e-38 300 226
-0.025617953 0.76899999 0.018876385 1.822833e-38 301 226
-0.024206521 0.76700002 0.018827293 1.822833e-38 302 226
-0.022831906 0.76599997 0.018802745 1.822833e-38 303 226
-0.021488851 0.76599997 0.018802745 1.804503e-38 304 226
-0.020172099 0.76700002 0.018827293 1.8137226e-38 305 226
-0.018827293 0.76700002 0.018827293 1.7953926e-38 306 226
-0.017482487 0.76700002 0.018827293 1.7953926e-38 307 226
-0.01613768 0.76700002 0.018827293 1.822979e-38 308 226
-0.014792874 0.76700002 0.018827293 1.8137595e-38 309 226
-0.013448066 0.76700002 0.018827293 1.7861734e-38 310 226
-0.01210326 0.76700002 0.018827293 1.7769538e-38 311 226
-0.010758453 0.76700002 0.018827293 1.758444e-38 312 226
-0.0094136465 0.76700002 0.018827293 1.7400409e-38 313 226
-0.00806884 0.76700002 0.018827293 1.7032702e-38 314 226
-0.006724033 0.76700002 0.018827293 1.6755756e-38 315 226
-0.0053722127 0.76599997 0.018802745 1.6937982e-38 316 226
-0.0040291594 0.76599997 0.018802745 1.6753591e-38 317 226
-0.0026861064 0.76599997 0.018802745 1.6386603e-38 318 226
-0.0013430532 0.76599997 0.018802745 1.6294049e-38 319 226
0 0.76599997 0.018802745 1.5832708e-38 320 226
0.0013430532 0.76599997 0.018802745 1.555612e-38 321 226
0.0026861064 0.76599997 0.018802745 1.5095158e-38 322 226
0.0040291594 0.76599997 0.018802745 1.4818932e-38 323 226
0.0053722127 0.76599997 0.018802745 1.4909341e-38 324 226
0.006724033 0.76700002 0.018827293 1.4817145e-38 325 226
0.00806884 0.76700002 0.018827293 1.4725302e-38 326 226
0.0094136465 0.76700002 0.018827293 1.4817498e-38 327 226
0.010758453 0.76700002 0.018827293 1.463383e-38 328 226
0.01210326 0.76700002 0.018827293 1.4541634e-38 329 226
0.013448066 0.76700002 0.018827293 1.3621502e-38 330 226
0.014792874 0.76700002 0.018827293 1.3621502e-38 331 226
0.01613768 0.76700002 0.018827293 1.1883153e-38 332 226
-0.037998237 0.77399999 0.01764204 1.6868188e-38 292 227
-0.036641158 0.77399999 0.01764204 1.5024275e-38 293 227
-0.03528408 0.77399999 0.01764204 1.6390959e-38 294 227
-0.033927001 0.77399999 0.01764204 1.6390959e-38 295 227
-0.032527838 0.773 0.017619247 1.7676971e-38 296 227
-0.03117251 0.773 0.017619247 1.7584774e-38 297 227
-0.029740039 0.77100003 0.01757366 1.7952465e-38 298 227
-0.028388219 0.77100003 0.01757366 1.7952465e-38 299 227
-0.027036399 0.77100003 0.01757366 1.8228696e-38 300 227
-0.025617953 0.76899999 0.017528072 1.8228696e-38 301 227
-0.024206521 0.76700002 0.017482487 1.8137226e-38 302 227
-0.022831906 0.76599997 0.017459691 1.8137226e-38 303 227
-0.021488851 0.76599997 0.017459691 1.7861365e-38 304 227
-0.020145798 0.76599997 0.017459691 1.8137592e-38 305 227
-0.018827293 0.76700002 0.017482487 1.7954282e-38 306 227
-0.017459691 0.76599997 0.017459691 1.823051e-38 307 227
-0.016116638 0.76599997 0.017459691 1.7954282e-38 308 227
-0.014773586 0.76599997 0.017459691 1.7862087e-38 309 227
-0.013430533 0.76599997 0.017459691 1.7584788e-38 310 227
-0.01210326 0.76700002 0.017482487 1.730856e-38 311 227
-0.010758453 0.76700002 0.017482487 1.7123818e-38 312 227
-0.0094013726 0.76599997 0.017459691 1.7216014e-38 313 227
-0.0080583189 0.76599997 0.017459691 1.6940869e-38 314 227
-0.0067152665 0.76599997 0.017459691 1.6572088e-38 315 227
-0.0053722127 0.76599997 0.017459691 1.6845799e-38 316 227
-0.0040291594 0.76599997 0.017459691 1.6477377e-38 317 227
-0.0026861064 0.76599997 0.017459691 1.6293702e-38 318 227
-0.0013430532 0.76599997 0.017459691 1.5924919e-38 319 227
0 0.76599997 0.017459691 1.5647611e-38 320 227
0.0013430532 0.76599997 0.017459691 1.5002241e-38 321 227
0.0026861064 0.76599997 0.017459691 1.5001524e-38 322 227
0.0040291594 0.76599997 0.017459691 1.4817132e-38 323 227
0.0053722127 0.76599997 0.017459691 1.4724581e-38 324 227
0.006724033 0.76700002 0.017482487 1.454019e-38 325 227
0.00806884 0.76700002 0.017482487 1.4725297e-38 326 227
0.0094136465 0.76700002 0.017482487 1.4725297e-38 327 227
0.010758453 0.76700002 0.017482487 1.4541987e-38 328 227
0.012087479 0.76599997 0.017459691 1.4449792e-38 329 227
0.013430533 0.76599997 0.017459691 1.4448723e-38 330 227
0.014792874 0.76700002 0.017482487 1.4448723e-38 331 227
0.01613768 0.76700002 0.017482487 1.2795004e-38 332 227
0.017482487 0.76700002 0.017482487 1.4454165e-38 333 227
-0.037998237 0.77399999 0.016284959 1.5667105e-38 292 228
-0.036641158 0.77399999 0.016284959 1.4284171e-38 293 228
-0.03528408 0.77399999 0.016284959 1.6665005e-38 294 228
-0.033927001 0.77399999 0.016284959 1.7033788e-38 295 228
-0.032527838 0.773 0.016263919 1.7584774e-38 296 228
-0.03117251 0.773 0.016263919 1.7676971e-38 297 228
-0.029740039 0.77100003 0.016221842 1.7860991e-38 298 228
-0.028314579 0.76899999 0.016179759 1.8045384e-38 299 228
-0.026966266 0.76899999 0.016179759 1.8320891e-38 300 228
-0.025551327 0.76700002 0.01613768 1.8320891e-38 301 228
-0.024206521 0.76700002 0.01613768 1.8320894e-38 302 228
-0.022831906 0.76599997 0.016116638 1.8320894e-38 303 228
-0.021488851 0.76599997 0.016116638 1.8137226e-38 304 228
-0.020145798 0.76599997 0.016116638 1.8137226e-38 305 228
-0.018802745 0.76599997 0.016116638 1.8137595e-38 306 228
-0.017459691 0.76599997 0.016116638 1.8137595e-38 307 228
-0.016116638 0.76599997 0.016116638 1.7861736e-38 308 228
-0.014773586 0.76599997 0.016116638 1.7584791e-38 309 228
-0.013430533 0.76599997 0.016116638 1.6756828e-38 310 228
-0.012087479 0.76599997 0.016116638 1.64806e-38 311 228
-0.010744425 0.76599997 0.016116638 1.5562604e-38 312 228
-0.0093768267 0.764 0.016074561 1.5654799e-38 313 228
-0.0080372803 0.764 0.016074561 1.6021435e-38 314 228
-0.0067152665 0.76599997 0.016116638 1.5837042e-38 315 228
-0.0053581866 0.764 0.016074561 1.6019283e-38 316 228
-0.0040186401 0.764 0.016074561 1.5834891e-38 317 228
-0.0026790933 0.764 0.016074561 1.5741256e-38 318 228
-0.0013395466 0.764 0.016074561 1.5372115e-38 319 228
0 0.764 0.016074561 1.4634186e-38 320 228
0.0013395466 0.764 0.016074561 1.4449436e-38 321 228
0.0026790933 0.764 0.016074561 1.4634183e-38 322 228
0.0040186401 0.764 0.016074561 1.4449792e-38 323 228
0.0053581866 0.764 0.016074561 1.4449789e-38 324 228
0.0067152665 0.76599997 0.016116638 1.4449789e-38 325 228
0.0080583189 0.76599997 0.016116638 1.4542341e-38 326 228
0.0094013726 0.76599997 0.016116638 1.4542341e-38 327 228
0.010744425 0.76599997 0.016116638 1.4541619e-38 328 228
0.012087479 0.76599997 0.016116638 1.4449423e-38 329 228
0.013430533 0.76599997 0.016116638 1.4356872e-38 330 228
0.014792874 0.76700002 0.01613768 1.4172479e-38 331 228
0.01613768 0.76700002 0.01613768 1.3435659e-38 332 228
0.017482487 0.76700002 0.01613768 1.3527855e-38 333 228
0.018827293 0.76700002 0.01613768 1.1790238e-38 334 228
-0.039355319 0.77399999 0.014927879 1.6042765e-38 291 229
-0.037998237 0.77399999 0.014927879 1.5293268e-38 292 229
-0.036641158 0.77399999 0.014927879 1.483193e-38 293 229
-0.035238493 0.773 0.014908593 1.6941219e-38 294 229
-0.033883166 0.773 0.014908593 1.7033415e-38 295 229
-0.032527838 0.773 0.014908593 1.7492578e-38 296 229
-0.031011207 0.76899999 0.014831445 1.7584774e-38 297 229
-0.02966289 0.76899999 0.014831445 1.776952e-38 298 229
-0.02824094 0.76700002 0.014792874 1.7861715e-38 299 229
-0.026896132 0.76700002 0.014792874 1.8229422e-38 300 229
-0.025551327 0.76700002 0.014792874 1.8229422e-38 301 229
-0.024174958 0.76599997 0.014773586 1.8229424e-38 302 229
-0.022831906 0.76599997 0.014773586 1.8229424e-38 303 229
-0.021432746 0.764 0.014735013 1.8137592e-38 304 229
-0.020093199 0.764 0.014735013 1.8137592e-38 305 229
-0.018753653 0.764 0.014735013 1.8136523e-38 306 229
-0.017414106 0.764 0.014735013 1.8136523e-38 307 229
-0.016074561 0.764 0.014735013 1.758444e-38 308 229
-0.01469644 0.76200002 0.01469644 1.7031267e-38 309 229
-0.0133604 0.76200002 0.01469644 1.5651932e-38 310 229
-0.01205592 0.764 0.014735013 1.5559736e-38 311 229
-0.010716373 0.764 0.014735013 1.464426e-38 312 229
-0.0093768267 0.764 0.014735013 1.464426e-38 313 229
-0.0080372803 0.764 0.014735013 1.4366971e-38 314 229
-0.006697733 0.764 0.014735013 1.4274774e-38 315 229
-0.0053581866 0.764 0.014735013 1.5191342e-38 316 229
-0.0040081199 0.76200002 0.01469644 1.4914755e-38 317 229
-0.00267208 0.76200002 0.01469644 1.5739827e-38 318 229
-0.0013395466 0.764 0.014735013 1.5278849e-38 319 229
0 0.764 0.014735013 1.4633833e-38 320 229
0.0013395466 0.764 0.014735013 1.4726028e-38 321 229
0.0026790933 0.764 0.014735013 1.4634902e-38 322 229
0.0040186401 0.764 0.014735013 1.4450871e-38 323 229
0.0053581866 0.764 0.014735013 1.4542338e-38 324 229
0.0067152665 0.76599997 0.014773586 1.4450142e-38 325 229
0.0080583189 0.76599997 0.014773586 1.4541622e-38 326 229
0.0094013726 0.76599997 0.014773586 1.4541622e-38 327 229
0.010744425 0.76599997 0.014773586 1.4541622e-38 328 229
0.012087479 0.76599997 0.014773586 1.4449426e-38 329 229
0.013430533 0.76599997 0.014773586 1.4264675e-38 330 229
0.014792874 0.76700002 0.014792874 1.4172479e-38 331 229
0.01613768 0.76700002 0.014792874 1.4078864e-38 332 229
0.017482487 0.76700002 0.014792874 1.4078864e-38 333 229
0.018827293 0.76700002 0.014792874 1.2058884e-38 334 229
-0.039355319 0.77399999 0.013570799 1.4841326e-38 291 230
-0.037998237 0.77399999 0.013570799 1.584066e-38 292 230
-0.036593821 0.773 0.013553266 1.5748106e-38 293 230
-0.035238493 0.773 0.013553266 1.7309276e-38 294 230
-0.033883166 0.773 0.013553266 1.721708e-38 295 230
-0.032443684 0.77100003 0.013518199 1.7309266e-38 296 230
-0.031011207 0.76899999 0.013483133 1.7585494e-38 297 230
-0.029585747 0.76700002 0.013448066 1.7769523e-38 298 230
-0.02824094 0.76700002 0.013448066 1.7861718e-38 299 230
-0.026861066 0.76599997 0.013430533 1.8045752e-38 300 230
-0.025518013 0.76599997 0.013430533 1.8137948e-38 301 230
-0.024111839 0.764 0.013395466 1.8137597e-38 302 230
-0.022772292 0.764 0.013395466 1.8045043e-38 303 230
-0.021432746 0.764 0.013395466 1.7861015e-38 304 230
-0.020093199 0.764 0.013395466 1.7768819e-38 305 230
-0.018753653 0.764 0.013395466 1.8043255e-38 306 230
-0.01736852 0.76200002 0.0133604 1.8043255e-38 307 230
-0.01603248 0.76200002 0.0133604 1.7216377e-38 308 230
-0.01469644 0.76200002 0.0133604 1.6663563e-38 309 230
-0.0133604 0.76200002 0.0133604 1.4365156e-38 310 230
-0.01202436 0.76200002 0.0133604 1.4826134e-38 311 230
-0.01068832 0.76200002 0.0133604 1.4094699e-38 312 230
-0.0093522798 0.76200002 0.0133604 1.4002503e-38 313 230
-0.0080162399 0.76200002 0.0133604 1.3633374e-38 314 230
-0.006697733 0.764 0.013395466 1.3356427e-38 315 230
-0.0053441599 0.76200002 0.0133604 1.427191e-38 316 230
-0.0040081199 0.76200002 0.0133604 1.4364105e-38 317 230
-0.00267208 0.76200002 0.0133604 1.5463963e-38 318 230
-0.00133604 0.76200002 0.0133604 1.5279571e-38 319 230
0 0.76200002 0.0133604 1.5096603e-38 320 230
0.00133604 0.76200002 0.0133604 1.4820016e-38 321 230
0.00267208 0.76200002 0.0133604 1.5002963e-38 322 230
0.0040081199 0.76200002 0.0133604 1.4726735e-38 323 230
0.0053441599 0.76200002 0.0133604 1.4726379e-38 324 230
0.006697733 0.764 0.013395466 1.4541987e-38 325 230
0.0080372803 0.764 0.013395466 1.4449073e-38 326 230
0.0094013726 0.76599997 0.013430533 1.4356877e-38 327 230
0.010744425 0.76599997 0.013430533 1.4539466e-38 328 230
0.012087479 0.76599997 0.013430533 1.4447271e-38 329 230
0.013430533 0.76599997 0.013430533 1.4262877e-38 330 230
0.014773586 0.76599997 0.013430533 1.4078846e-38 331 230
0.01613768 0.76700002 0.013448066 1.3710432e-38 332 230
0.017482487 0.76700002 0.013448066 1.3710432e-38 333 230
0.018827293 0.76700002 0.013448066 1.334276e-38 334 230
0.020172099 0.76700002 0.013448066 1.3434956e-38 335 230
-0.039304473 0.773 0.012197939 1.3824633e-38 291 231
-0.037949149 0.773 0.012197939 1.6114708e-38 292 231
-0.036593821 0.773 0.012197939 1.6483131e-38 293 231
-0.03514732 0.77100003 0.01216638 1.7217436e-38 294 231
-0.033795502 0.77100003 0.01216638 1.7217436e-38 295 231
-0.032359518 0.76899999 0.012134819 1.7309629e-38 296 231
-0.031011207 0.76899999 0.012134819 1.7401826e-38 297 231
-0.029585747 0.76700002 0.01210326 1.7401829e-38 298 231
-0.02824094 0.76700002 0.01210326 1.7494024e-38 299 231
-0.026861066 0.76599997 0.012087479 1.758622e-38 300 231
-0.025518013 0.76599997 0.012087479 1.758622e-38 301 231
-0.024111839 0.764 0.01205592 1.7769182e-38 302 231
-0.022772292 0.764 0.01205592 1.7676986e-38 303 231
-0.02137664 0.76200002 0.01202436 1.758444e-38 304 231
-0.0200406 0.76200002 0.01202436 1.758444e-38 305 231
-0.01870456 0.76200002 0.01202436 1.7583717e-38 306 231
-0.01736852 0.76200002 0.01202436 1.7583717e-38 307 231
-0.01603248 0.76200002 0.01202436 1.6941222e-38 308 231
-0.014677152 0.76099998 0.012008579 1.6295853e-38 309 231
-0.013342866 0.76099998 0.012008579 1.4183284e-38 310 231
-0.01202436 0.76200002 0.01202436 1.4643904e-38 311 231
-0.01068832 0.76200002 0.01202436 1.3269283e-38 312 231
-0.0093522798 0.76200002 0.01202436 1.3269283e-38 313 231
-0.0080162399 0.76200002 0.01202436 1.2163655e-38 314 231
-0.0066801999 0.76200002 0.01202436 1.142609e-38 315 231
-0.0053441599 0.76200002 0.01202436 1.2985484e-38 316 231
-0.0040081199 0.76200002 0.01202436 1.3538658e-38 317 231
-0.00267208 0.76200002 0.01202436 1.5098058e-38 318 231
-0.00133604 0.76200002 0.01202436 1.5005503e-38 319 231
0 0.76200002 0.01202436 1.5372471e-38 320 231
0.00133604 0.76200002 0.01202436 1.4911493e-38 321 231
0.00267208 0.76200002 0.01202436 1.4909341e-38 322 231
0.0040081199 0.76200002 0.01202436 1.4817145e-38 323 231
0.0053441599 0.76200002 0.01202436 1.4357969e-38 324 231
0.006697733 0.764 0.01205592 1.4173578e-38 325 231
0.0080372803 0.764 0.01205592 1.4080307e-38 326 231
0.0094013726 0.76599997 0.012087479 1.3895915e-38 327 231
0.010744425 0.76599997 0.012087479 1.3711523e-38 328 231
0.012087479 0.76599997 0.012087479 1.3527133e-38 329 231
0.013430533 0.76599997 0.012087479 1.3711155e-38 330 231
0.014773586 0.76599997 0.012087479 1.3618958e-38 331 231
0.016116638 0.76599997 0.012087479 1.3434211e-38 332 231
0.017482487 0.76700002 0.01210326 1.3526406e-38 333 231
0.018827293 0.76700002 0.01210326 1.3343111e-38 334 231
0.020172099 0.76700002 0.01210326 1.3250914e-38 335 231
-0.0406598 0.773 0.010842613 1.54827e-38 290 232
-0.039304473 0.773 0.010842613 1.3915016e-38 291 232
-0.037949149 0.773 0.010842613 1.6850456e-38 292 232
-0.036593821 0.773 0.010842613 1.6850456e-38 293 232
-0.03514732 0.77100003 0.01081456 1.7034471e-38 294 232
-0.033795502 0.77100003 0.01081456 1.7126667e-38 295 232
-0.032359518 0.76899999 0.010786506 1.7126667e-38 296 232
-0.030930554 0.76700002 0.010758453 1.7218864e-38 297 232
-0.029585747 0.76700002 0.010758453 1.7218867e-38 298 232
-0.02824094 0.76700002 0.010758453 1.7218867e-38 299 232
-0.026861066 0.76599997 0.010744425 1.7310709e-38 300 232
-0.025518013 0.76599997 0.010744425 1.7495099e-38 301 232
-0.024111839 0.764 0.010716373 1.7310362e-38 302 232
-0.022772292 0.764 0.010716373 1.7218166e-38 303 232
-0.02137664 0.76200002 0.01068832 1.7491522e-38 304 232
-0.0200406 0.76200002 0.01068832 1.7491522e-38 305 232
-0.01870456 0.76200002 0.01068832 1.7491519e-38 306 232
-0.017345725 0.76099998 0.010674292 1.7491519e-38 307 232
-0.016011439 0.76099998 0.010674292 1.6758626e-38 308 232
-0.014677152 0.76099998 0.010674292 1.583703e-38 309 232
-0.013342866 0.76099998 0.010674292 1.3725178e-38 310 232
-0.012008579 0.76099998 0.010674292 1.4093601e-38 311 232
-0.010674292 0.76099998 0.010674292 1.2993055e-38 312 232
-0.0093400059 0.76099998 0.010674292 1.2624633e-38 313 232
-0.0080057196 0.76099998 0.010674292 1.0875434e-38 314 232
-0.0066714329 0.76099998 0.010674292 9.3081068e-39 315 232
-0.0053371461 0.76099998 0.010674292 1.2521985e-38 316 232
-0.0040028598 0.76099998 0.010674292 1.3443941e-38 317 232
-0.0026685731 0.76099998 0.010674292 1.4820395e-38 318 232
-0.0013342865 0.76099998 0.010674292 1.5188818e-38 319 232
0 0.76099998 0.010674292 1.5278846e-38 320 232
0.0013342865 0.76099998 0.010674292 1.4726031e-38 321 232
0.00267208 0.76200002 0.01068832 1.4906474e-38 322 232
0.0040081199 0.76200002 0.01068832 1.4537691e-38 323 232
0.0053441599 0.76200002 0.01068832 1.3895193e-38 324 232
0.0066801999 0.76200002 0.01068832 1.2788844e-38 325 232
0.0080162399 0.76200002 0.01068832 1.343062e-38 326 232
0.0093768267 0.764 0.010716373 1.3615013e-38 327 232
0.010744425 0.76599997 0.010744425 1.3247678e-38 328 232
0.012087479 0.76599997 0.010744425 1.3247678e-38 329 232
0.013430533 0.76599997 0.010744425 1.3431338e-38 330 232
0.014773586 0.76599997 0.010744425 1.3431338e-38 331 232
0.016116638 0.76599997 0.010744425 1.3156182e-38 332 232
0.017482487 0.76700002 0.010758453 1.3156182e-38 333 232
0.018827293 0.76700002 0.010758453 1.3155831e-38 334 232
0.020172099 0.76700002 0.010758453 1.343242e-38 335 232
0.021516906 0.76700002 0.010758453 1.196452e-38 336 232
-0.042015124 0.773 0.0094872871 1.5305563e-38 289 233
-0.0406598 0.773 0.0094872871 1.6030106e-38 290 233
-0.03920278 0.77100003 0.0094627403 1.492376e-38 291 233
-0.037850961 0.77100003 0.0094627403 1.712739e-38 292 233
-0.036499143 0.77100003 0.0094627403 1.7035193e-38 293 233
-0.03514732 0.77100003 0.0094627403 1.7127373e-38 294 233
-0.033707831 0.76899999 0.0094381925 1.7127373e-38 295 233
-0.032359518 0.76899999 0.0094381925 1.712702e-38 296 233
-0.030930554 0.76700002 0.0094136465 1.7219216e-38 297 233
-0.029585747 0.76700002 0.0094136465 1.721887e-38 298 233
-0.028204117 0.76599997 0.0094013726 1.7311065e-38 299 233
-0.026861066 0.76599997 0.0094013726 1.7035567e-38 300 233
-0.025518013 0.76599997 0.0094013726 1.7127763e-38 301 233
-0.024111839 0.764 0.0093768267 1.721781e-38 302 233
-0.022682872 0.76099998 0.0093400059 1.7125613e-38 303 233
-0.021348584 0.76099998 0.0093400059 1.7216377e-38 304 233
-0.0200406 0.76200002 0.0093522798 1.7032346e-38 305 233
-0.018680012 0.76099998 0.0093400059 1.7032699e-38 306 233
-0.017345725 0.76099998 0.0093400059 1.721673e-38 307 233
-0.016011439 0.76099998 0.0093400059 1.6756813e-38 308 233
-0.014677152 0.76099998 0.0093400059 1.6111443e-38 309 233
-0.013342866 0.76099998 0.0093400059 1.4181098e-38 310 233
-0.012008579 0.76099998 0.0093400059 1.3996707e-38 311 233
-0.010674292 0.76099998 0.0093400059 1.2528464e-38 312 233
-0.0093400059 0.76099998 0.0093400059 1.2436269e-38 313 233
-0.0080057196 0.76099998 0.0093400059 1.1055162e-38 314 233
-0.0066714329 0.76099998 0.0093400059 1.0225042e-38 315 233
-0.0053371461 0.76099998 0.0093400059 1.2244714e-38 316 233
-0.0040028598 0.76099998 0.0093400059 1.2890084e-38 317 233
-0.0026685731 0.76099998 0.0093400059 1.4177208e-38 318 233
-0.0013342865 0.76099998 0.0093400059 1.4269404e-38 319 233
0 0.76099998 0.0093400059 1.4910436e-38 320 233
0.0013342865 0.76099998 0.0093400059 1.4357621e-38 321 233
0.00267208 0.76200002 0.0093522798 1.4171425e-38 322 233
0.0040028598 0.76099998 0.0093400059 1.3895199e-38 323 233
0.0053371461 0.76099998 0.0093400059 1.343459e-38 324 233
0.0066801999 0.76200002 0.0093522798 1.2789221e-38 325 233
0.0080162399 0.76200002 0.0093522798 1.2786713e-38 326 233
0.0093522798 0.76200002 0.0093522798 1.2602321e-38 327 233
0.010716373 0.764 0.0093768267 1.2235344e-38 328 233
0.012087479 0.76599997 0.0094013726 1.2419375e-38 329 233
0.013430533 0.76599997 0.0094013726 1.2237135e-38 330 233
0.014773586 0.76599997 0.0094013726 1.2053103e-38 331 233
0.016116638 0.76599997 0.0094013726 1.2143501e-38 332 233
0.017482487 0.76700002 0.0094136465 1.2143501e-38 333 233
0.018827293 0.76700002 0.0094136465 1.1685057e-38 334 233
0.020172099 0.76700002 0.0094136465 1.1869448e-38 335 233
0.021573013 0.76899999 0.0094381925 1.1227671e-38 336 233
0.022921326 0.76899999 0.0094381925 1.0121324e-38 337 233
-0.042015124 0.773 0.0081319595 1.4289957e-38 289 234
-0.0406598 0.773 0.0081319595 1.6303435e-38 290 234
-0.03920278 0.77100003 0.0081109209 1.5934292e-38 291 234
-0.037850961 0.77100003 0.0081109209 1.7036627e-38 292 234
-0.036499143 0.77100003 0.0081109209 1.6944071e-38 293 234
-0.03514732 0.77100003 0.0081109209 1.7127736e-38 294 234
-0.033707831 0.76899999 0.0080898795 1.7220292e-38 295 234
-0.03227536 0.76700002 0.00806884 1.7219939e-38 296 234
-0.030930554 0.76700002 0.00806884 1.7127742e-38 297 234
-0.029547172 0.76599997 0.0080583189 1.7219233e-38 298 234
-0.028204117 0.76599997 0.0080583189 1.7219233e-38 299 234
-0.026861066 0.76599997 0.0080583189 1.7036286e-38 300 234
-0.025451386 0.764 0.0080372803 1.7036286e-38 301 234
-0.02404872 0.76200002 0.0080162399 1.7126334e-38 302 234
-0.022682872 0.76099998 0.0080057196 1.6850105e-38 303 234
-0.021348584 0.76099998 0.0080057196 1.7216011e-38 304 234
-0.020014299 0.76099998 0.0080057196 1.7123815e-38 305 234
-0.018680012 0.76099998 0.0080057196 1.7215645e-38 306 234
-0.017345725 0.76099998 0.0080057196 1.7399676e-38 307 234
-0.016011439 0.76099998 0.0080057196 1.6756106e-38 308 234
-0.014638579 0.759 0.0079846792 1.6202932e-38 309 234
-0.0133078 0.759 0.0079846792 1.4914701e-38 310 234
-0.01197702 0.759 0.0079846792 1.2425058e-38 311 234
-0.01064624 0.759 0.0079846792 1.0491142e-38 312 234
-0.00931546 0.759 0.0079846792 1.1505292e-38 313 234
-0.0079846792 0.759 0.0079846792 1.1507132e-38 314 234
-0.0066538998 0.759 0.0079846792 1.1599328e-38 315 234
-0.0053231199 0.759 0.0079846792 1.2886464e-38 316 234
-0.0039923396 0.759 0.0079846792 1.3439638e-38 317 234
-0.00266156 0.759 0.0079846792 1.4542733e-38 318 234
-0.00133078 0.759 0.0079846792 1.4634929e-38 319 234
0 0.759 0.0079846792 1.4726398e-38 320 234
0.0013342865 0.76099998 0.0080057196 1.4173225e-38 321 234
0.0026685731 0.76099998 0.0080057196 1.3988113e-38 322 234
0.0040028598 0.76099998 0.0080057196 1.3711167e-38 323 234
0.0053371461 0.76099998 0.0080057196 1.3342741e-38 324 234
0.0066801999 0.76200002 0.0080162399 1.2881764e-38 325 234
0.0080162399 0.76200002 0.0080162399 1.2603378e-38 326 234
0.0093522798 0.76200002 0.0080162399 1.2511182e-38 327 234
0.01068832 0.76200002 0.0080162399 1.2142049e-38 328 234
0.012087479 0.76599997 0.0080583189 1.2234245e-38 329 234
0.013430533 0.76599997 0.0080583189 1.2051299e-38 330 234
0.014773586 0.76599997 0.0080583189 1.1959103e-38 331 234
0.016116638 0.76599997 0.0080583189 1.1958031e-38 332 234
0.017482487 0.76700002 0.00806884 1.1865835e-38 333 234
0.018827293 0.76700002 0.00806884 1.1314829e-38 334 234
0.020172099 0.76700002 0.00806884 1.1314829e-38 335 234
0.021488851 0.76599997 0.0080583189 1.1130804e-38 336 234
0.022831906 0.76599997 0.0080583189 1.1407749e-38 337 234
0.024174958 0.76599997 0.0080583189 1.1227357e-38 338 234
-0.042069476 0.77399999 0.0067853997 1.3367628e-38 289 235
-0.040712398 0.77399999 0.0067853997 1.6485283e-38 290 235
-0.039304473 0.773 0.0067766332 1.6485283e-38 291 235
-0.037850961 0.77100003 0.0067590997 1.7036977e-38 292 235
-0.036499143 0.77100003 0.0067590997 1.694478e-38 293 235
-0.03514732 0.77100003 0.0067590997 1.7127736e-38 294 235
-0.033620168 0.76700002 0.006724033 1.7127736e-38 295 235
-0.03227536 0.76700002 0.006724033 1.7219583e-38 296 235
-0.030890226 0.76599997 0.0067152665 1.7219583e-38 297 235
-0.029547172 0.76599997 0.0067152665 1.7036642e-38 298 235
-0.028204117 0.76599997 0.0067152665 1.7036642e-38 299 235
-0.026790932 0.764 0.006697733 1.7036289e-38 300 235
-0.025451386 0.764 0.006697733 1.6944093e-38 301 235
-0.024017159 0.76099998 0.0066714329 1.7034136e-38 302 235
-0.022682872 0.76099998 0.0066714329 1.6850105e-38 303 235
-0.021348584 0.76099998 0.0066714329 1.69405e-38 304 235
-0.020014299 0.76099998 0.0066714329 1.69405e-38 305 235
-0.01863092 0.759 0.0066538998 1.7124169e-38 306 235
-0.017300138 0.759 0.0066538998 1.7124169e-38 307 235
-0.015969358 0.759 0.0066538998 1.7031251e-38 308 235
-0.014638579 0.759 0.0066538998 1.6754663e-38 309 235
-0.013272733 0.75700003 0.0066363667 1.5833427e-38 310 235
-0.01194546 0.75700003 0.0066363667 1.4542688e-38 311 235
-0.010618187 0.75700003 0.0066363667 1.3618589e-38 312 235
-0.0092909131 0.75700003 0.0066363667 1.3618589e-38 313 235
-0.0079636406 0.75700003 0.0066363667 1.3069398e-38 314 235
-0.0066363667 0.75700003 0.0066363667 1.3622572e-38 315 235
-0.0052950666 0.755 0.0066188332 1.4173237e-38 316 235
-0.0039712996 0.755 0.0066188332 1.4357987e-38 317 235
-0.00266156 0.759 0.0066538998 1.4266516e-38 318 235
-0.0013272733 0.75700003 0.0066363667 1.4174319e-38 319 235
0 0.75700003 0.0066363667 1.4357621e-38 320 235
0.0013272733 0.75700003 0.0066363667 1.4080676e-38 321 235
0.0026685731 0.76099998 0.0066714329 1.3895193e-38 322 235
0.0040028598 0.76099998 0.0066714329 1.3618606e-38 323 235
0.0053371461 0.76099998 0.0066714329 1.334094e-38 324 235
0.0066714329 0.76099998 0.0066714329 1.3064713e-38 325 235
0.0080057196 0.76099998 0.0066714329 1.269522e-38 326 235
0.0093400059 0.76099998 0.0066714329 1.2326797e-38 327 235
0.010674292 0.76099998 0.0066714329 1.1959103e-38 328 235
0.01202436 0.76200002 0.0066801999 1.1866907e-38 329 235
0.0133604 0.76200002 0.0066801999 1.1683958e-38 330 235
0.014735013 0.764 0.006697733 1.1591762e-38 331 235
0.016074561 0.764 0.006697733 1.1315536e-38 332 235
0.017459691 0.76599997 0.0067152665 1.1315536e-38 333 235
0.018802745 0.76599997 0.0067152665 1.0671984e-38 334 235
0.020172099 0.76700002 0.006724033 1.0579428e-38 335 235
0.021488851 0.76599997 0.0067152665 1.0030227e-38 336 235
0.022831906 0.76599997 0.0067152665 1.0675596e-38 337 235
0.024395877 0.773 0.0067766332 1.113696e-38 338 235
0.025784519 0.77399999 0.0067853997 1.0952568e-38 339 235
-0.042015124 0.773 0.0054213065 1.3548404e-38 289 236
-0.040554602 0.77100003 0.0054072798 1.6761141e-38 290 236
-0.03920278 0.77100003 0.0054072798 1.657711e-38 291 236
-0.037850961 0.77100003 0.0054072798 1.6944427e-38 292 236
-0.036404461 0.76899999 0.0053932532 1.6944427e-38 293 236
-0.035056144 0.76899999 0.0053932532 1.6944071e-38 294 236
-0.033620168 0.76700002 0.0053792265 1.6944071e-38 295 236
-0.03227536 0.76700002 0.0053792265 1.7035918e-38 296 236
-0.030890226 0.76599997 0.0053722127 1.7035918e-38 297 236
-0.029547172 0.76599997 0.0053722127 1.7036286e-38 298 236
-0.028130481 0.764 0.0053581866 1.7128482e-38 299 236
-0.0267208 0.76200002 0.0053441599 1.7127413e-38 300 236
-0.025351444 0.76099998 0.0053371461 1.7035217e-38 301 236
-0.024017159 0.76099998 0.0053371461 1.7125262e-38 302 236
-0.02262326 0.759 0.0053231199 1.7033064e-38 303 236
-0.02129248 0.759 0.0053231199 1.6940503e-38 304 236
-0.0199617 0.759 0.0053231199 1.6848307e-38 305 236
-0.01863092 0.759 0.0053231199 1.7215998e-38 306 236
-0.017300138 0.759 0.0053231199 1.7215998e-38 307 236
-0.015969358 0.759 0.0053231199 1.6939419e-38 308 236
-0.014600007 0.75700003 0.0053090933 1.6478799e-38 309 236
-0.013272733 0.75700003 0.0053090933 1.6201133e-38 310 236
-0.01194546 0.75700003 0.0053090933 1.5832711e-38 311 236
-0.010618187 0.75700003 0.0053090933 1.5830909e-38 312 236
-0.0092909131 0.75700003 0.0053090933 1.5554322e-38 313 236
-0.0079636406 0.75700003 0.0053090933 1.5004042e-38 314 236
-0.0066188332 0.755 0.0052950666 1.5280269e-38 315 236
-0.0052950666 0.755 0.0052950666 1.4635279e-38 316 236
-0.0039712996 0.755 0.0052950666 1.4358691e-38 317 236
-0.0026545466 0.75700003 0.0053090933 1.4265791e-38 318 236
-0.0013272733 0.75700003 0.0053090933 1.4173237e-38 319 236
0 0.755 0.0052950666 1.4080679e-38 320 236
0.0013237667 0.755 0.0052950666 1.3895927e-38 321 236
0.0026545466 0.75700003 0.0053090933 1.3802644e-38 322 236
0.0040028598 0.76099998 0.0053371461 1.3526056e-38 323 236
0.0053371461 0.76099998 0.0053371461 1.3248394e-38 324 236
0.0066714329 0.76099998 0.0053371461 1.2972166e-38 325 236
0.0080057196 0.76099998 0.0053371461 1.2420431e-38 326 236
0.0093400059 0.76099998 0.0053371461 1.2144205e-38 327 236
0.010674292 0.76099998 0.0053371461 1.1959456e-38 328 236
0.01202436 0.76200002 0.0053441599 1.186726e-38 329 236
0.0133604 0.76200002 0.0053441599 1.1500996e-38 330 236
0.01469644 0.76200002 0.0053441599 1.14088e-38 331 236
0.016074561 0.764 0.0053581866 1.1040741e-38 332 236
0.017414106 0.764 0.0053581866 1.0856348e-38 333 236
0.018802745 0.76599997 0.0053722127 1.030427e-38 334 236
0.020145798 0.76599997 0.0053722127 1.030427e-38 335 236
0.021516906 0.76700002 0.0053792265 1.0121694e-38 336 236
0.022861714 0.76700002 0.0053792265 1.0490835e-38 337 236
0.024395877 0.773 0.0054213065 1.0492662e-38 338 236
0.025784519 0.77399999 0.0054283198 9.2941191e-39 339 236
-0.043426558 0.77399999 0.0040712398 1.6034792e-38 288 237
-0.042015124 0.773 0.0040659797 1.3822097e-38 289 237
-0.040554602 0.77100003 0.0040554604 1.666858e-38 290 237
-0.039101087 0.76899999 0.0040449398 1.6576383e-38 291 237
-0.03775277 0.76899999 0.0040449398 1.675968e-38 292 237
-0.036309779 0.76700002 0.00403442 1.675968e-38 293 237
-0.034964975 0.76700002 0.00403442 1.6852231e-38 294 237
-0.033576332 0.76599997 0.0040291594 1.6759677e-38 295 237
-0.032233275 0.76599997 0.0040291594 1.703519e-38 296 237
-0.030890226 0.76599997 0.0040291594 1.7219583e-38 297 237
-0.029470026 0.764 0.0040186401 1.7036642e-38 298 237
-0.028130481 0.764 0.0040186401 1.7128838e-38 299 237
-0.026685731 0.76099998 0.0040028598 1.7218529e-38 300 237
-0.025351444 0.76099998 0.0040028598 1.7034136e-38 301 237
-0.023954039 0.759 0.0039923396 1.6941222e-38 302 237
-0.02262326 0.759 0.0039923396 1.6941222e-38 303 237
-0.02129248 0.759 0.0039923396 1.7031973e-38 304 237
-0.0199617 0.759 0.0039923396 1.6939419e-38 305 237
-0.01863092 0.759 0.0039923396 1.703197e-38 306 237
-0.017254554 0.75700003 0.0039818203 1.703197e-38 307 237
-0.015927281 0.75700003 0.0039818203 1.6937629e-38 308 237
-0.014600007 0.75700003 0.0039818203 1.6753238e-38 309 237
-0.013272733 0.75700003 0.0039818203 1.6200783e-38 310 237
-0.011913899 0.755 0.0039712996 1.5924556e-38 311 237
-0.010590133 0.755 0.0039712996 1.5830912e-38 312 237
-0.0092663663 0.755 0.0039712996 1.5830912e-38 313 237
-0.0079425992 0.755 0.0039712996 1.5096591e-38 314 237
-0.0066188332 0.755 0.0039712996 1.4912199e-38 315 237
-0.0052950666 0.755 0.0039712996 1.4265773e-38 316 237
-0.0039712996 0.755 0.0039712996 1.37126e-38 317 237
-0.0026545466 0.75700003 0.0039818203 1.3711546e-38 318 237
-0.0013237667 0.755 0.0039712996 1.361935e-38 319 237
0 0.755 0.0039712996 1.3710464e-38 320 237
0.0013237667 0.755 0.0039712996 1.3526433e-38 321 237
0.0026545466 0.75700003 0.0039818203 1.352534e-38 322 237
0.0039923396 0.759 0.0039923396 1.334059e-38 323 237
0.0053371461 0.76099998 0.0040028598 1.3064363e-38 324 237
0.0066714329 0.76099998 0.0040028598 1.287997e-38 325 237
0.0080057196 0.76099998 0.0040028598 1.2419357e-38 326 237
0.0093400059 0.76099998 0.0040028598 1.2327161e-38 327 237
0.010674292 0.76099998 0.0040028598 1.1866904e-38 328 237
0.01202436 0.76200002 0.0040081199 1.1774709e-38 329 237
0.0133604 0.76200002 0.0040081199 1.1316608e-38 330 237
0.01469644 0.76200002 0.0040081199 1.1224053e-38 331 237
0.01603248 0.76200002 0.0040081199 1.0855997e-38 332 237
0.017414106 0.764 0.0040186401 1.0579768e-38 333 237
0.018753653 0.764 0.0040186401 9.9365668e-39 334 237
0.020145798 0.76599997 0.0040291594 1.0028762e-38 335 237
0.021516906 0.76700002 0.00403442 9.7536301e-39 336 237
0.022861714 0.76700002 0.00403442 1.0030577e-38 337 237
0.02433276 0.77100003 0.0040554604 1.0214633e-38 338 237
0.02568458 0.77100003 0.0040554604 9.2926771e-39 339 237
0.027036399 0.77100003 0.0040554604 9.0287075e-39 340 237
-0.043426558 0.77399999 0.0027141599 1.5663846e-38 288 238
-0.042015124 0.773 0.0027106532 1.428091e-38 289 238
-0.040554602 0.77100003 0.0027036399 1.6300522e-38 290 238
-0.039101087 0.76899999 0.0026966266 1.6300522e-38 291 238
-0.037654586 0.76700002 0.0026896133 1.6483821e-38 292 238
-0.036309779 0.76700002 0.0026896133 1.6483821e-38 293 238
-0.034964975 0.76700002 0.0026896133 1.6483819e-38 294 238
-0.033576332 0.76599997 0.0026861064 1.6483819e-38 295 238
-0.032233275 0.76599997 0.0026861064 1.666678e-38 296 238
-0.030809574 0.764 0.0026790933 1.6943369e-38 297 238
-0.029470026 0.764 0.0026790933 1.6668229e-38 298 238
-0.028020019 0.76099998 0.0026685731 1.6760425e-38 299 238
-0.026685731 0.76099998 0.0026685731 1.6942665e-38 300 238
-0.025284819 0.759 0.00266156 1.6758273e-38 301 238
-0.023954039 0.759 0.00266156 1.684867e-38 302 238
-0.02262326 0.759 0.00266156 1.6756475e-38 303 238
-0.02129248 0.759 0.00266156 1.6663556e-38 304 238
-0.0199617 0.759 0.00266156 1.6663556e-38 305 238
-0.018581826 0.75700003 0.0026545466 1.6939424e-38 306 238
-0.017254554 0.75700003 0.0026545466 1.6662837e-38 307 238
-0.015927281 0.75700003 0.0026545466 1.6753604e-38 308 238
-0.014561433 0.755 0.0026475333 1.6477377e-38 309 238
-0.013237666 0.755 0.0026475333 1.601712e-38 310 238
-0.011913899 0.755 0.0026475333 1.583237e-38 311 238
-0.010590133 0.755 0.0026475333 1.5648329e-38 312 238
-0.0092663663 0.755 0.0026475333 1.5372101e-38 313 238
-0.0079425992 0.755 0.0026475333 1.527955e-38 314 238
-0.0066188332 0.755 0.0026475333 1.4818932e-38 315 238
-0.0052950666 0.755 0.0026475333 1.4539486e-38 316 238
-0.0039712996 0.755 0.0026475333 1.3986312e-38 317 238
-0.0026475333 0.755 0.0026475333 1.3709745e-38 318 238
-0.0013237667 0.755 0.0026475333 1.3525352e-38 319 238
0 0.755 0.0026475333 1.3341684e-38 320 238
0.0013237667 0.755 0.0026475333 1.3341684e-38 321 238
0.0026545466 0.75700003 0.0026545466 1.3340237e-38 322 238
0.0039818203 0.75700003 0.0026545466 1.306401e-38 323 238
0.0053371461 0.76099998 0.0026685731 1.2879617e-38 324 238
0.0066538998 0.759 0.00266156 1.2694867e-38 325 238
0.0079846792 0.759 0.00266156 1.2327164e-38 326 238
0.00931546 0.759 0.00266156 1.2142771e-38 327 238
0.010674292 0.76099998 0.0026685731 1.1591399e-38 328 238
0.012008579 0.76099998 0.0026685731 1.1498845e-38 329 238
0.013342866 0.76099998 0.0026685731 1.1131507e-38 330 238
0.01469644 0.76200002 0.00267208 1.0947476e-38 331 238
0.01603248 0.76200002 0.00267208 1.0763446e-38 332 238
0.01736852 0.76200002 0.00267208 1.048722e-38 333 238
0.01870456 0.76200002 0.00267208 1.0027683e-38 334 238
0.020145798 0.76599997 0.0026861064 1.0119879e-38 335 238
0.021488851 0.76599997 0.0026861064 9.5692388e-39 336 238
0.022861714 0.76700002 0.0026896133 9.7536301e-39 337 238
0.024269639 0.76899999 0.0026966266 9.4799369e-39 338 238
0.025617953 0.76899999 0.0026966266 8.373948e-39 339 238
0.026966266 0.76899999 0.0026966266 8.2904166e-39 340 238
0.028461859 0.773 0.0027106532 1.4836306e-38 341 238
-0.044899363 0.77600002 0.0013605866 1.3646751e-38 287 239
-0.043426558 0.77399999 0.0013570799 1.5293619e-38 288 239
-0.042015124 0.773 0.0013553266 1.4556052e-38 289 239
-0.0404494 0.76899999 0.0013483133 1.6300156e-38 290 239
-0.039101087 0.76899999 0.0013483133 1.6207602e-38 291 239
-0.037654586 0.76700002 0.0013448066 1.648237e-38 292 239
-0.036309779 0.76700002 0.0013448066 1.648237e-38 293 239
-0.034919381 0.76599997 0.0013430532 1.6390527e-38 294 239
-0.033576332 0.76599997 0.0013430532 1.6206137e-38 295 239
-0.032233275 0.76599997 0.0013430532 1.6664966e-38 296 239
-0.030728921 0.76200002 0.00133604 1.6757163e-38 297 239
-0.029392879 0.76200002 0.00133604 1.666678e-38 298 239
-0.028020019 0.76099998 0.0013342865 1.6758976e-38 299 239
-0.026685731 0.76099998 0.0013342865 1.6758626e-38 300 239
-0.025284819 0.759 0.00133078 1.6482399e-38 301 239
-0.023954039 0.759 0.00133078 1.6755759e-38 302 239
-0.02262326 0.759 0.00133078 1.6571007e-38 303 239
-0.02129248 0.759 0.00133078 1.6753957e-38 304 239
-0.0199617 0.759 0.00133078 1.6753957e-38 305 239
-0.018581826 0.75700003 0.0013272733 1.7028746e-38 306 239
-0.017254554 0.75700003 0.0013272733 1.7028746e-38 307 239
-0.015927281 0.75700003 0.0013272733 1.6477743e-38 308 239
-0.014561433 0.755 0.0013237667 1.6385547e-38 309 239
-0.013237666 0.755 0.0013237667 1.6107884e-38 310 239
-0.011913899 0.755 0.0013237667 1.5739461e-38 311 239
-0.010590133 0.755 0.0013237667 1.5189156e-38 312 239
-0.0092663663 0.755 0.0013237667 1.5189156e-38 313 239
-0.0079425992 0.755 0.0013237667 1.5095161e-38 314 239
-0.0066188332 0.755 0.0013237667 1.4818576e-38 315 239
-0.0052950666 0.755 0.0013237667 1.4266492e-38 316 239
-0.0039712996 0.755 0.0013237667 1.3990265e-38 317 239
-0.0026475333 0.755 0.0013237667 1.3347061e-38 318 239
-0.0013237667 0.755 0.0013237667 1.2701692e-38 319 239
0 0.755 0.0013237667 1.3159796e-38 320 239
0.0013237667 0.755 0.0013237667 1.2698818e-38 321 239
0.0026545466 0.75700003 0.0013272733 1.2972536e-38 322 239
0.0039818203 0.75700003 0.0013272733 1.2787785e-38 323 239
0.0053231199 0.759 0.00133078 1.2511205e-38 324 239
0.0066538998 0.759 0.00133078 1.2419009e-38 325 239
0.0079846792 0.759 0.00133078 1.1959103e-38 326 239
0.00931546 0.759 0.00133078 1.1959103e-38 327 239
0.01064624 0.759 0.00133078 1.1315889e-38 328 239
0.012008579 0.76099998 0.0013342865 1.1223334e-38 329 239
0.013342866 0.76099998 0.0013342865 1.0855992e-38 330 239
0.014677152 0.76099998 0.0013342865 1.0763797e-38 331 239
0.01603248 0.76200002 0.00133604 1.0487936e-38 332 239
0.01736852 0.76200002 0.00133604 1.0303544e-38 333 239
0.01870456 0.76200002 0.00133604 9.936564e-39 334 239
0.020093199 0.764 0.0013395466 9.936564e-39 335 239
0.021488851 0.76599997 0.0013430532 9.6614218e-39 336 239
0.022861714 0.76700002 0.0013448066 9.6614218e-39 337 239
0.024269639 0.76899999 0.0013483133 9.2036863e-39 338 239
0.025617953 0.76899999 0.0013483133 8.5583169e-39 339 239
0.026966266 0.76899999 0.0013483133 6.7266712e-39 340 239
0.028461859 0.773 0.0013553266 1.2534996e-38 341 239
-0.044783637 0.77399999 -0 1.2542193e-38 287 240
-0.043370452 0.773 -0 1.501486e-38 288 240
-0.04190642 0.77100003 -0 1.4830469e-38 289 240
-0.0404494 0.76899999 -0 1.6023932e-38 290 240
-0.039101087 0.76899999 -0 1.5839901e-38 291 240
-0.037654586 0.76700002 -0 1.5930294e-38 292 240
-0.036262438 0.76599997 -0 1.5930294e-38 293 240
-0.034919381 0.76599997 -0 1.5836651e-38 294 240
-0.033576332 0.76599997 -0 1.5836651e-38 295 240
-0.032149121 0.764 -0 1.57459e-38 296 240
-0.030728921 0.76200002 -0 1.6022846e-38 297 240
-0.029354304 0.76099998 -0 1.6022154e-38 298 240
-0.028020019 0.76099998 -0 1.6022154e-38 299 240
-0.026685731 0.76099998 -0 1.61122e-38 300 240
-0.025284819 0.759 -0 1.61122e-38 301 240
-0.023954039 0.759 -0 1.61122e-38 302 240
-0.022563647 0.75700003 -0 1.6020004e-38 303 240
-0.021236373 0.75700003 -0 1.6202954e-38 304 240
-0.0199617 0.759 -0 1.6202954e-38 305 240
-0.018581826 0.75700003 -0 1.6385547e-38 306 240
-0.017254554 0.75700003 -0 1.6477743e-38 307 240
-0.015885198 0.755 -0 1.610933e-38 308 240
-0.014561433 0.755 -0 1.6017134e-38 309 240
-0.013237666 0.755 -0 1.5557228e-38 310 240
-0.011913899 0.755 -0 1.5281001e-38 311 240
-0.010590133 0.755 -0 1.5189156e-38 312 240
-0.0092663663 0.755 -0 1.5096959e-38 313 240
-0.0079425992 0.755 -0 1.5186638e-38 314 240
-0.0066100666 0.75400001 -0 1.4909691e-38 315 240
-0.0052880533 0.75400001 -0 1.4450868e-38 316 240
-0.0039712996 0.755 -0 1.4358672e-38 317 240
-0.0026475333 0.755 -0 1.389769e-38 318 240
-0.0013237667 0.755 -0 1.3436713e-38 319 240
0 0.755 -0 1.3067586e-38 320 240
0.0013237667 0.755 -0 1.279064e-38 321 240
0.0026545466 0.75700003 -0 1.2697024e-38 322 240
0.0039818203 0.75700003 -0 1.2512274e-38 323 240
0.0053231199 0.759 -0 1.2419362e-38 324 240
0.0066538998 0.759 -0 1.2234611e-38 325 240
0.0079846792 0.759 -0 1.2142768e-38 326 240
0.00931546 0.759 -0 1.1958737e-38 327 240
0.01064624 0.759 -0 1.1224406e-38 328 240
0.012008579 0.76099998 -0 1.1132211e-38 329 240
0.013342866 0.76099998 -0 1.0673033e-38 330 240
0.014677152 0.76099998 -0 1.0580838e-38 331 240
0.016011439 0.76099998 -0 1.0212425e-38 332 240
0.017345725 0.76099998 -0 1.0120229e-38 333 240
0.01870456 0.76200002 -0 1.0120232e-38 334 240
0.0200406 0.76200002 -0 1.0120232e-38 335 240
0.021432746 0.764 -0 9.6614218e-39 336 240
0.022861714 0.76700002 -0 9.5692262e-39 337 240
0.024206521 0.76700002 -0 8.9274721e-39 338 240
0.025617953 0.76899999 -0 8.7427221e-39 339 240
0.026966266 0.76899999 -0 7.8258259e-39 340 240
0.028314579 0.76899999 -0 1.1698042e-38 341 240
-0.044783637 0.77399999 -0.0013570799 1.2172324e-38 287 241
