# .PCD v.7 - Point Cloud Data file format
FIELDS x y z rgb imX imY
SIZE 4 4 4 4 4 4
TYPE F F F F F F
COUNT 1 1 1 1 1 1
WIDTH 838
HEIGHT 1
VIEWPOINT 0 0 0 1 0 0 0
POINTS 838
DATA ascii
0.029287677 0.69599998 -0.056134716 1.3067931e-38 344 286
0.030551834 0.69700003 -0.056215372 1.3344516e-38 345 286
0.03177391 0.69700003 -0.056215372 1.3253045e-38 346 286
0.033043321 0.69800001 -0.056296028 1.3621826e-38 347 286
0.034365334 0.69999999 -0.056457333 1.3163735e-38 348 286
0.035592664 0.69999999 -0.056457333 1.3532877e-38 349 286
0.036872596 0.70099998 -0.056537982 1.3259177e-38 350 286
0.038210396 0.70300001 -0.056699295 1.3166982e-38 351 286
0.039499093 0.704 -0.056779943 1.2893307e-38 352 286
0.040733438 0.704 -0.056779943 1.7042111e-38 353 286
0.041967787 0.704 -0.056779943 1.6591969e-38 354 286
0.043202132 0.704 -0.056779943 1.8620275e-38 355 286
-0.03332736 0.704 -0.058014292 1.5948046e-38 293 287
-0.032093015 0.704 -0.058014292 1.1418918e-38 294 287
-0.030858666 0.704 -0.058014292 1.0957941e-38 295 287
-0.029624319 0.704 -0.058014292 1.2425846e-38 296 287
-0.028349647 0.70300001 -0.057931885 1.1780477e-38 297 287
-0.027117053 0.70300001 -0.057931885 1.1503885e-38 298 287
-0.025810819 0.70099998 -0.057767071 1.1135104e-38 299 287
-0.024546666 0.69999999 -0.05768466 1.1135104e-38 300 287
-0.023252707 0.69800001 -0.057519849 1.1042909e-38 301 287
-0.02202888 0.69800001 -0.057519849 1.1409166e-38 302 287
-0.020805053 0.69800001 -0.057519849 1.1225135e-38 303 287
-0.019553173 0.69700003 -0.05743745 1.0948192e-38 304 287
-0.018331099 0.69700003 -0.05743745 1.0855997e-38 305 287
-0.017084479 0.69599998 -0.057355035 9.6610687e-39 306 287
-0.015864158 0.69599998 -0.057355035 9.6610687e-39 307 287
-0.01460176 0.69400001 -0.057190225 9.6617904e-39 308 287
-0.013384946 0.69400001 -0.057190225 1.0030574e-38 309 287
-0.012150601 0.69300002 -0.057107817 1.1593197e-38 310 287
-0.01090398 0.69099998 -0.056942999 1.1869425e-38 311 287
-0.0096924258 0.69099998 -0.056942999 1.2053451e-38 312 287
-0.0084686 0.69 -0.0568606 1.1961255e-38 313 287
-0.0072587994 0.69 -0.0568606 1.1960905e-38 314 287
-0.0060314666 0.68800002 -0.056695789 1.2053101e-38 315 287
-0.0048251734 0.68800002 -0.056695789 1.232968e-38 316 287
-0.0036188802 0.68800002 -0.056695789 1.2606627e-38 317 287
-0.0024125867 0.68800002 -0.056695789 1.2699527e-38 318 287
-0.0012062934 0.68800002 -0.056695789 1.2883558e-38 319 287
0 0.68800002 -0.056695789 1.2975032e-38 320 287
0.0012062934 0.68800002 -0.056695789 1.2882836e-38 321 287
0.0024125867 0.68800002 -0.056695789 1.2790287e-38 322 287
0.0036188802 0.68800002 -0.056695789 1.2790287e-38 323 287
0.0048251734 0.68800002 -0.056695789 1.2789574e-38 324 287
0.0060226996 0.68699998 -0.056613375 1.2697018e-38 325 287
0.0072272392 0.68699998 -0.056613375 1.2422229e-38 326 287
0.0084317802 0.68699998 -0.056613375 1.2422229e-38 327 287
0.0096363192 0.68699998 -0.056613375 1.242258e-38 328 287
0.010840859 0.68699998 -0.056613375 1.242258e-38 329 287
0.012062933 0.68800002 -0.056695789 1.2698445e-38 330 287
0.013269227 0.68800002 -0.056695789 1.2698445e-38 331 287
0.014475521 0.68800002 -0.056695789 1.2789922e-38 332 287
0.015681813 0.68800002 -0.056695789 1.2789922e-38 333 287
0.0169372 0.69 -0.0568606 1.2789917e-38 334 287
0.018146999 0.69 -0.0568606 1.2697722e-38 335 287
0.019356798 0.69 -0.0568606 1.2788838e-38 336 287
0.020566599 0.69 -0.0568606 1.2788838e-38 337 287
0.021776399 0.69 -0.0568606 1.2606245e-38 338 287
0.023019511 0.69099998 -0.056942999 1.2698441e-38 339 287
0.024231065 0.69099998 -0.056942999 1.2515849e-38 340 287
0.02551626 0.69300002 -0.057107817 1.2608044e-38 341 287
0.026769891 0.69400001 -0.057190225 1.2608397e-38 342 287
0.028067358 0.69599998 -0.057355035 1.2792789e-38 343 287
0.02932976 0.69700003 -0.05743745 1.2793861e-38 344 287
0.030551834 0.69700003 -0.05743745 1.2978253e-38 345 287
0.031819493 0.69800001 -0.057519849 1.2795307e-38 346 287
0.033043321 0.69800001 -0.057519849 1.2980057e-38 347 287
0.034365334 0.69999999 -0.05768466 1.3072985e-38 348 287
0.035592664 0.69999999 -0.05768466 1.3257735e-38 349 287
0.036872596 0.70099998 -0.057767071 1.325955e-38 350 287
0.038210396 0.70300001 -0.057931885 1.3443941e-38 351 287
0.039499093 0.704 -0.058014292 1.3355011e-38 352 287
0.040733438 0.704 -0.058014292 1.7227227e-38 353 287
0.041967787 0.704 -0.058014292 1.7052229e-38 354 287
0.043324865 0.70599997 -0.058179103 1.8527359e-38 355 287
-0.032093015 0.704 -0.059248637 1.1605108e-38 294 288
-0.030858666 0.704 -0.059248637 1.1236326e-38 295 288
-0.029624319 0.704 -0.059248637 1.1692244e-38 296 288
-0.028349647 0.70300001 -0.059164476 1.1231266e-38 297 288
-0.027117053 0.70300001 -0.059164476 1.1320583e-38 298 288
-0.025810819 0.70099998 -0.058996156 1.1044356e-38 299 288
-0.024546666 0.69999999 -0.058911994 1.1042556e-38 300 288
-0.023252707 0.69800001 -0.058743682 1.1042556e-38 301 288
-0.02202888 0.69800001 -0.058743682 1.1501362e-38 302 288
-0.020805053 0.69800001 -0.058743682 1.1225135e-38 303 288
-0.019553173 0.69700003 -0.05865952 1.0582637e-38 304 288
-0.018331099 0.69700003 -0.05865952 1.0398244e-38 305 288
-0.017084479 0.69599998 -0.058575355 9.5713744e-39 306 288
-0.015818574 0.69400001 -0.058407038 9.2947875e-39 307 288
-0.01460176 0.69400001 -0.058407038 9.7525384e-39 308 288
-0.01336566 0.69300002 -0.058322877 1.0029125e-38 309 288
-0.012150601 0.69300002 -0.058322877 1.0857794e-38 310 288
-0.01090398 0.69099998 -0.058154557 1.1042544e-38 311 288
-0.0096924258 0.69099998 -0.058154557 1.1776863e-38 312 288
-0.0084686 0.69 -0.058070395 1.1684308e-38 313 288
-0.0072587994 0.69 -0.058070395 1.1866907e-38 314 288
-0.0060314666 0.68800002 -0.057902083 1.1959103e-38 315 288
-0.0048251734 0.68800002 -0.057902083 1.2053454e-38 316 288
-0.0036188802 0.68800002 -0.057902083 1.2421876e-38 317 288
-0.0024125867 0.68800002 -0.057902083 1.279029e-38 318 288
-0.0012062934 0.68800002 -0.057902083 1.279029e-38 319 288
0 0.68800002 -0.057902083 1.2790287e-38 320 288
0.0012062934 0.68800002 -0.057902083 1.2698092e-38 321 288
0.0024125867 0.68800002 -0.057902083 1.2697374e-38 322 288
0.0036188802 0.68800002 -0.057902083 1.2605179e-38 323 288
0.0048251734 0.68800002 -0.057902083 1.2604823e-38 324 288
0.0060314666 0.68800002 -0.057902083 1.2512627e-38 325 288
0.0072377604 0.68800002 -0.057902083 1.2330034e-38 326 288
0.0084440531 0.68800002 -0.057902083 1.2330034e-38 327 288
0.0096503468 0.68800002 -0.057902083 1.2421508e-38 328 288
0.010856641 0.68800002 -0.057902083 1.2421508e-38 329 288
0.012062933 0.68800002 -0.057902083 1.2512977e-38 330 288
0.013269227 0.68800002 -0.057902083 1.2512977e-38 331 288
0.014475521 0.68800002 -0.057902083 1.2604807e-38 332 288
0.015681813 0.68800002 -0.057902083 1.2881034e-38 333 288
0.0169372 0.69 -0.058070395 1.2789194e-38 334 288
0.018146999 0.69 -0.058070395 1.288139e-38 335 288
0.019356798 0.69 -0.058070395 1.2789191e-38 336 288
0.020566599 0.69 -0.058070395 1.260516e-38 337 288
0.021776399 0.69 -0.058070395 1.2605879e-38 338 288
0.023019511 0.69099998 -0.058154557 1.2698075e-38 339 288
0.024231065 0.69099998 -0.058154557 1.2423286e-38 340 288
0.02551626 0.69300002 -0.058322877 1.2515481e-38 341 288
0.026769891 0.69400001 -0.058407038 1.2608032e-38 342 288
0.028067358 0.69599998 -0.058575355 1.2884258e-38 343 288
0.029371841 0.69800001 -0.058743682 1.2702741e-38 344 288
0.030595668 0.69800001 -0.058743682 1.2979328e-38 345 288
0.031819493 0.69800001 -0.058743682 1.2887858e-38 346 288
0.033043321 0.69800001 -0.058743682 1.3164085e-38 347 288
0.034365334 0.69999999 -0.058911994 1.3073341e-38 348 288
0.035592664 0.69999999 -0.058911994 1.3349928e-38 349 288
0.036872596 0.70099998 -0.058996156 1.3534692e-38 350 288
0.038210396 0.70300001 -0.059164476 1.3626888e-38 351 288
0.039499093 0.704 -0.059248637 1.3630521e-38 352 288
0.040733438 0.704 -0.059248637 1.7871522e-38 353 288
0.041967787 0.704 -0.059248637 1.7329902e-38 354 288
0.043202132 0.704 -0.059248637 1.7975271e-38 355 288
-0.032093015 0.704 -0.060482983 1.2345547e-38 294 289
-0.030858666 0.704 -0.060482983 1.1423232e-38 295 289
-0.029624319 0.704 -0.060482983 1.1969908e-38 296 289
-0.028389972 0.704 -0.060482983 1.1231985e-38 297 289
-0.027117053 0.70300001 -0.06039707 1.1412065e-38 298 289
-0.025810819 0.70099998 -0.060225245 1.113512e-38 299 289
-0.024546666 0.69999999 -0.060139328 1.1043274e-38 300 289
-0.023252707 0.69800001 -0.059967503 1.0859243e-38 301 289
-0.02202888 0.69800001 -0.059967503 1.1225854e-38 302 289
-0.020805053 0.69800001 -0.059967503 1.1225854e-38 303 289
-0.019581227 0.69800001 -0.059967503 1.0858498e-38 304 289
-0.018331099 0.69700003 -0.05988159 1.0674107e-38 305 289
-0.017084479 0.69599998 -0.059795678 9.9379891e-39 306 289
-0.015818574 0.69400001 -0.059623852 9.8454347e-39 307 289
-0.01460176 0.69400001 -0.059623852 9.2940784e-39 308 289
-0.01336566 0.69300002 -0.05953794 9.5710241e-39 309 289
-0.012150601 0.69300002 -0.05953794 1.0489735e-38 310 289
-0.010935539 0.69300002 -0.05953794 1.0858516e-38 311 289
-0.0096924258 0.69099998 -0.059366114 1.1408447e-38 312 289
-0.0084686 0.69 -0.059280202 1.1316252e-38 313 289
-0.0072587994 0.69 -0.059280202 1.0947126e-38 314 289
-0.0060314666 0.68800002 -0.059108373 1.1223353e-38 315 289
-0.0048251734 0.68800002 -0.059108373 1.1226227e-38 316 289
-0.0036188802 0.68800002 -0.059108373 1.1595009e-38 317 289
-0.0024125867 0.68800002 -0.059108373 1.2146731e-38 318 289
-0.0012062934 0.68800002 -0.059108373 1.2239287e-38 319 289
0 0.68800002 -0.059108373 1.2514429e-38 320 289
0.0012062934 0.68800002 -0.059108373 1.2514429e-38 321 289
0.0024125867 0.68800002 -0.059108373 1.2330034e-38 322 289
0.0036188802 0.68800002 -0.059108373 1.2330034e-38 323 289
0.0048251734 0.68800002 -0.059108373 1.2328959e-38 324 289
0.0060314666 0.68800002 -0.059108373 1.2328959e-38 325 289
0.0072377604 0.68800002 -0.059108373 1.2237482e-38 326 289
0.0084440531 0.68800002 -0.059108373 1.2053451e-38 327 289
0.0096503468 0.68800002 -0.059108373 1.2237838e-38 328 289
0.010856641 0.68800002 -0.059108373 1.2237838e-38 329 289
0.012062933 0.68800002 -0.059108373 1.2237113e-38 330 289
0.013269227 0.68800002 -0.059108373 1.2237113e-38 331 289
0.014475521 0.68800002 -0.059108373 1.2512258e-38 332 289
0.015727401 0.69 -0.059280202 1.2788844e-38 333 289
0.0169372 0.69 -0.059280202 1.2605526e-38 334 289
0.018146999 0.69 -0.059280202 1.2605526e-38 335 289
0.019356798 0.69 -0.059280202 1.2605163e-38 336 289
0.020566599 0.69 -0.059280202 1.2605163e-38 337 289
0.021807959 0.69099998 -0.059366114 1.2422211e-38 338 289
0.023019511 0.69099998 -0.059366114 1.2422211e-38 339 289
0.024301201 0.69300002 -0.05953794 1.2423286e-38 340 289
0.02551626 0.69300002 -0.05953794 1.2515481e-38 341 289
0.026769891 0.69400001 -0.059623852 1.2425082e-38 342 289
0.028067358 0.69599998 -0.059795678 1.2701668e-38 343 289
0.029371841 0.69800001 -0.059967503 1.2702747e-38 344 289
0.030595668 0.69800001 -0.059967503 1.3071171e-38 345 289
0.031819493 0.69800001 -0.059967503 1.2704912e-38 346 289
0.033043321 0.69800001 -0.059967503 1.2889303e-38 347 289
0.034365334 0.69999999 -0.060139328 1.3165186e-38 348 289
0.035643511 0.70099998 -0.060225245 1.3441773e-38 349 289
0.036872596 0.70099998 -0.060225245 1.3351746e-38 350 289
0.038210396 0.70300001 -0.06039707 1.3536137e-38 351 289
0.039499093 0.704 -0.060482983 1.3539769e-38 352 289
0.040733438 0.704 -0.060482983 1.8518332e-38 353 289
0.041967787 0.704 -0.060482983 1.7791243e-38 354 289
0.043202132 0.704 -0.060482983 1.7791243e-38 355 289
-0.032184184 0.70599997 -0.061892662 1.3637721e-38 294 290
-0.030946331 0.70599997 -0.061892662 1.1517582e-38 295 290
-0.029624319 0.704 -0.061717331 1.2154304e-38 296 290
-0.028389972 0.704 -0.061717331 1.1324183e-38 297 290
-0.027117053 0.70300001 -0.061629668 1.0675944e-38 298 290
-0.025810819 0.70099998 -0.06145433 1.0675944e-38 299 290
-0.024546666 0.69999999 -0.061366666 1.1043277e-38 300 290
-0.023252707 0.69800001 -0.061191335 1.0859246e-38 301 290
-0.02202888 0.69800001 -0.061191335 1.1226573e-38 302 290
-0.020805053 0.69800001 -0.061191335 1.1042542e-38 303 290
-0.019553173 0.69700003 -0.061103668 1.0858145e-38 304 290
-0.018331099 0.69700003 -0.061103668 1.0581556e-38 305 290
-0.017084479 0.69599998 -0.061015997 9.93728e-39 306 290
-0.015818574 0.69400001 -0.060840666 9.8450844e-39 307 290
-0.01460176 0.69400001 -0.060840666 9.5688703e-39 308 290
-0.01336566 0.69300002 -0.060752999 9.7536203e-39 309 290
-0.012150601 0.69300002 -0.060752999 1.0397539e-38 310 290
-0.010935539 0.69300002 -0.060752999 1.0581931e-38 311 290
-0.0096783992 0.69 -0.060489997 1.1224056e-38 312 290
-0.0084686 0.69 -0.060489997 1.0947828e-38 313 290
-0.0072587994 0.69 -0.060489997 1.0946043e-38 314 290
-0.0060314666 0.68800002 -0.060314666 1.1130435e-38 315 290
-0.0048251734 0.68800002 -0.060314666 1.1132952e-38 316 290
-0.0036188802 0.68800002 -0.060314666 1.1502095e-38 317 290
-0.0024125867 0.68800002 -0.060314666 1.1777956e-38 318 290
-0.0012062934 0.68800002 -0.060314666 1.2146737e-38 319 290
0 0.68800002 -0.060314666 1.232933e-38 320 290
0.0012062934 0.68800002 -0.060314666 1.232933e-38 321 290
0.0024125867 0.68800002 -0.060314666 1.2146368e-38 322 290
0.0036188802 0.68800002 -0.060314666 1.1961977e-38 323 290
0.0048251734 0.68800002 -0.060314666 1.2144568e-38 324 290
0.0060314666 0.68800002 -0.060314666 1.2144568e-38 325 290
0.0072377604 0.68800002 -0.060314666 1.1961255e-38 326 290
0.0084440531 0.68800002 -0.060314666 1.1961255e-38 327 290
0.0096503468 0.68800002 -0.060314666 1.2053448e-38 328 290
0.010856641 0.68800002 -0.060314666 1.2053448e-38 329 290
0.012062933 0.68800002 -0.060314666 1.2145274e-38 330 290
0.013269227 0.68800002 -0.060314666 1.2145274e-38 331 290
0.014517599 0.69 -0.060489997 1.242006e-38 332 290
0.015727401 0.69 -0.060489997 1.2512614e-38 333 290
0.0169372 0.69 -0.060489997 1.2513333e-38 334 290
0.018146999 0.69 -0.060489997 1.2513333e-38 335 290
0.019356798 0.69 -0.060489997 1.2512612e-38 336 290
0.020566599 0.69 -0.060489997 1.2604807e-38 337 290
0.021807959 0.69099998 -0.060577665 1.2330015e-38 338 290
0.02308614 0.69300002 -0.060752999 1.2422211e-38 339 290
0.024301201 0.69300002 -0.060752999 1.2239618e-38 340 290
0.02551626 0.69300002 -0.060752999 1.2423649e-38 341 290
0.026769891 0.69400001 -0.060840666 1.2242492e-38 342 290
0.028067358 0.69599998 -0.061015997 1.2518718e-38 343 290
0.029371841 0.69800001 -0.061191335 1.2610917e-38 344 290
0.030595668 0.69800001 -0.061191335 1.2887505e-38 345 290
0.031819493 0.69800001 -0.061191335 1.2704206e-38 346 290
0.033043321 0.69800001 -0.061191335 1.2888957e-38 347 290
0.034365334 0.69999999 -0.061366666 1.3073717e-38 348 290
0.035643511 0.70099998 -0.06145433 1.344214e-38 349 290
0.036977798 0.70300001 -0.061629668 1.3627253e-38 350 290
0.038264744 0.704 -0.061717331 1.39042e-38 351 290
0.039499093 0.704 -0.061717331 1.4000746e-38 352 290
0.040733438 0.704 -0.061717331 1.897967e-38 353 290
0.041967787 0.704 -0.061717331 1.7975274e-38 354 290
0.043202132 0.704 -0.061717331 1.7606491e-38 355 290
-0.030858666 0.704 -0.062951677 1.2992001e-38 295 291
-0.029624319 0.704 -0.062951677 1.2614925e-38 296 291
-0.028389972 0.704 -0.062951677 1.1600414e-38 297 291
-0.027117053 0.70300001 -0.062862262 1.0493706e-38 298 291
-0.025810819 0.70099998 -0.062683418 1.0769933e-38 299 291
-0.024546666 0.69999999 -0.062593997 1.0952158e-38 300 291
-0.023252707 0.69800001 -0.062415157 1.0859962e-38 301 291
-0.02202888 0.69800001 -0.062415157 1.1043258e-38 302 291
-0.020805053 0.69800001 -0.062415157 1.0951062e-38 303 291
-0.019553173 0.69700003 -0.062325738 1.0765233e-38 304 291
-0.018331099 0.69700003 -0.062325738 1.0580482e-38 305 291
-0.017084479 0.69599998 -0.062236317 9.936564e-39 306 291
-0.015818574 0.69400001 -0.06205748 9.8443683e-39 307 291
-0.01460176 0.69400001 -0.06205748 9.6614246e-39 308 291
-0.01336566 0.69300002 -0.061968062 9.8458159e-39 309 291
-0.012150601 0.69300002 -0.061968062 1.0397542e-38 310 291
-0.010935539 0.69300002 -0.061968062 1.0489738e-38 311 291
-0.0096783992 0.69 -0.061699796 1.0947473e-38 312 291
-0.0084686 0.69 -0.061699796 1.0763081e-38 313 291
-0.0072587994 0.69 -0.061699796 1.0855999e-38 314 291
-0.0060314666 0.68800002 -0.06152096 1.1040391e-38 315 291
-0.0048251734 0.68800002 -0.06152096 1.1042905e-38 316 291
-0.0036188802 0.68800002 -0.06152096 1.1319852e-38 317 291
-0.0024125867 0.68800002 -0.06152096 1.1870507e-38 318 291
-0.0012062934 0.68800002 -0.06152096 1.1870507e-38 319 291
0 0.68800002 -0.06152096 1.2053822e-38 320 291
0.0012062934 0.68800002 -0.06152096 1.2053822e-38 321 291
0.0024125867 0.68800002 -0.06152096 1.2053817e-38 322 291
0.0036188802 0.68800002 -0.06152096 1.1961621e-38 323 291
0.0048251734 0.68800002 -0.06152096 1.1961255e-38 324 291
0.0060314666 0.68800002 -0.06152096 1.2053451e-38 325 291
0.0072377604 0.68800002 -0.06152096 1.1961252e-38 326 291
0.0084440531 0.68800002 -0.06152096 1.2053448e-38 327 291
0.0096503468 0.68800002 -0.06152096 1.1961606e-38 328 291
0.010856641 0.68800002 -0.06152096 1.1961606e-38 329 291
0.012062933 0.68800002 -0.06152096 1.1961959e-38 330 291
0.0133078 0.69 -0.061699796 1.1961959e-38 331 291
0.014517599 0.69 -0.061699796 1.2236748e-38 332 291
0.015727401 0.69 -0.061699796 1.2420779e-38 333 291
0.0169372 0.69 -0.061699796 1.2420779e-38 334 291
0.018146999 0.69 -0.061699796 1.2420779e-38 335 291
0.019384852 0.69099998 -0.061789215 1.2330018e-38 336 291
0.020596405 0.69099998 -0.061789215 1.2330018e-38 337 291
0.021807959 0.69099998 -0.061789215 1.2238185e-38 338 291
0.02308614 0.69300002 -0.061968062 1.2330381e-38 339 291
0.024301201 0.69300002 -0.061968062 1.2055589e-38 340 291
0.025553079 0.69400001 -0.06205748 1.2332536e-38 341 291
0.026769891 0.69400001 -0.06205748 1.2242136e-38 342 291
0.028067358 0.69599998 -0.062236317 1.2334331e-38 343 291
0.029371841 0.69800001 -0.062415157 1.2519802e-38 344 291
0.030595668 0.69800001 -0.062415157 1.2796028e-38 345 291
0.031819493 0.69800001 -0.062415157 1.2887871e-38 346 291
0.033137999 0.69999999 -0.062593997 1.3164818e-38 347 291
0.034365334 0.69999999 -0.062593997 1.3257745e-38 348 291
0.035745207 0.70300001 -0.062862262 1.3442496e-38 349 291
0.037030395 0.704 -0.062951677 1.3443944e-38 350 291
0.038264744 0.704 -0.062951677 1.4642487e-38 351 291
0.039499093 0.704 -0.062951677 1.5383331e-38 352 291
0.040733438 0.704 -0.062951677 1.9439939e-38 353 291
0.042087011 0.70599997 -0.063130513 1.7423898e-38 354 291
-0.030858666 0.704 -0.064186029 1.4283117e-38 295 292
-0.029624319 0.704 -0.064186029 1.2524178e-38 296 292
-0.028389972 0.704 -0.064186029 1.1601861e-38 297 292
-0.027117053 0.70300001 -0.064094849 1.0862835e-38 298 292
-0.025810819 0.70099998 -0.063912503 1.0862835e-38 299 292
-0.024581732 0.70099998 -0.063912503 1.1320924e-38 300 292
-0.023252707 0.69800001 -0.063638985 1.1228728e-38 301 292
-0.02202888 0.69800001 -0.063638985 1.14106e-38 302 292
-0.020805053 0.69800001 -0.063638985 1.1041816e-38 303 292
-0.019553173 0.69700003 -0.06354782 1.0765233e-38 304 292
-0.018331099 0.69700003 -0.06354782 1.0580482e-38 305 292
-0.017035386 0.69400001 -0.063274294 1.0029113e-38 306 292
-0.015818574 0.69400001 -0.063274294 1.0029113e-38 307 292
-0.01460176 0.69400001 -0.063274294 9.9372828e-39 308 292
-0.01336566 0.69300002 -0.063183114 1.0029478e-38 309 292
-0.012150601 0.69300002 -0.063183114 1.0673047e-38 310 292
-0.010935539 0.69300002 -0.063183114 1.0580852e-38 311 292
-0.0096924258 0.69099998 -0.063000768 1.1038235e-38 312 292
-0.0084686 0.69 -0.062909603 1.094604e-38 313 292
-0.0072587994 0.69 -0.062909603 1.0397539e-38 314 292
-0.0060314666 0.68800002 -0.06272725 1.0858516e-38 315 292
-0.0048251734 0.68800002 -0.06272725 1.1135455e-38 316 292
-0.0036188802 0.68800002 -0.06272725 1.1320205e-38 317 292
-0.0024125867 0.68800002 -0.06272725 1.1595359e-38 318 292
-0.0012062934 0.68800002 -0.06272725 1.1595359e-38 319 292
0 0.68800002 -0.06272725 1.1687558e-38 320 292
0.0012062934 0.68800002 -0.06272725 1.1595362e-38 321 292
0.0024125867 0.68800002 -0.06272725 1.1779025e-38 322 292
0.0036188802 0.68800002 -0.06272725 1.1779025e-38 323 292
0.0048251734 0.68800002 -0.06272725 1.1962327e-38 324 292
0.0060314666 0.68800002 -0.06272725 1.1962327e-38 325 292
0.0072377604 0.68800002 -0.06272725 1.1778656e-38 326 292
0.0084440531 0.68800002 -0.06272725 1.1686461e-38 327 292
0.0096503468 0.68800002 -0.06272725 1.1870126e-38 328 292
0.010888199 0.69 -0.062909603 1.1870126e-38 329 292
0.012097999 0.69 -0.062909603 1.1870476e-38 330 292
0.013327086 0.69099998 -0.063000768 1.1870476e-38 331 292
0.014538639 0.69099998 -0.063000768 1.2145268e-38 332 292
0.015750192 0.69099998 -0.063000768 1.2237823e-38 333 292
0.016961746 0.69099998 -0.063000768 1.2237469e-38 334 292
0.0181733 0.69099998 -0.063000768 1.2237469e-38 335 292
0.019384852 0.69099998 -0.063000768 1.2054873e-38 336 292
0.020596405 0.69099998 -0.063000768 1.2054873e-38 337 292
0.021871079 0.69300002 -0.063183114 1.1871205e-38 338 292
0.02308614 0.69300002 -0.063183114 1.2055595e-38 339 292
0.024301201 0.69300002 -0.063183114 1.1689331e-38 340 292
0.025553079 0.69400001 -0.063274294 1.1781528e-38 341 292
0.026769891 0.69400001 -0.063274294 1.1966994e-38 342 292
0.028107686 0.69700003 -0.06354782 1.2059189e-38 343 292
0.029371841 0.69800001 -0.063638985 1.2427251e-38 344 292
0.030683333 0.69999999 -0.063821331 1.2795675e-38 345 292
0.031910665 0.69999999 -0.063821331 1.3072265e-38 346 292
0.033137999 0.69999999 -0.063821331 1.3257016e-38 347 292
0.034414422 0.70099998 -0.063912503 1.3166628e-38 348 292
0.035796054 0.704 -0.064186029 1.335138e-38 349 292
0.037030395 0.704 -0.064186029 1.3535789e-38 350 292
0.038264744 0.704 -0.064186029 1.5748126e-38 351 292
0.039611302 0.70599997 -0.064368367 1.5940115e-38 352 292
0.040849157 0.70599997 -0.064368367 1.8798538e-38 353 292
0.042087011 0.70599997 -0.064368367 1.7331349e-38 354 292
-0.029624319 0.704 -0.065420374 1.2340147e-38 296 293
-0.028389972 0.704 -0.065420374 1.1786973e-38 297 293
-0.027117053 0.70300001 -0.065327443 1.1601843e-38 298 293
-0.025884461 0.70300001 -0.065327443 1.0956474e-38 299 293
-0.024581732 0.70099998 -0.065141588 1.1504964e-38 300 293
-0.023252707 0.69800001 -0.06486281 1.1412769e-38 301 293
-0.02202888 0.69800001 -0.06486281 1.1227653e-38 302 293
-0.020805053 0.69800001 -0.06486281 1.0951065e-38 303 293
-0.019581227 0.69800001 -0.06486281 1.0490807e-38 304 293
-0.018331099 0.69700003 -0.064769886 1.0214579e-38 305 293
-0.017035386 0.69400001 -0.064491108 1.0030553e-38 306 293
-0.015818574 0.69400001 -0.064491108 9.7539678e-39 307 293
-0.01460176 0.69400001 -0.064491108 9.7546866e-39 308 293
-0.01336566 0.69300002 -0.064398177 9.939438e-39 309 293
-0.012150601 0.69300002 -0.064398177 1.0490807e-38 310 293
-0.01090398 0.69099998 -0.06421233 1.0398611e-38 311 293
-0.0096924258 0.69099998 -0.06421233 1.0763799e-38 312 293
-0.0084686 0.69 -0.064119399 1.0579768e-38 313 293
-0.0072587994 0.69 -0.064119399 1.0949267e-38 314 293
-0.0060314666 0.68800002 -0.063933544 1.1225854e-38 315 293
-0.0048251734 0.68800002 -0.063933544 1.1410965e-38 316 293
-0.0036188802 0.68800002 -0.063933544 1.150352e-38 317 293
-0.0024125867 0.68800002 -0.063933544 1.1595362e-38 318 293
-0.0012062934 0.68800002 -0.063933544 1.1503167e-38 319 293
0 0.68800002 -0.063933544 1.1686479e-38 320 293
0.0012062934 0.68800002 -0.063933544 1.1778674e-38 321 293
0.0024125867 0.68800002 -0.063933544 1.1779025e-38 322 293
0.0036188802 0.68800002 -0.063933544 1.1686829e-38 323 293
0.0048251734 0.68800002 -0.063933544 1.1778659e-38 324 293
0.0060314666 0.68800002 -0.063933544 1.1778659e-38 325 293
0.0072377604 0.68800002 -0.063933544 1.1870132e-38 326 293
0.0084440531 0.68800002 -0.063933544 1.1870132e-38 327 293
0.0096503468 0.68800002 -0.063933544 1.1870132e-38 328 293
0.010888199 0.69 -0.064119399 1.1870132e-38 329 293
0.012097999 0.69 -0.064119399 1.1961603e-38 330 293
0.013327086 0.69099998 -0.06421233 1.1961603e-38 331 293
0.014580719 0.69300002 -0.064398177 1.2144918e-38 332 293
0.015795778 0.69300002 -0.064398177 1.2144918e-38 333 293
0.01701084 0.69300002 -0.064398177 1.2053804e-38 334 293
0.018225901 0.69300002 -0.064398177 1.2237835e-38 335 293
0.01944096 0.69300002 -0.064398177 1.2053801e-38 336 293
0.020656019 0.69300002 -0.064398177 1.2237832e-38 337 293
0.021871079 0.69300002 -0.064398177 1.187193e-38 338 293
0.02308614 0.69300002 -0.064398177 1.187193e-38 339 293
0.024301201 0.69300002 -0.064398177 1.1781528e-38 340 293
0.025553079 0.69400001 -0.064491108 1.1874082e-38 341 293
0.026847038 0.69599998 -0.064676955 1.1966991e-38 342 293
0.028107686 0.69700003 -0.064769886 1.2151741e-38 343 293
0.029371841 0.69800001 -0.06486281 1.2702041e-38 344 293
0.030683333 0.69999999 -0.065048665 1.3070823e-38 345 293
0.031910665 0.69999999 -0.065048665 1.3254864e-38 346 293
0.033137999 0.69999999 -0.065048665 1.3808038e-38 347 293
0.034414422 0.70099998 -0.065141588 1.3442143e-38 348 293
0.035796054 0.704 -0.065420374 1.371873e-38 349 293
0.037030395 0.704 -0.065420374 1.3444684e-38 350 293
0.038264744 0.704 -0.065420374 1.6394943e-38 351 293
0.039611302 0.70599997 -0.065606222 1.631214e-38 352 293
0.040849157 0.70599997 -0.065606222 1.8156052e-38 353 293
-0.029624319 0.704 -0.066654719 1.3449371e-38 296 294
-0.028389972 0.704 -0.066654719 1.1974241e-38 297 294
-0.027117053 0.70300001 -0.066560037 1.2247213e-38 298 294
-0.025810819 0.70099998 -0.066370681 1.1694398e-38 299 294
-0.024581732 0.70099998 -0.066370681 1.2149608e-38 300 294
-0.023319334 0.69999999 -0.066275999 1.1780827e-38 301 294
-0.02202888 0.69800001 -0.066086642 1.168718e-38 302 294
-0.020805053 0.69800001 -0.066086642 1.1503148e-38 303 294
-0.019581227 0.69800001 -0.066086642 1.1043961e-38 304 294
-0.018331099 0.69700003 -0.06599196 1.0675539e-38 305 294
-0.017084479 0.69599998 -0.065897278 1.0214929e-38 306 294
-0.015818574 0.69400001 -0.065707922 1.0122733e-38 307 294
-0.01460176 0.69400001 -0.065707922 9.5717275e-39 308 294
-0.01336566 0.69300002 -0.06561324 9.9401513e-39 309 294
-0.012150601 0.69300002 -0.06561324 1.0765949e-38 310 294
-0.01090398 0.69099998 -0.065423876 1.0765949e-38 311 294
-0.0096924258 0.69099998 -0.065423876 1.1223687e-38 312 294
-0.0084686 0.69 -0.065329194 1.1315883e-38 313 294
-0.0072587994 0.69 -0.065329194 1.0858866e-38 314 294
-0.0060489997 0.69 -0.065329194 1.1135455e-38 315 294
-0.0048251734 0.68800002 -0.065139838 1.1227656e-38 316 294
-0.0036188802 0.68800002 -0.065139838 1.1319852e-38 317 294
-0.0024125867 0.68800002 -0.065139838 1.1319498e-38 318 294
-0.0012062934 0.68800002 -0.065139838 1.150353e-38 319 294
0 0.68800002 -0.065139838 1.1319498e-38 320 294
0.0012062934 0.68800002 -0.065139838 1.150353e-38 321 294
0.0024125867 0.68800002 -0.065139838 1.1595715e-38 322 294
0.0036188802 0.68800002 -0.065139838 1.150352e-38 323 294
0.0048251734 0.68800002 -0.065139838 1.1687185e-38 324 294
0.0060314666 0.68800002 -0.065139838 1.1502795e-38 325 294
0.0072377604 0.68800002 -0.065139838 1.1777583e-38 326 294
0.0084440531 0.68800002 -0.065139838 1.1869779e-38 327 294
0.0096503468 0.68800002 -0.065139838 1.186906e-38 328 294
0.010888199 0.69 -0.065329194 1.186906e-38 329 294
0.012097999 0.69 -0.065329194 1.1870132e-38 330 294
0.013327086 0.69099998 -0.065423876 1.1870132e-38 331 294
0.014580719 0.69300002 -0.06561324 1.1779012e-38 332 294
0.015795778 0.69300002 -0.06561324 1.1779012e-38 333 294
0.01701084 0.69300002 -0.06561324 1.1778656e-38 334 294
0.018225901 0.69300002 -0.06561324 1.1778656e-38 335 294
0.019469013 0.69400001 -0.065707922 1.1962327e-38 336 294
0.020685827 0.69400001 -0.065707922 1.2054523e-38 337 294
0.021902639 0.69400001 -0.065707922 1.1689333e-38 338 294
0.023119451 0.69400001 -0.065707922 1.1689333e-38 339 294
0.024336265 0.69400001 -0.065707922 1.1781883e-38 340 294
0.025553079 0.69400001 -0.065707922 1.2150306e-38 341 294
0.026885614 0.69700003 -0.06599196 1.2242857e-38 342 294
0.028148014 0.69800001 -0.066086642 1.2519446e-38 343 294
0.029371841 0.69800001 -0.066086642 1.2794956e-38 344 294
0.030683333 0.69999999 -0.066275999 1.3163738e-38 345 294
0.031910665 0.69999999 -0.066275999 1.3072991e-38 346 294
0.033137999 0.69999999 -0.066275999 1.3441773e-38 347 294
0.034414422 0.70099998 -0.066370681 1.3352114e-38 348 294
0.035796054 0.704 -0.066654719 1.3720898e-38 349 294
0.037030395 0.704 -0.066654719 1.3907112e-38 350 294
0.038264744 0.704 -0.066654719 1.6764817e-38 351 294
0.039611302 0.70599997 -0.066844068 1.6499055e-38 352 294
-0.029582238 0.70300001 -0.067792632 1.4927388e-38 296 295
-0.028349647 0.70300001 -0.067792632 1.2438465e-38 297 295
-0.027117053 0.70300001 -0.067792632 1.2892232e-38 298 295
-0.025810819 0.70099998 -0.067599766 1.2339058e-38 299 295
-0.024581732 0.70099998 -0.067599766 1.1967389e-38 300 295
-0.023319334 0.69999999 -0.067503333 1.1782996e-38 301 295
-0.02202888 0.69800001 -0.06731046 1.1598231e-38 302 295
-0.020805053 0.69800001 -0.06731046 1.1321642e-38 303 295
-0.019581227 0.69800001 -0.06731046 1.1045413e-38 304 295
-0.018331099 0.69700003 -0.067214034 1.067627e-38 305 295
-0.017084479 0.69599998 -0.067117594 1.0307495e-38 306 295
-0.015818574 0.69400001 -0.066924736 1.0030548e-38 307 295
-0.01460176 0.69400001 -0.066924736 1.003055e-38 308 295
-0.01336566 0.69300002 -0.066828303 1.0214943e-38 309 295
-0.012150601 0.69300002 -0.066828303 1.0950343e-38 310 295
-0.010935539 0.69300002 -0.066828303 1.0950343e-38 311 295
-0.0096924258 0.69099998 -0.06663543 1.1134009e-38 312 295
-0.008480873 0.69099998 -0.06663543 1.1226204e-38 313 295
-0.0072587994 0.69 -0.066538997 1.1226207e-38 314 295
-0.0060489997 0.69 -0.066538997 1.14106e-38 315 295
-0.0048251734 0.68800002 -0.066346131 1.1502445e-38 316 295
-0.0036188802 0.68800002 -0.066346131 1.1686476e-38 317 295
-0.0024125867 0.68800002 -0.066346131 1.1319854e-38 318 295
-0.0012062934 0.68800002 -0.066346131 1.1319854e-38 319 295
0 0.68800002 -0.066346131 1.1319852e-38 320 295
0.0012062934 0.68800002 -0.066346131 1.1503883e-38 321 295
0.0024125867 0.68800002 -0.066346131 1.1503514e-38 322 295
0.0036188802 0.68800002 -0.066346131 1.1503514e-38 323 295
0.0048251734 0.68800002 -0.066346131 1.1778659e-38 324 295
0.0060314666 0.68800002 -0.066346131 1.1686463e-38 325 295
0.0072377604 0.68800002 -0.066346131 1.1593915e-38 326 295
0.0084440531 0.68800002 -0.066346131 1.1593915e-38 327 295
0.0096503468 0.68800002 -0.066346131 1.168611e-38 328 295
0.010888199 0.69 -0.066538997 1.1593915e-38 329 295
0.012097999 0.69 -0.066538997 1.1870132e-38 330 295
0.013327086 0.69099998 -0.06663543 1.1962327e-38 331 295
0.014580719 0.69300002 -0.066828303 1.1779012e-38 332 295
0.015795778 0.69300002 -0.066828303 1.1779012e-38 333 295
0.01701084 0.69300002 -0.066828303 1.1778656e-38 334 295
0.018225901 0.69300002 -0.066828303 1.1778656e-38 335 295
0.019469013 0.69400001 -0.066924736 1.1779731e-38 336 295
0.020685827 0.69400001 -0.066924736 1.1871927e-38 337 295
0.021902639 0.69400001 -0.066924736 1.1689333e-38 338 295
0.023119451 0.69400001 -0.066924736 1.178153e-38 339 295
0.024336265 0.69400001 -0.066924736 1.1874798e-38 340 295
0.025553079 0.69400001 -0.066924736 1.2059189e-38 341 295
0.026847038 0.69599998 -0.067117594 1.2335053e-38 342 295
0.028148014 0.69800001 -0.06731046 1.2611641e-38 343 295
0.029455997 0.69999999 -0.067503333 1.2887874e-38 344 295
0.030683333 0.69999999 -0.067503333 1.3164821e-38 345 295
0.031910665 0.69999999 -0.067503333 1.3073717e-38 346 295
0.03318534 0.70099998 -0.067599766 1.3534695e-38 347 295
0.034414422 0.70099998 -0.067599766 1.335284e-38 348 295
0.035796054 0.704 -0.067889065 1.3998209e-38 349 295
0.037030395 0.704 -0.067889065 1.4277703e-38 350 295
0.038264744 0.704 -0.067889065 1.7043571e-38 351 295
0.039611302 0.70599997 -0.06808193 1.6683093e-38 352 295
-0.029582238 0.70300001 -0.069025226 1.5850792e-38 296 296
-0.028349647 0.70300001 -0.069025226 1.336151e-38 297 296
-0.027117053 0.70300001 -0.069025226 1.3355005e-38 298 296
-0.025810819 0.70099998 -0.068828844 1.215682e-38 299 296
-0.024581732 0.70099998 -0.068828844 1.187806e-38 300 296
-0.023319334 0.69999999 -0.068730667 1.1601115e-38 301 296
-0.02202888 0.69800001 -0.068534292 1.2058486e-38 302 296
-0.020805053 0.69800001 -0.068534292 1.1781899e-38 303 296
-0.019581227 0.69800001 -0.068534292 1.1596068e-38 304 296
-0.018331099 0.69700003 -0.068436109 1.1319123e-38 305 296
-0.017109027 0.69700003 -0.068436109 1.0674479e-38 306 296
-0.015818574 0.69400001 -0.068141542 1.0397891e-38 307 296
-0.01460176 0.69400001 -0.068141542 9.8468823e-39 308 296
-0.013384946 0.69400001 -0.068141542 1.0031634e-38 309 296
-0.012150601 0.69300002 -0.068043359 1.0950346e-38 310 296
-0.010935539 0.69300002 -0.068043359 1.0950346e-38 311 296
-0.0096924258 0.69099998 -0.067846984 1.1318403e-38 312 296
-0.008480873 0.69099998 -0.067846984 1.1318403e-38 313 296
-0.0072587994 0.69 -0.0677488 1.1318405e-38 314 296
-0.0060489997 0.69 -0.0677488 1.1410602e-38 315 296
-0.0048251734 0.68800002 -0.067552425 1.1410971e-38 316 296
-0.0036188802 0.68800002 -0.067552425 1.1410971e-38 317 296
-0.0024125867 0.68800002 -0.067552425 1.12273e-38 318 296
-0.0012062934 0.68800002 -0.067552425 1.1319854e-38 319 296
0 0.68800002 -0.067552425 1.1319852e-38 320 296
0.0012062934 0.68800002 -0.067552425 1.1319852e-38 321 296
0.0024125867 0.68800002 -0.067552425 1.150352e-38 322 296
0.0036188802 0.68800002 -0.067552425 1.150352e-38 323 296
0.0048251734 0.68800002 -0.067552425 1.1502798e-38 324 296
0.0060314666 0.68800002 -0.067552425 1.1502798e-38 325 296
0.0072587994 0.69 -0.0677488 1.1502798e-38 326 296
0.0084686 0.69 -0.0677488 1.1502798e-38 327 296
0.0096783992 0.69 -0.0677488 1.1503151e-38 328 296
0.010888199 0.69 -0.0677488 1.1503151e-38 329 296
0.012115533 0.69099998 -0.067846984 1.1503504e-38 330 296
0.01336566 0.69300002 -0.068043359 1.1687535e-38 331 296
0.014580719 0.69300002 -0.068043359 1.1686814e-38 332 296
0.015795778 0.69300002 -0.068043359 1.1779009e-38 333 296
0.01701084 0.69300002 -0.068043359 1.1687535e-38 334 296
0.018225901 0.69300002 -0.068043359 1.1779731e-38 335 296
0.019469013 0.69400001 -0.068141542 1.1596419e-38 336 296
0.020685827 0.69400001 -0.068141542 1.1872646e-38 337 296
0.021902639 0.69400001 -0.068141542 1.1506021e-38 338 296
0.023119451 0.69400001 -0.068141542 1.1782249e-38 339 296
0.024336265 0.69400001 -0.068141542 1.196664e-38 340 296
0.025553079 0.69400001 -0.068141542 1.215139e-38 341 296
0.026847038 0.69599998 -0.068337917 1.2519449e-38 342 296
0.028148014 0.69800001 -0.068534292 1.2611644e-38 343 296
0.029455997 0.69999999 -0.068730667 1.2980069e-38 344 296
0.030727165 0.70099998 -0.068828844 1.3257016e-38 345 296
0.031956252 0.70099998 -0.068828844 1.3074436e-38 346 296
0.033280019 0.70300001 -0.069025226 1.3627609e-38 347 296
0.034512613 0.70300001 -0.069025226 1.3445756e-38 348 296
0.035796054 0.704 -0.06912341 1.4459906e-38 349 296
0.037030395 0.704 -0.06912341 1.4741206e-38 350 296
0.038264744 0.704 -0.06912341 1.6861345e-38 351 296
-0.028349647 0.70300001 -0.070257813 1.4192719e-38 297 297
-0.027117053 0.70300001 -0.070257813 1.4185489e-38 298 297
-0.025810819 0.70099998 -0.070057929 1.2618162e-38 299 297
-0.024581732 0.70099998 -0.070057929 1.2338314e-38 300 297
-0.023319334 0.69999999 -0.069957994 1.2153921e-38 301 297
-0.022091998 0.69999999 -0.069957994 1.2518745e-38 302 297
-0.020864666 0.69999999 -0.069957994 1.2241798e-38 303 297
-0.019637333 0.69999999 -0.069957994 1.1872295e-38 304 297
-0.0183574 0.69800001 -0.069758117 1.1503514e-38 305 297
-0.017109027 0.69700003 -0.069658175 1.1043614e-38 306 297
-0.015818574 0.69400001 -0.069358356 1.0674832e-38 307 297
-0.01460176 0.69400001 -0.069358356 1.0765949e-38 308 297
-0.013384946 0.69400001 -0.069358356 1.0858145e-38 309 297
-0.012150601 0.69300002 -0.069258414 1.1042539e-38 310 297
-0.010935539 0.69300002 -0.069258414 1.122657e-38 311 297
-0.0097204801 0.69300002 -0.069258414 1.1410602e-38 312 297
-0.008480873 0.69099998 -0.069058537 1.1410602e-38 313 297
-0.0072587994 0.69 -0.068958595 1.1410602e-38 314 297
-0.0060489997 0.69 -0.068958595 1.1410602e-38 315 297
-0.0048391996 0.69 -0.068958595 1.1410602e-38 316 297
-0.0036293997 0.69 -0.068958595 1.1502798e-38 317 297
-0.0024195998 0.69 -0.068958595 1.1135457e-38 318 297
-0.0012097999 0.69 -0.068958595 1.1227653e-38 319 297
0 0.69099998 -0.069058537 1.1318773e-38 320 297
0.0012097999 0.69 -0.068958595 1.1410968e-38 321 297
0.0024195998 0.69 -0.068958595 1.1410965e-38 322 297
0.0036293997 0.69 -0.068958595 1.1410965e-38 323 297
0.0048391996 0.69 -0.068958595 1.1410602e-38 324 297
0.0060489997 0.69 -0.068958595 1.1410602e-38 325 297
0.0072587994 0.69 -0.068958595 1.1319126e-38 326 297
0.0084686 0.69 -0.068958595 1.1319126e-38 327 297
0.0096783992 0.69 -0.068958595 1.131912e-38 328 297
0.01090398 0.69099998 -0.069058537 1.1411674e-38 329 297
0.012150601 0.69300002 -0.069258414 1.1412025e-38 330 297
0.01336566 0.69300002 -0.069258414 1.1412025e-38 331 297
0.014580719 0.69300002 -0.069258414 1.1686814e-38 332 297
0.015795778 0.69300002 -0.069258414 1.1686814e-38 333 297
0.01701084 0.69300002 -0.069258414 1.1503867e-38 334 297
0.0182522 0.69400001 -0.069358356 1.1596063e-38 335 297
0.019469013 0.69400001 -0.069358356 1.1596785e-38 336 297
0.020685827 0.69400001 -0.069358356 1.168898e-38 337 297
0.021902639 0.69400001 -0.069358356 1.16897e-38 338 297
0.023119451 0.69400001 -0.069358356 1.1781896e-38 339 297
0.024336265 0.69400001 -0.069358356 1.2058839e-38 340 297
0.025626717 0.69599998 -0.069558233 1.2335067e-38 341 297
0.026885614 0.69700003 -0.069658175 1.2519451e-38 342 297
0.028148014 0.69800001 -0.069758117 1.2795678e-38 343 297
0.029455997 0.69999999 -0.069957994 1.3072269e-38 344 297
0.030727165 0.70099998 -0.070057929 1.3533246e-38 345 297
0.031956252 0.70099998 -0.070057929 1.3258831e-38 346 297
0.033280019 0.70300001 -0.070257813 1.3719449e-38 347 297
0.034561705 0.704 -0.070357755 1.3630153e-38 348 297
0.035897743 0.70599997 -0.070557632 1.4736142e-38 349 297
0.037135597 0.70599997 -0.070557632 1.4744091e-38 350 297
-0.027117053 0.70300001 -0.071490414 1.4740107e-38 298 298
-0.025810819 0.70099998 -0.071287021 1.3080584e-38 299 298
-0.024581732 0.70099998 -0.071287021 1.3258475e-38 300 298
-0.023319334 0.69999999 -0.071185328 1.270566e-38 301 298
-0.022091998 0.69999999 -0.071185328 1.2703858e-38 302 298
-0.020864666 0.69999999 -0.071185328 1.2334717e-38 303 298
-0.019637333 0.69999999 -0.071185328 1.1965574e-38 304 298
-0.0183574 0.69800001 -0.07098195 1.1688627e-38 305 298
-0.017133573 0.69800001 -0.07098195 1.132164e-38 306 298
-0.015886955 0.69700003 -0.070880257 1.0953217e-38 307 298
-0.01460176 0.69400001 -0.07057517 1.0677351e-38 308 298
-0.013384946 0.69400001 -0.07057517 1.0585154e-38 309 298
-0.012150601 0.69300002 -0.070473477 1.1135455e-38 310 298
-0.010935539 0.69300002 -0.070473477 1.1228009e-38 311 298
-0.0097204801 0.69300002 -0.070473477 1.1319126e-38 312 298
-0.008480873 0.69099998 -0.070270091 1.1411321e-38 313 298
-0.0072587994 0.69 -0.070168398 1.1502801e-38 314 298
-0.0060489997 0.69 -0.070168398 1.1410247e-38 315 298
-0.0048391996 0.69 -0.070168398 1.1410965e-38 316 298
-0.0036293997 0.69 -0.070168398 1.150352e-38 317 298
-0.0024195998 0.69 -0.070168398 1.1136179e-38 318 298
-0.0012097999 0.69 -0.070168398 1.1136179e-38 319 298
0 0.69099998 -0.070270091 1.1227653e-38 320 298
0.0012115532 0.69099998 -0.070270091 1.1227653e-38 321 298
0.0024195998 0.69 -0.070168398 1.1319126e-38 322 298
0.0036293997 0.69 -0.070168398 1.1411321e-38 323 298
0.0048391996 0.69 -0.070168398 1.1411321e-38 324 298
0.0060577663 0.69099998 -0.070270091 1.1411321e-38 325 298
0.0072693196 0.69099998 -0.070270091 1.1410247e-38 326 298
0.0084686 0.69 -0.070168398 1.1410247e-38 327 298
0.0096783992 0.69 -0.070168398 1.1411321e-38 328 298
0.01090398 0.69099998 -0.070270091 1.1503517e-38 329 298
0.012150601 0.69300002 -0.070473477 1.1320555e-38 330 298
0.01336566 0.69300002 -0.070473477 1.1320555e-38 331 298
0.014580719 0.69300002 -0.070473477 1.168718e-38 332 298
0.015795778 0.69300002 -0.070473477 1.168718e-38 333 298
0.017035386 0.69400001 -0.07057517 1.1596066e-38 334 298
0.0182522 0.69400001 -0.07057517 1.1688261e-38 335 298
0.019469013 0.69400001 -0.07057517 1.1596429e-38 336 298
0.020685827 0.69400001 -0.07057517 1.1688983e-38 337 298
0.021902639 0.69400001 -0.07057517 1.16897e-38 338 298
0.023119451 0.69400001 -0.07057517 1.1874092e-38 339 298
0.024336265 0.69400001 -0.07057517 1.2151035e-38 340 298
0.025626717 0.69599998 -0.070778556 1.2335067e-38 341 298
0.026924185 0.69800001 -0.07098195 1.2611291e-38 342 298
0.028228667 0.69999999 -0.071185328 1.2887877e-38 343 298
0.029455997 0.69999999 -0.071185328 1.3165186e-38 344 298
0.030727165 0.70099998 -0.071287021 1.3349578e-38 345 298
0.032047424 0.70300001 -0.071490414 1.3258831e-38 346 298
0.03332736 0.704 -0.071592107 1.3996396e-38 347 298
0.034659892 0.70599997 -0.071795486 1.344685e-38 348 298
-0.025884461 0.70300001 -0.072723009 1.3544091e-38 299 299
-0.024581732 0.70099998 -0.072516106 1.3812368e-38 300 299
-0.023352645 0.70099998 -0.072516106 1.3074801e-38 301 299
-0.022123558 0.70099998 -0.072516106 1.3164465e-38 302 299
-0.020894472 0.70099998 -0.072516106 1.2611291e-38 303 299
-0.019637333 0.69999999 -0.072412662 1.279316e-38 304 299
-0.018409999 0.69999999 -0.072412662 1.2424379e-38 305 299
-0.017133573 0.69800001 -0.072205767 1.1966272e-38 306 299
-0.015909746 0.69800001 -0.072205767 1.1689684e-38 307 299
-0.01466488 0.69700003 -0.072102323 1.1873346e-38 308 299
-0.013423519 0.69599998 -0.071998879 1.1689315e-38 309 299
-0.012168133 0.69400001 -0.071791984 1.168753e-38 310 299
-0.010935539 0.69300002 -0.07168854 1.1503499e-38 311 299
-0.0097204801 0.69300002 -0.07168854 1.1869776e-38 312 299
-0.008480873 0.69099998 -0.071481638 1.1869776e-38 313 299
-0.0072693196 0.69099998 -0.071481638 1.1686466e-38 314 299
-0.0060577663 0.69099998 -0.071481638 1.1778662e-38 315 299
-0.0048391996 0.69 -0.071378194 1.1503514e-38 316 299
-0.0036293997 0.69 -0.071378194 1.1503514e-38 317 299
-0.0024195998 0.69 -0.071378194 1.150387e-38 318 299
-0.0012115532 0.69099998 -0.071481638 1.150387e-38 319 299
0 0.69099998 -0.071481638 1.1411674e-38 320 299
0.0012115532 0.69099998 -0.071481638 1.1411674e-38 321 299
0.0024231065 0.69099998 -0.071481638 1.1503148e-38 322 299
0.0036346598 0.69099998 -0.071481638 1.1503148e-38 323 299
0.0048462129 0.69099998 -0.071481638 1.1411321e-38 324 299
0.0060577663 0.69099998 -0.071481638 1.1319126e-38 325 299
0.0072693196 0.69099998 -0.071481638 1.1042912e-38 326 299
0.0084686 0.69 -0.071378194 1.1135107e-38 327 299
0.0096783992 0.69 -0.071378194 1.0861387e-38 328 299
0.01090398 0.69099998 -0.071481638 1.0953583e-38 329 299
0.012150601 0.69300002 -0.07168854 1.1413467e-38 330 299
0.01336566 0.69300002 -0.07168854 1.1321271e-38 331 299
0.014580719 0.69300002 -0.07168854 1.1688612e-38 332 299
0.015818574 0.69400001 -0.071791984 1.1872643e-38 333 299
0.017035386 0.69400001 -0.071791984 1.1872646e-38 334 299
0.0182522 0.69400001 -0.071791984 1.1872646e-38 335 299
0.019525118 0.69599998 -0.071998879 1.1688977e-38 336 299
0.020745439 0.69599998 -0.071998879 1.1781533e-38 337 299
0.021965759 0.69599998 -0.071998879 1.2057041e-38 338 299
0.023186078 0.69599998 -0.071998879 1.2241432e-38 339 299
0.0244064 0.69599998 -0.071998879 1.2058842e-38 340 299
0.025700359 0.69800001 -0.072205767 1.2427265e-38 341 299
0.026924185 0.69800001 -0.072205767 1.2519464e-38 342 299
0.028228667 0.69999999 -0.072412662 1.2888607e-38 343 299
0.029498078 0.70099998 -0.072516106 1.2981884e-38 344 299
0.030814834 0.70300001 -0.072723009 1.3166634e-38 345 299
0.032093015 0.704 -0.072826453 1.3168446e-38 346 299
0.03332736 0.704 -0.072826453 1.3445393e-38 347 299
0.034659892 0.70599997 -0.07303334 1.3080959e-38 348 299
-0.024651866 0.70300001 -0.073955595 1.4184043e-38 300 300
-0.023419274 0.70300001 -0.073955595 1.3077695e-38 301 300
-0.02218668 0.70300001 -0.073955595 1.3167351e-38 302 300
-0.020954086 0.70300001 -0.073955595 1.2614178e-38 303 300
-0.019665385 0.70099998 -0.073745191 1.2611657e-38 304 300
-0.018409999 0.69999999 -0.073639996 1.2151037e-38 305 300
-0.017133573 0.69800001 -0.073429599 1.2059561e-38 306 300
-0.015909746 0.69800001 -0.073429599 1.2059561e-38 307 300
-0.01468592 0.69800001 -0.073429599 1.1783328e-38 308 300
-0.013442807 0.69700003 -0.073324397 1.1691133e-38 309 300
-0.0122032 0.69599998 -0.073219195 1.1689698e-38 310 300
-0.01095132 0.69400001 -0.073008798 1.1505665e-38 311 300
-0.0097345067 0.69400001 -0.073008798 1.1870858e-38 312 300
-0.0085054198 0.69300002 -0.072903603 1.1778662e-38 313 300
-0.0072903596 0.69300002 -0.072903603 1.1687185e-38 314 300
-0.0060753003 0.69300002 -0.072903603 1.1779381e-38 315 300
-0.0048462129 0.69099998 -0.072693199 1.1504589e-38 316 300
-0.0036346598 0.69099998 -0.072693199 1.1596785e-38 317 300
-0.0024231065 0.69099998 -0.072693199 1.1413472e-38 318 300
-0.00121506 0.69300002 -0.072903603 1.1413472e-38 319 300
0 0.69300002 -0.072903603 1.1413469e-38 320 300
0.00121506 0.69300002 -0.072903603 1.1229078e-38 321 300
0.00243012 0.69300002 -0.072903603 1.150422e-38 322 300
0.0036451798 0.69300002 -0.072903603 1.150422e-38 323 300
0.00486024 0.69300002 -0.072903603 1.1136527e-38 324 300
0.0060753003 0.69300002 -0.072903603 1.1044331e-38 325 300
0.0072903596 0.69300002 -0.072903603 1.0950709e-38 326 300
0.008480873 0.69099998 -0.072693199 1.0950709e-38 327 300
0.0096924258 0.69099998 -0.072693199 1.0860313e-38 328 300
0.010935539 0.69300002 -0.072903603 1.1045063e-38 329 300
0.012150601 0.69300002 -0.072903603 1.1413469e-38 330 300
0.013384946 0.69400001 -0.073008798 1.1505665e-38 331 300
0.01460176 0.69400001 -0.073008798 1.159929e-38 332 300
0.015818574 0.69400001 -0.073008798 1.159929e-38 333 300
0.017035386 0.69400001 -0.073008798 1.1598934e-38 334 300
0.018304799 0.69599998 -0.073219195 1.1598934e-38 335 300
0.019525118 0.69599998 -0.073219195 1.1598934e-38 336 300
0.020745439 0.69599998 -0.073219195 1.1598934e-38 337 300
0.021965759 0.69599998 -0.073219195 1.1965922e-38 338 300
0.023186078 0.69599998 -0.073219195 1.2149953e-38 339 300
0.024441468 0.69700003 -0.073324397 1.2518018e-38 340 300
0.025700359 0.69800001 -0.073429599 1.2610215e-38 341 300
0.027001332 0.69999999 -0.073639996 1.24287e-38 342 300
0.028228667 0.69999999 -0.073639996 1.2797124e-38 343 300
0.029498078 0.70099998 -0.073745191 1.3164833e-38 344 300
0.030814834 0.70300001 -0.073955595 1.3349225e-38 345 300
0.032093015 0.704 -0.07406079 1.3075534e-38 346 300
0.033422034 0.70599997 -0.074271195 1.3443957e-38 347 300
-0.024651866 0.70300001 -0.07518819 1.437097e-38 300 301
-0.023419274 0.70300001 -0.07518819 1.2711809e-38 301 301
-0.022218239 0.704 -0.075295143 1.3444294e-38 302 301
-0.020983893 0.704 -0.075295143 1.2891121e-38 303 301
-0.019721493 0.70300001 -0.07518819 1.2979704e-38 304 301
-0.018436298 0.70099998 -0.074974284 1.2610561e-38 305 301
-0.017182667 0.69999999 -0.07486733 1.2151035e-38 306 301
-0.015955333 0.69999999 -0.07486733 1.2058839e-38 307 301
-0.014727999 0.69999999 -0.07486733 1.2242507e-38 308 301
-0.013462093 0.69800001 -0.074653424 1.2149953e-38 309 301
-0.012220734 0.69700003 -0.074546471 1.2057394e-38 310 301
-0.010982879 0.69599998 -0.074439511 1.1965199e-38 311 301
-0.0097345067 0.69400001 -0.074225612 1.2147435e-38 312 301
-0.0085176928 0.69400001 -0.074225612 1.2147435e-38 313 301
-0.0072903596 0.69300002 -0.074118659 1.187193e-38 314 301
-0.0060753003 0.69300002 -0.074118659 1.187193e-38 315 301
-0.00486024 0.69300002 -0.074118659 1.1688614e-38 316 301
-0.0036346598 0.69099998 -0.073904753 1.1872646e-38 317 301
-0.0024231065 0.69099998 -0.073904753 1.1781528e-38 318 301
-0.00121506 0.69300002 -0.074118659 1.1689331e-38 319 301
0 0.69300002 -0.074118659 1.1872999e-38 320 301
0.00121506 0.69300002 -0.074118659 1.1688968e-38 321 301
0.00243012 0.69300002 -0.074118659 1.1780081e-38 322 301
0.0036451798 0.69300002 -0.074118659 1.1687886e-38 323 301
0.00486024 0.69300002 -0.074118659 1.1503151e-38 324 301
0.0060753003 0.69300002 -0.074118659 1.13184e-38 325 301
