# .PCD v.7 - Point Cloud Data file format
FIELDS x y z rgb imX imY
SIZE 4 4 4 4 4 4
TYPE F F F F F F
COUNT 1 1 1 1 1 1
WIDTH 831
HEIGHT 1
VIEWPOINT 0 0 0 1 0 0 0
POINTS 831
DATA ascii
-0.015818574 0.69400001 -0.052322973 1.2701338e-38 307 283
-0.01460176 0.69400001 -0.052322973 1.2701338e-38 308 283
-0.013384946 0.69400001 -0.052322973 1.2609141e-38 309 283
-0.012168133 0.69400001 -0.052322973 1.2426193e-38 310 283
-0.010935539 0.69300002 -0.05224758 1.2426193e-38 311 283
-0.0096924258 0.69099998 -0.052096792 1.2150687e-38 312 283
-0.0084686 0.69 -0.052021399 1.2150687e-38 313 283
-0.0072377604 0.68800002 -0.051870614 1.2334369e-38 314 283
-0.0060314666 0.68800002 -0.051870614 1.2057782e-38 315 283
-0.0048251734 0.68800002 -0.051870614 1.2606643e-38 316 283
-0.0036188802 0.68800002 -0.051870614 1.2421893e-38 317 283
-0.0024125867 0.68800002 -0.051870614 1.232933e-38 318 283
-0.0012045399 0.68699998 -0.051795214 1.2237135e-38 319 283
0 0.68699998 -0.051795214 1.2052747e-38 320 283
0.0012045399 0.68699998 -0.051795214 1.2236779e-38 321 283
0.0024055731 0.68599999 -0.051719822 1.1868719e-38 322 283
0.00360836 0.68599999 -0.051719822 1.1868719e-38 323 283
0.0048111463 0.68599999 -0.051719822 1.2236413e-38 324 283
0.0059964 0.68400002 -0.051569041 1.2420804e-38 325 283
0.0071956799 0.68400002 -0.051569041 1.242151e-38 326 283
0.0083949603 0.68400002 -0.051569041 1.2697739e-38 327 283
0.0095942402 0.68400002 -0.051569041 1.3340946e-38 328 283
0.01079352 0.68400002 -0.051569041 1.3433141e-38 329 283
0.0119928 0.68400002 -0.051569041 1.3801195e-38 330 283
0.01319208 0.68400002 -0.051569041 1.3801195e-38 331 283
0.01439136 0.68400002 -0.051569041 1.3801901e-38 332 283
0.015636226 0.68599999 -0.051719822 1.3709706e-38 333 283
0.016839013 0.68599999 -0.051719822 1.3710059e-38 334 283
0.018068098 0.68699998 -0.051795214 1.3617505e-38 335 283
0.019272638 0.68699998 -0.051795214 1.3433479e-38 336 283
0.020477179 0.68699998 -0.051795214 1.361751e-38 337 283
0.021681719 0.68699998 -0.051795214 1.3434208e-38 338 283
0.022886258 0.68699998 -0.051795214 1.3434208e-38 339 283
0.024125867 0.68800002 -0.051870614 1.3526409e-38 340 283
0.02533216 0.68800002 -0.051870614 1.3526409e-38 341 283
0.026538454 0.68800002 -0.051870614 1.3434938e-38 342 283
0.027744746 0.68800002 -0.051870614 1.3711523e-38 343 283
0.029035198 0.69 -0.052021399 1.3621126e-38 344 283
0.030288832 0.69099998 -0.052096792 1.3713321e-38 345 283
0.031591557 0.69300002 -0.05224758 1.3713318e-38 346 283
0.03280662 0.69300002 -0.05224758 1.3897711e-38 347 283
0.034070771 0.69400001 -0.052322973 1.3530729e-38 348 283
0.035287585 0.69400001 -0.052322973 1.3622925e-38 349 283
0.036662199 0.69700003 -0.052549154 1.3438176e-38 350 283
0.037938625 0.69800001 -0.052624546 1.3530373e-38 351 283
0.039162453 0.69800001 -0.052624546 1.3531818e-38 352 283
0.040502001 0.69999999 -0.052775331 1.4084992e-38 353 283
0.041729331 0.69999999 -0.052775331 1.372162e-38 354 283
0.043018032 0.70099998 -0.052850723 1.4090762e-38 355 283
0.044247117 0.70099998 -0.052850723 1.5850436e-38 356 283
-0.030858666 0.704 -0.054311249 1.0690727e-38 295 284
-0.029624319 0.704 -0.054311249 1.1503909e-38 296 284
-0.028349647 0.70300001 -0.054234106 1.1780136e-38 297 284
-0.027117053 0.70300001 -0.054234106 1.2331848e-38 298 284
-0.025884461 0.70300001 -0.054234106 1.2147817e-38 299 284
-0.024546666 0.69999999 -0.054002665 1.2332555e-38 300 284
-0.023252707 0.69800001 -0.053848371 1.2516946e-38 301 284
-0.02199732 0.69700003 -0.053771228 1.279281e-38 302 284
-0.020775247 0.69700003 -0.053771228 1.2700255e-38 303 284
-0.019553173 0.69700003 -0.053771228 1.2792456e-38 304 284
-0.018304799 0.69599998 -0.053694077 1.2884654e-38 305 284
-0.017035386 0.69400001 -0.053539783 1.2792454e-38 306 284
-0.015818574 0.69400001 -0.053539783 1.2884651e-38 307 284
-0.01460176 0.69400001 -0.053539783 1.2609859e-38 308 284
-0.01336566 0.69300002 -0.053462639 1.2609859e-38 309 284
-0.012150601 0.69300002 -0.053462639 1.2427268e-38 310 284
-0.010935539 0.69300002 -0.053462639 1.2427268e-38 311 284
-0.0096924258 0.69099998 -0.053308345 1.1968092e-38 312 284
-0.0084686 0.69 -0.053231198 1.1875895e-38 313 284
-0.0072377604 0.68800002 -0.053076908 1.2148536e-38 314 284
-0.0060314666 0.68800002 -0.053076908 1.1963786e-38 315 284
-0.0048251734 0.68800002 -0.053076908 1.2146018e-38 316 284
-0.0036188802 0.68800002 -0.053076908 1.2053822e-38 317 284
-0.0024125867 0.68800002 -0.053076908 1.2053098e-38 318 284
-0.0012045399 0.68699998 -0.052999757 1.2053098e-38 319 284
0 0.68699998 -0.052999757 1.1776877e-38 320 284
0.0012027866 0.68599999 -0.05292261 1.1592846e-38 321 284
0.0024055731 0.68599999 -0.05292261 1.1500298e-38 322 284
0.00360836 0.68599999 -0.05292261 1.1500298e-38 323 284
0.0047971201 0.68400002 -0.05276832 1.1776158e-38 324 284
0.0059964 0.68400002 -0.05276832 1.1960549e-38 325 284
0.0071851597 0.68300003 -0.052691177 1.22364e-38 326 284
0.0083826864 0.68300003 -0.052691177 1.2512627e-38 327 284
0.0095802136 0.68300003 -0.052691177 1.2973237e-38 328 284
0.01079352 0.68400002 -0.05276832 1.3157628e-38 329 284
0.0119928 0.68400002 -0.05276832 1.3526038e-38 330 284
0.01319208 0.68400002 -0.05276832 1.3526038e-38 331 284
0.01439136 0.68400002 -0.05276832 1.3708984e-38 332 284
0.01559064 0.68400002 -0.05276832 1.3616789e-38 333 284
0.016839013 0.68599999 -0.05292261 1.3341999e-38 334 284
0.018041799 0.68599999 -0.05292261 1.3341999e-38 335 284
0.019272638 0.68699998 -0.052999757 1.3249451e-38 336 284
0.020477179 0.68699998 -0.052999757 1.3341646e-38 337 284
0.021681719 0.68699998 -0.052999757 1.31587e-38 338 284
0.022886258 0.68699998 -0.052999757 1.31587e-38 339 284
0.024090799 0.68699998 -0.052999757 1.3341296e-38 340 284
0.025295338 0.68699998 -0.052999757 1.3433492e-38 341 284
0.026538454 0.68800002 -0.053076908 1.3158347e-38 342 284
0.027744746 0.68800002 -0.053076908 1.3343097e-38 343 284
0.028951041 0.68800002 -0.053076908 1.3527489e-38 344 284
0.030244999 0.69 -0.053231198 1.3711521e-38 345 284
0.031500384 0.69099998 -0.053308345 1.3528924e-38 346 284
0.03280662 0.69300002 -0.053462639 1.362112e-38 347 284
0.034070771 0.69400001 -0.053539783 1.3346334e-38 348 284
0.035287585 0.69400001 -0.053539783 1.3346334e-38 349 284
0.036662199 0.69700003 -0.053771228 1.3345978e-38 350 284
0.037938625 0.69800001 -0.053848371 1.3438173e-38 351 284
0.039162453 0.69800001 -0.053848371 1.3439975e-38 352 284
0.040328421 0.69700003 -0.053771228 1.3900954e-38 353 284
0.041550495 0.69700003 -0.053771228 1.3446109e-38 354 284
0.042833932 0.69800001 -0.053848371 1.3999283e-38 355 284
0.04405776 0.69800001 -0.053848371 1.6217776e-38 356 284
-0.032093015 0.704 -0.055545598 1.3640267e-38 294 285
-0.030858666 0.704 -0.055545598 1.0321225e-38 295 285
-0.029582238 0.70300001 -0.0554667 1.2057802e-38 296 285
-0.028349647 0.70300001 -0.0554667 1.1965605e-38 297 285
-0.027117053 0.70300001 -0.0554667 1.2147464e-38 298 285
-0.025810819 0.70099998 -0.055308893 1.1963073e-38 299 285
-0.024476532 0.69800001 -0.0550722 1.1688994e-38 300 285
-0.023252707 0.69800001 -0.0550722 1.1873744e-38 301 285
-0.02199732 0.69700003 -0.054993302 1.251659e-38 302 285
-0.020775247 0.69700003 -0.054993302 1.2609144e-38 303 285
-0.019525118 0.69599998 -0.054914396 1.2792101e-38 304 285
-0.018304799 0.69599998 -0.054914396 1.2884656e-38 305 285
-0.017035386 0.69400001 -0.054756597 1.2884654e-38 306 285
-0.015818574 0.69400001 -0.054756597 1.2884654e-38 307 285
-0.01460176 0.69400001 -0.054756597 1.2609141e-38 308 285
-0.01336566 0.69300002 -0.054677699 1.2701338e-38 309 285
-0.012150601 0.69300002 -0.054677699 1.2518745e-38 310 285
-0.01090398 0.69099998 -0.054519895 1.2426549e-38 311 285
-0.0096924258 0.69099998 -0.054519895 1.2333996e-38 312 285
-0.0084686 0.69 -0.054440998 1.2241801e-38 313 285
-0.0072377604 0.68800002 -0.054283202 1.1963786e-38 314 285
-0.0060314666 0.68800002 -0.054283202 1.1687558e-38 315 285
-0.0048251734 0.68800002 -0.054283202 1.1961624e-38 316 285
-0.0036188802 0.68800002 -0.054283202 1.1776874e-38 317 285
-0.0024125867 0.68800002 -0.054283202 1.1869423e-38 318 285
-0.0012045399 0.68699998 -0.054204296 1.1869423e-38 319 285
0 0.68699998 -0.054204296 1.1409169e-38 320 285
0.0012027866 0.68599999 -0.054125395 1.1225138e-38 321 285
0.0024055731 0.68599999 -0.054125395 1.1315548e-38 322 285
0.00360836 0.68599999 -0.054125395 1.1315548e-38 323 285
0.0047971201 0.68400002 -0.053967599 1.1315548e-38 324 285
0.0059964 0.68400002 -0.053967599 1.1407744e-38 325 285
0.0071851597 0.68300003 -0.053888701 1.1500648e-38 326 285
0.0083826864 0.68300003 -0.053888701 1.1776877e-38 327 285
0.0095802136 0.68300003 -0.053888701 1.2146721e-38 328 285
0.01077774 0.68300003 -0.053888701 1.2515145e-38 329 285
0.0119928 0.68400002 -0.053967599 1.3066504e-38 330 285
0.013172794 0.68300003 -0.053888701 1.3066504e-38 331 285
0.014370319 0.68300003 -0.053888701 1.3340574e-38 332 285
0.01559064 0.68400002 -0.053967599 1.3248377e-38 333 285
0.016789921 0.68400002 -0.053967599 1.3065065e-38 334 285
0.018041799 0.68599999 -0.054125395 1.3065065e-38 335 285
0.019244585 0.68599999 -0.054125395 1.3064711e-38 336 285
0.020477179 0.68699998 -0.054204296 1.3064711e-38 337 285
0.021681719 0.68699998 -0.054204296 1.32491e-38 338 285
0.022886258 0.68699998 -0.054204296 1.32491e-38 339 285
0.024090799 0.68699998 -0.054204296 1.3065432e-38 340 285
0.025295338 0.68699998 -0.054204296 1.3065432e-38 341 285
0.026538454 0.68800002 -0.054283202 1.2881767e-38 342 285
0.027744746 0.68800002 -0.054283202 1.3157994e-38 343 285
0.028951041 0.68800002 -0.054283202 1.29754e-38 344 285
0.030244999 0.69 -0.054440998 1.3252347e-38 345 285
0.031500384 0.69099998 -0.054519895 1.3160868e-38 346 285
0.03280662 0.69300002 -0.054677699 1.3253063e-38 347 285
0.034070771 0.69400001 -0.054756597 1.3253066e-38 348 285
0.035287585 0.69400001 -0.054756597 1.3253066e-38 349 285
0.036609598 0.69599998 -0.054914396 1.3344906e-38 350 285
0.037829921 0.69599998 -0.054914396 1.3529656e-38 351 285
0.039106347 0.69700003 -0.054993302 1.3256663e-38 352 285
0.040328421 0.69700003 -0.054993302 1.3625086e-38 353 285
0.041550495 0.69700003 -0.054993302 1.3629777e-38 354 285
0.042833932 0.69800001 -0.0550722 1.4275147e-38 355 285
0.04405776 0.69800001 -0.0550722 1.6309972e-38 356 285
-0.032093015 0.704 -0.056779943 1.2904502e-38 294 286
-0.030858666 0.704 -0.056779943 9.6776545e-39 295 286
-0.029582238 0.70300001 -0.056699295 1.1781937e-38 296 286
-0.028349647 0.70300001 -0.056699295 1.1781937e-38 297 286
-0.027117053 0.70300001 -0.056699295 1.187052e-38 298 286
-0.025810819 0.70099998 -0.056537982 1.1778324e-38 299 286
-0.024476532 0.69800001 -0.056296028 1.1596084e-38 300 286
-0.023252707 0.69800001 -0.056296028 1.1780477e-38 301 286
-0.02199732 0.69700003 -0.056215372 1.2332199e-38 302 286
-0.020775247 0.69700003 -0.056215372 1.2424394e-38 303 286
-0.019525118 0.69599998 -0.056134716 1.2700255e-38 304 286
-0.0182522 0.69400001 -0.055973411 1.2700255e-38 305 286
-0.017035386 0.69400001 -0.055973411 1.2792456e-38 306 286
-0.015818574 0.69400001 -0.055973411 1.2515871e-38 307 286
-0.01460176 0.69400001 -0.055973411 1.2882854e-38 308 286
-0.01336566 0.69300002 -0.055892758 1.2882854e-38 309 286
-0.012150601 0.69300002 -0.055892758 1.251659e-38 310 286
-0.01090398 0.69099998 -0.055731449 1.251659e-38 311 286
-0.0096783992 0.69 -0.055650797 1.2240734e-38 312 286
-0.0084440531 0.68800002 -0.055489492 1.2055984e-38 313 286
-0.0072377604 0.68800002 -0.055489492 1.1412416e-38 314 286
-0.0060314666 0.68800002 -0.055489492 1.113547e-38 315 286
-0.0048251734 0.68800002 -0.055489492 1.1959822e-38 316 286
-0.0036188802 0.68800002 -0.055489492 1.1775791e-38 317 286
-0.0024125867 0.68800002 -0.055489492 1.1960172e-38 318 286
-0.0012045399 0.68699998 -0.055408835 1.1776141e-38 319 286
0 0.68699998 -0.055408835 1.1408803e-38 320 286
0.0012027866 0.68599999 -0.055328183 1.1316608e-38 321 286
0.0024055731 0.68599999 -0.055328183 1.1223706e-38 322 286
0.00360836 0.68599999 -0.055328183 1.1223706e-38 323 286
0.0047971201 0.68400002 -0.055166878 1.1223703e-38 324 286
0.0059964 0.68400002 -0.055166878 1.1223703e-38 325 286
0.0071851597 0.68300003 -0.055086225 1.1499201e-38 326 286
0.0083826864 0.68300003 -0.055086225 1.1683592e-38 327 286
0.0095802136 0.68300003 -0.055086225 1.2144205e-38 328 286
0.01077774 0.68300003 -0.055086225 1.2512627e-38 329 286
0.011975267 0.68300003 -0.055086225 1.3063633e-38 330 286
0.013172794 0.68300003 -0.055086225 1.3063633e-38 331 286
0.014370319 0.68300003 -0.055086225 1.3246579e-38 332 286
0.015567848 0.68300003 -0.055086225 1.3338775e-38 333 286
0.016789921 0.68400002 -0.055166878 1.3062911e-38 334 286
0.0179892 0.68400002 -0.055166878 1.3339497e-38 335 286
0.019244585 0.68599999 -0.055328183 1.3155831e-38 336 286
0.020447372 0.68599999 -0.055328183 1.3155831e-38 337 286
0.021681719 0.68699998 -0.055408835 1.3248026e-38 338 286
0.022886258 0.68699998 -0.055408835 1.3248026e-38 339 286
0.024090799 0.68699998 -0.055408835 1.2972869e-38 340 286
0.025295338 0.68699998 -0.055408835 1.2972869e-38 341 286
0.026538454 0.68800002 -0.055489492 1.2972514e-38 342 286
0.027744746 0.68800002 -0.055489492 1.32491e-38 343 286
0.029035198 0.69 -0.055650797 1.2882839e-38 344 286
0.030244999 0.69 -0.055650797 1.306723e-38 345 286
0.031500384 0.69099998 -0.055731449 1.3067586e-38 346 286
0.03280662 0.69300002 -0.055892758 1.3251617e-38 347 286
0.034021679 0.69300002 -0.055892758 1.3251264e-38 348 286
0.035287585 0.69400001 -0.055973411 1.3343461e-38 349 286
0.036504399 0.69400001 -0.055973411 1.334419e-38 350 286
0.037829921 0.69599998 -0.056134716 1.3528221e-38 351 286
0.039106347 0.69700003 -0.056215372 1.3622574e-38 352 286
0.040328421 0.69700003 -0.056215372 1.4083192e-38 353 286
0.041550495 0.69700003 -0.056215372 1.335284e-38 354 286
0.042833932 0.69800001 -0.056296028 1.4090406e-38 355 286
0.04405776 0.69800001 -0.056296028 1.6587282e-38 356 286
-0.030858666 0.704 -0.058014292 9.7684054e-39 295 287
-0.029582238 0.70300001 -0.057931885 1.1417104e-38 296 287
-0.028349647 0.70300001 -0.057931885 1.1232353e-38 297 287
-0.027117053 0.70300001 -0.057931885 1.1780126e-38 298 287
-0.025773998 0.69999999 -0.05768466 1.1319148e-38 299 287
-0.024476532 0.69800001 -0.057519849 1.1136552e-38 300 287
-0.023252707 0.69800001 -0.057519849 1.1413139e-38 301 287
-0.02199732 0.69700003 -0.05743745 1.2056338e-38 302 287
-0.020775247 0.69700003 -0.05743745 1.2148533e-38 303 287
-0.019525118 0.69599998 -0.057355035 1.2423675e-38 304 287
-0.0182522 0.69400001 -0.057190225 1.2515871e-38 305 287
-0.01701084 0.69300002 -0.057107817 1.2605918e-38 306 287
-0.015795778 0.69300002 -0.057107817 1.2605918e-38 307 287
-0.014580719 0.69300002 -0.057107817 1.2054188e-38 308 287
-0.01336566 0.69300002 -0.057107817 1.2146385e-38 309 287
-0.012115533 0.69099998 -0.056942999 1.1688647e-38 310 287
-0.01090398 0.69099998 -0.056942999 1.1688647e-38 311 287
-0.0096783992 0.69 -0.0568606 1.1871237e-38 312 287
-0.0084440531 0.68800002 -0.056695789 1.1687205e-38 313 287
-0.0072377604 0.68800002 -0.056695789 1.1503167e-38 314 287
-0.0060314666 0.68800002 -0.056695789 1.1318417e-38 315 287
-0.0048181596 0.68699998 -0.056613375 1.1408813e-38 316 287
-0.0036136196 0.68699998 -0.056613375 1.1224782e-38 317 287
-0.0024090798 0.68699998 -0.056613375 1.1224782e-38 318 287
-0.0012045399 0.68699998 -0.056613375 1.1132586e-38 319 287
0 0.68599999 -0.056530971 1.1132586e-38 320 287
0.0012027866 0.68599999 -0.056530971 1.1040391e-38 321 287
0.0024055731 0.68599999 -0.056530971 1.131518e-38 322 287
0.00359784 0.68400002 -0.056366164 1.131518e-38 323 287
0.0047971201 0.68400002 -0.056366164 1.1224059e-38 324 287
0.0059876335 0.68300003 -0.056283753 1.1224059e-38 325 287
0.0071851597 0.68300003 -0.056283753 1.1041112e-38 326 287
0.0083826864 0.68300003 -0.056283753 1.1041112e-38 327 287
0.0095802136 0.68300003 -0.056283753 1.1317703e-38 328 287
0.01077774 0.68300003 -0.056283753 1.1409899e-38 329 287
0.011975267 0.68300003 -0.056283753 1.2053101e-38 330 287
0.013172794 0.68300003 -0.056283753 1.2053101e-38 331 287
0.014370319 0.68300003 -0.056283753 1.2511908e-38 332 287
0.015567848 0.68300003 -0.056283753 1.2604104e-38 333 287
0.016765373 0.68300003 -0.056283753 1.2787772e-38 334 287
0.0179892 0.68400002 -0.056366164 1.2879968e-38 335 287
0.01918848 0.68400002 -0.056366164 1.2879968e-38 336 287
0.020447372 0.68599999 -0.056530971 1.2972163e-38 337 287
0.021681719 0.68699998 -0.056613375 1.2697371e-38 338 287
0.022886258 0.68699998 -0.056613375 1.2697371e-38 339 287
0.024090799 0.68699998 -0.056613375 1.2697371e-38 340 287
0.025295338 0.68699998 -0.056613375 1.2605176e-38 341 287
0.026499879 0.68699998 -0.056613375 1.2788491e-38 342 287
0.027744746 0.68800002 -0.056695789 1.2972883e-38 343 287
0.029035198 0.69 -0.0568606 1.2606625e-38 344 287
0.030244999 0.69 -0.0568606 1.269882e-38 345 287
0.031500384 0.69099998 -0.056942999 1.2606988e-38 346 287
0.032711938 0.69099998 -0.056942999 1.2699542e-38 347 287
0.034021679 0.69300002 -0.057107817 1.3067601e-38 348 287
0.035287585 0.69400001 -0.057190225 1.3159798e-38 349 287
0.036504399 0.69400001 -0.057190225 1.325236e-38 350 287
0.037829921 0.69599998 -0.057355035 1.3436751e-38 351 287
0.039106347 0.69700003 -0.05743745 1.3071581e-38 352 287
0.040386278 0.69800001 -0.057519849 1.3716951e-38 353 287
0.041610107 0.69800001 -0.057519849 1.3628005e-38 354 287
0.042833932 0.69800001 -0.057519849 1.4641796e-38 355 287
0.04405776 0.69800001 -0.057519849 1.6679836e-38 356 287
-0.030858666 0.704 -0.059248637 1.0137184e-38 295 288
-0.029582238 0.70300001 -0.059164476 1.1600414e-38 296 288
-0.028349647 0.70300001 -0.059164476 1.1784805e-38 297 288
-0.027117053 0.70300001 -0.059164476 1.1413862e-38 298 288
-0.025773998 0.69999999 -0.058911994 1.1137274e-38 299 288
-0.024476532 0.69800001 -0.058743682 1.1503532e-38 300 288
-0.023252707 0.69800001 -0.058743682 1.1595728e-38 301 288
-0.02199732 0.69700003 -0.05865952 1.1963772e-38 302 288
-0.020775247 0.69700003 -0.05865952 1.1871576e-38 303 288
-0.019525118 0.69599998 -0.058575355 1.242151e-38 304 288
-0.0182522 0.69400001 -0.058407038 1.242151e-38 305 288
-0.01701084 0.69300002 -0.058322877 1.2328962e-38 306 288
-0.015795778 0.69300002 -0.058322877 1.2328962e-38 307 288
-0.014580719 0.69300002 -0.058322877 1.1869428e-38 308 288
-0.013327086 0.69099998 -0.058154557 1.1776874e-38 309 288
-0.012115533 0.69099998 -0.058154557 1.1503164e-38 310 288
-0.010888199 0.69 -0.058070395 1.1595359e-38 311 288
-0.0096783992 0.69 -0.058070395 1.1686482e-38 312 288
-0.0084440531 0.68800002 -0.057902083 1.1686482e-38 313 288
-0.0072377604 0.68800002 -0.057902083 1.1317698e-38 314 288
-0.0060314666 0.68800002 -0.057902083 1.1133305e-38 315 288
-0.0048181596 0.68699998 -0.057817914 1.1315536e-38 316 288
-0.0036136196 0.68699998 -0.057817914 1.122334e-38 317 288
-0.0024090798 0.68699998 -0.057817914 1.1406296e-38 318 288
-0.0012045399 0.68699998 -0.057817914 1.1591046e-38 319 288
0 0.68599999 -0.057733759 1.1040388e-38 320 288
0.0012027866 0.68599999 -0.057733759 1.1132942e-38 321 288
0.0024055731 0.68599999 -0.057733759 1.1040388e-38 322 288
0.00359784 0.68400002 -0.057565439 1.1040388e-38 323 288
0.0047971201 0.68400002 -0.057565439 1.1041107e-38 324 288
0.0059876335 0.68300003 -0.057481278 1.0948911e-38 325 288
0.0071851597 0.68300003 -0.057481278 1.0765596e-38 326 288
0.0083826864 0.68300003 -0.057481278 1.085815e-38 327 288
0.0095802136 0.68300003 -0.057481278 1.1407728e-38 328 288
0.01077774 0.68300003 -0.057481278 1.1684314e-38 329 288
0.011975267 0.68300003 -0.057481278 1.2051654e-38 330 288
0.013172794 0.68300003 -0.057481278 1.2143851e-38 331 288
0.014370319 0.68300003 -0.057481278 1.2510826e-38 332 288
0.015567848 0.68300003 -0.057481278 1.2603022e-38 333 288
0.016765373 0.68300003 -0.057481278 1.2695208e-38 334 288
0.017962901 0.68300003 -0.057481278 1.2971435e-38 335 288
0.01918848 0.68400002 -0.057565439 1.2788122e-38 336 288
0.020447372 0.68599999 -0.057733759 1.2880318e-38 337 288
0.021650158 0.68599999 -0.057733759 1.2605173e-38 338 288
0.022886258 0.68699998 -0.057817914 1.2605173e-38 339 288
0.024090799 0.68699998 -0.057817914 1.2605173e-38 340 288
0.025295338 0.68699998 -0.057817914 1.2605173e-38 341 288
0.026499879 0.68699998 -0.057817914 1.2512258e-38 342 288
0.027744746 0.68800002 -0.057902083 1.2788844e-38 343 288
0.028951041 0.68800002 -0.057902083 1.2605179e-38 344 288
0.030244999 0.69 -0.058070395 1.2789571e-38 345 288
0.031500384 0.69099998 -0.058154557 1.2789568e-38 346 288
0.032711938 0.69099998 -0.058154557 1.315835e-38 347 288
0.034021679 0.69300002 -0.058322877 1.2883911e-38 348 288
0.035287585 0.69400001 -0.058407038 1.3068302e-38 349 288
0.036504399 0.69400001 -0.058407038 1.2978271e-38 350 288
0.037829921 0.69599998 -0.058575355 1.3162663e-38 351 288
0.039106347 0.69700003 -0.05865952 1.2889323e-38 352 288
0.040386278 0.69800001 -0.058743682 1.3350299e-38 353 288
0.041610107 0.69800001 -0.058743682 1.3628355e-38 354 288
0.042833932 0.69800001 -0.058743682 1.5287516e-38 355 288
0.04405776 0.69800001 -0.058743682 1.695679e-38 356 288
-0.032093015 0.704 -0.060482983 1.4469299e-38 294 289
-0.030858666 0.704 -0.060482983 1.0781834e-38 295 289
-0.029624319 0.704 -0.060482983 1.1693689e-38 296 289
-0.028389972 0.704 -0.060482983 1.1878078e-38 297 289
-0.027117053 0.70300001 -0.06039707 1.178264e-38 298 289
-0.025884461 0.70300001 -0.06039707 1.1229468e-38 299 289
-0.024476532 0.69800001 -0.059967503 1.1044709e-38 300 289
-0.023252707 0.69800001 -0.059967503 1.1136905e-38 301 289
-0.02199732 0.69700003 -0.05988159 1.1595715e-38 302 289
-0.020775247 0.69700003 -0.05988159 1.150352e-38 303 289
-0.019525118 0.69599998 -0.059795678 1.1869072e-38 304 289
-0.0182522 0.69400001 -0.059623852 1.1869072e-38 305 289
-0.01701084 0.69300002 -0.05953794 1.1869075e-38 306 289
-0.015795778 0.69300002 -0.05953794 1.1776879e-38 307 289
-0.014580719 0.69300002 -0.05953794 1.1225501e-38 308 289
-0.013327086 0.69099998 -0.059366114 1.1225501e-38 309 289
-0.012115533 0.69099998 -0.059366114 1.1042912e-38 310 289
-0.010888199 0.69 -0.059280202 1.1135107e-38 311 289
-0.0096503468 0.68800002 -0.059108373 1.12273e-38 312 289
-0.0084440531 0.68800002 -0.059108373 1.1042909e-38 313 289
-0.0072377604 0.68800002 -0.059108373 1.1133661e-38 314 289
-0.0060226996 0.68699998 -0.059022456 1.1041107e-38 315 289
-0.0048181596 0.68699998 -0.059022456 1.1222984e-38 316 289
-0.0036136196 0.68699998 -0.059022456 1.1130788e-38 317 289
-0.0024090798 0.68699998 -0.059022456 1.0672334e-38 318 289
-0.0012027866 0.68599999 -0.058936544 1.076453e-38 319 289
0 0.68599999 -0.058936544 1.0948195e-38 320 289
0.00119928 0.68400002 -0.058764715 1.1040391e-38 321 289
0.0023985601 0.68400002 -0.058764715 1.0948911e-38 322 289
0.00359784 0.68400002 -0.058764715 1.0948911e-38 323 289
0.0047971201 0.68400002 -0.058764715 1.0948914e-38 324 289
0.0059876335 0.68300003 -0.05867881 1.0948914e-38 325 289
0.0071851597 0.68300003 -0.05867881 1.085815e-38 326 289
0.0083826864 0.68300003 -0.05867881 1.085815e-38 327 289
0.0095802136 0.68300003 -0.05867881 1.1226207e-38 328 289
0.01077774 0.68300003 -0.05867881 1.1226207e-38 329 289
0.011975267 0.68300003 -0.05867881 1.1500996e-38 330 289
0.013172794 0.68300003 -0.05867881 1.1593192e-38 331 289
0.014370319 0.68300003 -0.05867881 1.2234964e-38 332 289
0.015567848 0.68300003 -0.05867881 1.2327161e-38 333 289
0.016765373 0.68300003 -0.05867881 1.2420066e-38 334 289
0.017962901 0.68300003 -0.05867881 1.2604457e-38 335 289
0.01918848 0.68400002 -0.058764715 1.2236751e-38 336 289
0.020447372 0.68599999 -0.058936544 1.2512977e-38 337 289
0.021650158 0.68599999 -0.058936544 1.2329668e-38 338 289
0.022852944 0.68599999 -0.058936544 1.2329668e-38 339 289
0.024090799 0.68699998 -0.059022456 1.2329665e-38 340 289
0.025295338 0.68699998 -0.059022456 1.2329665e-38 341 289
0.026499879 0.68699998 -0.059022456 1.2512977e-38 342 289
0.027744746 0.68800002 -0.059108373 1.2512977e-38 343 289
0.028951041 0.68800002 -0.059108373 1.2330387e-38 344 289
0.030288832 0.69099998 -0.059366114 1.2514779e-38 345 289
0.031591557 0.69300002 -0.05953794 1.2606975e-38 346 289
0.03280662 0.69300002 -0.05953794 1.2699171e-38 347 289
0.034070771 0.69400001 -0.059623852 1.2700964e-38 348 289
0.035287585 0.69400001 -0.059623852 1.2885357e-38 349 289
0.036609598 0.69599998 -0.059795678 1.2794603e-38 350 289
0.037884273 0.69700003 -0.05988159 1.3163384e-38 351 289
0.039162453 0.69800001 -0.059967503 1.2706376e-38 352 289
0.040386278 0.69800001 -0.059967503 1.3074799e-38 353 289
0.041610107 0.69800001 -0.059967503 1.3811667e-38 354 289
0.042772565 0.69700003 -0.05988159 1.6024362e-38 355 289
0.043994639 0.69700003 -0.05988159 1.7142259e-38 356 289
-0.032184184 0.70599997 -0.061892662 1.5667121e-38 294 290
-0.030946331 0.70599997 -0.061892662 1.1794904e-38 295 290
-0.029624319 0.704 -0.061717331 1.2152146e-38 296 290
-0.028389972 0.704 -0.061717331 1.2428733e-38 297 290
-0.027117053 0.70300001 -0.061629668 1.1600045e-38 298 290
-0.025884461 0.70300001 -0.061629668 1.104723e-38 299 290
-0.024546666 0.69999999 -0.061366666 1.1320217e-38 300 290
-0.023252707 0.69800001 -0.061191335 1.1228022e-38 301 290
-0.02199732 0.69700003 -0.061103668 1.1410252e-38 302 290
-0.020775247 0.69700003 -0.061103668 1.1317698e-38 303 290
-0.019525118 0.69599998 -0.061015997 1.1408819e-38 304 290
-0.0182522 0.69400001 -0.060840666 1.1408819e-38 305 290
-0.01701084 0.69300002 -0.060752999 1.1225501e-38 306 290
-0.015795778 0.69300002 -0.060752999 1.1133305e-38 307 290
-0.014580719 0.69300002 -0.060752999 1.0765602e-38 308 290
-0.0133078 0.69 -0.060489997 1.0765602e-38 309 290
-0.012097999 0.69 -0.060489997 1.0582655e-38 310 290
-0.010856641 0.68800002 -0.060314666 1.0582655e-38 311 290
-0.0096503468 0.68800002 -0.060314666 1.0858516e-38 312 290
-0.0084440531 0.68800002 -0.060314666 1.0858516e-38 313 290
-0.0072377604 0.68800002 -0.060314666 1.1132942e-38 314 290
-0.0060226996 0.68699998 -0.060226995 1.0948192e-38 315 290
-0.0048181596 0.68699998 -0.060226995 1.0947473e-38 316 290
-0.0036136196 0.68699998 -0.060226995 1.0855276e-38 317 290
-0.0024090798 0.68699998 -0.060226995 1.0763446e-38 318 290
-0.0012027866 0.68599999 -0.060139328 1.0855643e-38 319 290
0 0.68400002 -0.059964001 1.0580137e-38 320 290
0.00119928 0.68400002 -0.059964001 1.0580137e-38 321 290
0.0023985601 0.68400002 -0.059964001 1.0213877e-38 322 290
0.00359784 0.68400002 -0.059964001 1.0213877e-38 323 290
0.0047971201 0.68400002 -0.059964001 1.0213521e-38 324 290
0.0059964 0.68400002 -0.059964001 1.0397911e-38 325 290
0.0071851597 0.68300003 -0.059876334 1.0399337e-38 326 290
0.0083826864 0.68300003 -0.059876334 1.0675923e-38 327 290
0.0095802136 0.68300003 -0.059876334 1.122656e-38 328 290
0.01077774 0.68300003 -0.059876334 1.1318756e-38 329 290
0.011975267 0.68300003 -0.059876334 1.1501352e-38 330 290
0.013172794 0.68300003 -0.059876334 1.1501352e-38 331 290
0.014370319 0.68300003 -0.059876334 1.1684311e-38 332 290
0.015567848 0.68300003 -0.059876334 1.1776507e-38 333 290
0.016789921 0.68400002 -0.059964001 1.177686e-38 334 290
0.0179892 0.68400002 -0.059964001 1.1869057e-38 335 290
0.01918848 0.68400002 -0.059964001 1.2052725e-38 336 290
0.020447372 0.68599999 -0.060139328 1.2144921e-38 337 290
0.021650158 0.68599999 -0.060139328 1.2237116e-38 338 290
0.022852944 0.68599999 -0.060139328 1.2237116e-38 339 290
0.024090799 0.68699998 -0.060226995 1.2144918e-38 340 290
0.025295338 0.68699998 -0.060226995 1.2237113e-38 341 290
0.026499879 0.68699998 -0.060226995 1.2238185e-38 342 290
0.027744746 0.68800002 -0.060314666 1.2422935e-38 343 290
0.028951041 0.68800002 -0.060314666 1.24233e-38 344 290
0.030244999 0.69 -0.060489997 1.24233e-38 345 290
0.031500384 0.69099998 -0.060577665 1.2515501e-38 346 290
0.03280662 0.69300002 -0.060752999 1.2515501e-38 347 290
0.034021679 0.69300002 -0.060752999 1.251658e-38 348 290
0.035287585 0.69400001 -0.060840666 1.2792807e-38 349 290
0.036609598 0.69599998 -0.061015997 1.2519817e-38 350 290
0.037884273 0.69700003 -0.061103668 1.2796404e-38 351 290
0.039162453 0.69800001 -0.061191335 1.2706376e-38 352 290
0.040386278 0.69800001 -0.061191335 1.3074799e-38 353 290
0.041610107 0.69800001 -0.061191335 1.3721269e-38 354 290
0.042772565 0.69700003 -0.061103668 1.6302747e-38 355 290
0.043994639 0.69700003 -0.061103668 1.7418487e-38 356 290
-0.032093015 0.704 -0.062951677 1.6314292e-38 294 291
-0.030858666 0.704 -0.062951677 1.2903053e-38 295 291
-0.029624319 0.704 -0.062951677 1.2522007e-38 296 291
-0.028389972 0.704 -0.062951677 1.2337616e-38 297 291
-0.027117053 0.70300001 -0.062862262 1.1967389e-38 298 291
-0.025884461 0.70300001 -0.062862262 1.1690442e-38 299 291
-0.024546666 0.69999999 -0.062593997 1.1412419e-38 300 291
-0.023252707 0.69800001 -0.062415157 1.1319864e-38 301 291
-0.02199732 0.69700003 -0.062325738 1.1226227e-38 302 291
-0.020775247 0.69700003 -0.062325738 1.1041835e-38 303 291
-0.019525118 0.69599998 -0.062236317 1.0673779e-38 304 291
-0.0182522 0.69400001 -0.06205748 1.0673779e-38 305 291
-0.01701084 0.69300002 -0.061968062 1.0582655e-38 306 291
-0.015795778 0.69300002 -0.061968062 1.0397905e-38 307 291
-0.014580719 0.69300002 -0.061968062 1.0396466e-38 308 291
-0.0133078 0.69 -0.061699796 1.030427e-38 309 291
-0.012097999 0.69 -0.061699796 1.021244e-38 310 291
-0.010856641 0.68800002 -0.06152096 1.0397192e-38 311 291
-0.0096503468 0.68800002 -0.06152096 1.0581936e-38 312 291
-0.0084440531 0.68800002 -0.06152096 1.0581936e-38 313 291
-0.0072377604 0.68800002 -0.06152096 1.0948195e-38 314 291
-0.0060226996 0.68699998 -0.061431535 1.0948195e-38 315 291
-0.0048181596 0.68699998 -0.061431535 1.0672328e-38 316 291
-0.0036136196 0.68699998 -0.061431535 1.0487936e-38 317 291
-0.0024090798 0.68699998 -0.061431535 1.0304273e-38 318 291
-0.0012027866 0.68599999 -0.061342116 1.0304273e-38 319 291
0 0.68400002 -0.061163284 1.0028412e-38 320 291
0.00119928 0.68400002 -0.061163284 9.9362164e-39 321 291
0.0023985601 0.68400002 -0.061163284 9.9365794e-39 322 291
0.00359784 0.68400002 -0.061163284 9.8443838e-39 323 291
0.0047971201 0.68400002 -0.061163284 9.8443838e-39 324 291
0.0059964 0.68400002 -0.061163284 1.0028775e-38 325 291
0.0071851597 0.68300003 -0.061073858 1.0397905e-38 326 291
0.0083826864 0.68300003 -0.061073858 1.0582655e-38 327 291
0.0095802136 0.68300003 -0.061073858 1.1225854e-38 328 291
0.01077774 0.68300003 -0.061073858 1.1133658e-38 329 291
0.011975267 0.68300003 -0.061073858 1.1132942e-38 330 291
0.013172794 0.68300003 -0.061073858 1.0855997e-38 331 291
0.014370319 0.68300003 -0.061073858 1.030427e-38 332 291
0.015567848 0.68300003 -0.061073858 1.0765248e-38 333 291
0.016789921 0.68400002 -0.061163284 1.1591043e-38 334 291
0.0179892 0.68400002 -0.061163284 1.1775435e-38 335 291
0.01918848 0.68400002 -0.061163284 1.1960175e-38 336 291
0.020447372 0.68599999 -0.061342116 1.2052372e-38 337 291
0.021650158 0.68599999 -0.061342116 1.2144568e-38 338 291
0.022852944 0.68599999 -0.061342116 1.2144568e-38 339 291
0.024090799 0.68699998 -0.061431535 1.2237116e-38 340 291
0.025295338 0.68699998 -0.061431535 1.2144921e-38 341 291
0.026499879 0.68699998 -0.061431535 1.2053801e-38 342 291
0.027744746 0.68800002 -0.06152096 1.2330387e-38 343 291
0.028951041 0.68800002 -0.06152096 1.2330031e-38 344 291
0.030244999 0.69 -0.061699796 1.2422226e-38 345 291
0.031500384 0.69099998 -0.061789215 1.2422949e-38 346 291
0.03280662 0.69300002 -0.061968062 1.2515145e-38 347 291
0.034021679 0.69300002 -0.061968062 1.251658e-38 348 291
0.035287585 0.69400001 -0.06205748 1.2792807e-38 349 291
0.036609598 0.69599998 -0.062236317 1.2336149e-38 350 291
0.037884273 0.69700003 -0.062325738 1.270493e-38 351 291
0.039162453 0.69800001 -0.062415157 1.2707095e-38 352 291
0.040386278 0.69800001 -0.062415157 1.2799291e-38 353 291
0.041610107 0.69800001 -0.062415157 1.3629797e-38 354 291
0.042772565 0.69700003 -0.062325738 1.6948839e-38 355 291
0.043994639 0.69700003 -0.062325738 1.7327018e-38 356 291
-0.030858666 0.704 -0.064186029 1.4468946e-38 295 292
-0.029624319 0.704 -0.064186029 1.3351057e-38 296 292
-0.028389972 0.704 -0.064186029 1.2797884e-38 297 292
-0.027117053 0.70300001 -0.064094849 1.2244695e-38 298 292
-0.025884461 0.70300001 -0.064094849 1.1599325e-38 299 292
-0.024476532 0.69800001 -0.063638985 1.1780123e-38 300 292
-0.023252707 0.69800001 -0.063638985 1.1319145e-38 301 292
-0.02199732 0.69700003 -0.06354782 1.1042558e-38 302 292
-0.020775247 0.69700003 -0.06354782 1.0858166e-38 303 292
-0.019525118 0.69599998 -0.063456632 1.0398987e-38 304 292
-0.0182522 0.69400001 -0.063274294 1.0306791e-38 305 292
-0.01701084 0.69300002 -0.063183114 1.0030927e-38 306 292
-0.015795778 0.69300002 -0.063183114 9.7543391e-39 307 292
-0.014538639 0.69099998 -0.063000768 9.844381e-39 308 292
-0.013327086 0.69099998 -0.063000768 9.7521853e-39 309 292
-0.012097999 0.69 -0.062909603 9.6610687e-39 310 292
-0.010856641 0.68800002 -0.06272725 9.84546e-39 311 292
-0.0096503468 0.68800002 -0.06272725 1.0396469e-38 312 292
-0.0084440531 0.68800002 -0.06272725 1.0396469e-38 313 292
-0.0072377604 0.68800002 -0.06272725 1.0396469e-38 314 292
-0.0060226996 0.68699998 -0.062636077 1.0396469e-38 315 292
-0.0048181596 0.68699998 -0.062636077 1.0304992e-38 316 292
-0.0036136196 0.68699998 -0.062636077 1.0212796e-38 317 292
-0.0024090798 0.68699998 -0.062636077 1.0029125e-38 318 292
-0.0012027866 0.68599999 -0.062544905 1.0029125e-38 319 292
0 0.68400002 -0.062362559 9.5688731e-39 320 292
0.00119928 0.68400002 -0.062362559 9.4766774e-39 321 292
0.0023985601 0.68400002 -0.062362559 8.9253183e-39 322 292
0.00359784 0.68400002 -0.062362559 9.017514e-39 323 292
0.0047971201 0.68400002 -0.062362559 8.8338486e-39 324 292
0.0059964 0.68400002 -0.062362559 9.0178797e-39 325 292
0.0071851597 0.68300003 -0.06227139 9.1118606e-39 326 292
0.0083826864 0.68300003 -0.06227139 9.4806431e-39 327 292
0.0095802136 0.68300003 -0.06227139 1.039934e-38 328 292
0.01077774 0.68300003 -0.06227139 1.039934e-38 329 292
0.011975267 0.68300003 -0.06227139 1.0672334e-38 330 292
0.013172794 0.68300003 -0.06227139 1.0580137e-38 331 292
0.01439136 0.68400002 -0.062362559 1.0028059e-38 332 292
0.01559064 0.68400002 -0.062362559 1.021209e-38 333 292
0.016789921 0.68400002 -0.062362559 1.0672347e-38 334 292
0.0179892 0.68400002 -0.062362559 1.0856738e-38 335 292
0.019244585 0.68599999 -0.062544905 1.1500646e-38 336 292
0.020447372 0.68599999 -0.062544905 1.1592841e-38 337 292
0.021650158 0.68599999 -0.062544905 1.1777583e-38 338 292
0.022852944 0.68599999 -0.062544905 1.1869779e-38 339 292
0.024090799 0.68699998 -0.062636077 1.1869776e-38 340 292
0.025295338 0.68699998 -0.062636077 1.1869776e-38 341 292
0.026499879 0.68699998 -0.062636077 1.1961971e-38 342 292
0.027744746 0.68800002 -0.06272725 1.2054167e-38 343 292
0.029035198 0.69 -0.062909603 1.2237485e-38 344 292
0.0303765 0.69300002 -0.063183114 1.232968e-38 345 292
0.031591557 0.69300002 -0.063183114 1.2239281e-38 346 292
0.032853961 0.69400001 -0.063274294 1.2331836e-38 347 292
0.034070771 0.69400001 -0.063274294 1.2242154e-38 348 292
0.035389278 0.69599998 -0.063456632 1.2426547e-38 349 292
0.036662199 0.69700003 -0.06354782 1.2336515e-38 350 292
0.037884273 0.69700003 -0.06354782 1.2613462e-38 351 292
0.039162453 0.69800001 -0.063638985 1.2615272e-38 352 292
0.040386278 0.69800001 -0.063638985 1.2707826e-38 353 292
0.041610107 0.69800001 -0.063638985 1.399751e-38 354 292
0.042833932 0.69800001 -0.063638985 1.7961922e-38 355 292
-0.029624319 0.704 -0.065420374 1.399678e-38 296 293
-0.028389972 0.704 -0.065420374 1.3351411e-38 297 293
-0.027155625 0.704 -0.065420374 1.252201e-38 298 293
-0.025884461 0.70300001 -0.065327443 1.2060672e-38 299 293
-0.024476532 0.69800001 -0.06486281 1.1321316e-38 300 293
-0.023252707 0.69800001 -0.06486281 1.1136923e-38 301 293
-0.02199732 0.69700003 -0.064769886 1.0859615e-38 302 293
-0.020775247 0.69700003 -0.064769886 1.0674863e-38 303 293
-0.019525118 0.69599998 -0.064676955 1.0123845e-38 304 293
-0.0182522 0.69400001 -0.064491108 9.8468991e-39 305 293
-0.01701084 0.69300002 -0.064398177 1.0029847e-38 306 293
-0.015795778 0.69300002 -0.064398177 9.6614246e-39 307 293
-0.014538639 0.69099998 -0.06421233 9.7525384e-39 308 293
-0.013327086 0.69099998 -0.06421233 9.7525384e-39 309 293
-0.012097999 0.69 -0.064119399 9.93728e-39 310 293
-0.010856641 0.68800002 -0.063933544 1.0029834e-38 311 293
-0.0096503468 0.68800002 -0.063933544 1.0396819e-38 312 293
-0.0084440531 0.68800002 -0.063933544 1.0304623e-38 313 293
-0.0072377604 0.68800002 -0.063933544 1.0395387e-38 314 293
-0.0060226996 0.68699998 -0.06384062 1.0395387e-38 315 293
-0.0048181596 0.68699998 -0.06384062 9.9369325e-39 316 293
-0.0036136196 0.68699998 -0.06384062 1.0029128e-38 317 293
-0.0024090798 0.68699998 -0.06384062 1.002985e-38 318 293
-0.0012027866 0.68599999 -0.063747689 9.7532643e-39 319 293
0 0.68400002 -0.063561834 9.3859265e-39 320 293
0.00119928 0.68400002 -0.063561834 8.8327528e-39 321 293
0.0023985601 0.68400002 -0.063561834 8.4647087e-39 322 293
0.00359784 0.68400002 -0.063561834 8.3725131e-39 323 293
0.0047971201 0.68400002 -0.063561834 8.5551065e-39 324 293
0.0059964 0.68400002 -0.063561834 8.7398565e-39 325 293
0.0071956799 0.68400002 -0.063561834 9.1104187e-39 326 293
0.0083949603 0.68400002 -0.063561834 9.3866454e-39 327 293
0.0095942402 0.68400002 -0.063561834 1.0213874e-38 328 293
0.01079352 0.68400002 -0.063561834 1.0397905e-38 329 293
0.0119928 0.68400002 -0.063561834 1.0396466e-38 330 293
0.01319208 0.68400002 -0.063561834 1.0119879e-38 331 293
0.01439136 0.68400002 -0.063561834 9.7521853e-39 332 293
0.01559064 0.68400002 -0.063561834 9.844381e-39 333 293
0.016789921 0.68400002 -0.063561834 1.0672331e-38 334 293
0.018041799 0.68599999 -0.063747689 1.1133308e-38 335 293
0.019244585 0.68599999 -0.063747689 1.1592115e-38 336 293
0.020447372 0.68599999 -0.063747689 1.1776507e-38 337 293
0.021650158 0.68599999 -0.063747689 1.186906e-38 338 293
0.022852944 0.68599999 -0.063747689 1.186906e-38 339 293
0.024090799 0.68699998 -0.06384062 1.177758e-38 340 293
0.025295338 0.68699998 -0.06384062 1.177758e-38 341 293
0.026499879 0.68699998 -0.06384062 1.2144921e-38 342 293
0.027825398 0.69 -0.064119399 1.2144921e-38 343 293
0.029077278 0.69099998 -0.06421233 1.205452e-38 344 293
0.0303765 0.69300002 -0.064398177 1.2146716e-38 345 293
0.031591557 0.69300002 -0.064398177 1.2147072e-38 346 293
0.032853961 0.69400001 -0.064491108 1.24233e-38 347 293
0.034070771 0.69400001 -0.064491108 1.2149234e-38 348 293
0.035389278 0.69599998 -0.064676955 1.2518015e-38 349 293
0.036662199 0.69700003 -0.064769886 1.242835e-38 350 293
0.037938625 0.69800001 -0.06486281 1.288897e-38 351 293
0.039162453 0.69800001 -0.06486281 1.2983333e-38 352 293
0.040386278 0.69800001 -0.06486281 1.2983333e-38 353 293
0.041729331 0.69999999 -0.065048665 1.3999671e-38 354 293
0.042956665 0.69999999 -0.065048665 1.8425061e-38 355 293
-0.029708479 0.70599997 -0.066844068 1.4737942e-38 296 294
-0.028389972 0.704 -0.066654719 1.2985867e-38 297 294
-0.027117053 0.70300001 -0.066560037 1.2615272e-38 298 294
-0.025884461 0.70300001 -0.066560037 1.1785511e-38 299 294
-0.024546666 0.69999999 -0.066275999 1.0864647e-38 300 294
-0.023252707 0.69800001 -0.066086642 1.0403669e-38 301 294
-0.02199732 0.69700003 -0.06599196 1.0677018e-38 302 294
-0.020775247 0.69700003 -0.06599196 1.021604e-38 303 294
-0.019525118 0.69599998 -0.065897278 1.0306791e-38 304 294
-0.0182522 0.69400001 -0.065707922 1.01224e-38 305 294
-0.017035386 0.69400001 -0.065707922 9.9369297e-39 306 294
-0.015795778 0.69300002 -0.06561324 9.9369297e-39 307 294
-0.014580719 0.69300002 -0.06561324 9.6617749e-39 308 294
-0.013327086 0.69099998 -0.065423876 9.6617749e-39 309 294
-0.012097999 0.69 -0.065329194 9.8465193e-39 310 294
-0.010856641 0.68800002 -0.065139838 9.8465193e-39 311 294
-0.0096503468 0.68800002 -0.065139838 1.0212794e-38 312 294
-0.0084440531 0.68800002 -0.065139838 1.0028762e-38 313 294
-0.0072377604 0.68800002 -0.065139838 9.7536203e-39 314 294
-0.0060226996 0.68699998 -0.065045156 9.6614246e-39 315 294
-0.0048181596 0.68699998 -0.065045156 9.6617848e-39 316 294
-0.0036136196 0.68699998 -0.065045156 9.7543391e-39 317 294
-0.0024090798 0.68699998 -0.065045156 9.7539832e-39 318 294
-0.0012027866 0.68599999 -0.064950474 9.6617876e-39 319 294
0 0.68400002 -0.064761117 9.3855608e-39 320 294
0.00119928 0.68400002 -0.064761117 9.3855608e-39 321 294
0.0023985601 0.68400002 -0.064761117 8.9249484e-39 322 294
0.00359784 0.68400002 -0.064761117 8.8327528e-39 323 294
0.0047971201 0.68400002 -0.064761117 8.1884792e-39 324 294
0.0059964 0.68400002 -0.064761117 8.4650647e-39 325 294
0.0071956799 0.68400002 -0.064761117 8.2835489e-39 326 294
0.0083949603 0.68400002 -0.064761117 8.7445256e-39 327 294
0.0095942402 0.68400002 -0.064761117 9.4791942e-39 328 294
0.01079352 0.68400002 -0.064761117 9.5713898e-39 329 294
0.0119928 0.68400002 -0.064761117 1.0028409e-38 330 294
0.01319208 0.68400002 -0.064761117 9.844018e-39 331 294
0.01439136 0.68400002 -0.064761117 9.9362164e-39 332 294
0.01559064 0.68400002 -0.064761117 1.0028412e-38 333 294
0.016839013 0.68599999 -0.064950474 1.0489738e-38 334 294
0.018041799 0.68599999 -0.064950474 1.085816e-38 335 294
0.019244585 0.68599999 -0.064950474 1.1409166e-38 336 294
0.020477179 0.68699998 -0.065045156 1.1409166e-38 337 294
0.021681719 0.68699998 -0.065045156 1.1501715e-38 338 294
0.022886258 0.68699998 -0.065045156 1.1593912e-38 339 294
0.024090799 0.68699998 -0.065045156 1.1594265e-38 340 294
0.025295338 0.68699998 -0.065045156 1.1594265e-38 341 294
0.026538454 0.68800002 -0.065139838 1.1870132e-38 342 294
0.027825398 0.69 -0.065329194 1.1962327e-38 343 294
0.029035198 0.69 -0.065329194 1.205452e-38 344 294
0.030288832 0.69099998 -0.065423876 1.2146716e-38 345 294
0.031591557 0.69300002 -0.06561324 1.2147791e-38 346 294
0.032853961 0.69400001 -0.065707922 1.2239988e-38 347 294
0.034168959 0.69599998 -0.065897278 1.2058842e-38 348 294
0.035440128 0.69700003 -0.06599196 1.2427265e-38 349 294
0.0367148 0.69800001 -0.066086642 1.1969905e-38 350 294
0.037938625 0.69800001 -0.066086642 1.2338329e-38 351 294
0.039162453 0.69800001 -0.066086642 1.234013e-38 352 294
0.040386278 0.69800001 -0.066086642 1.2801108e-38 353 294
0.041610107 0.69800001 -0.066086642 1.5013104e-38 354 294
0.042833932 0.69800001 -0.066086642 1.9438493e-38 355 294
-0.028389972 0.704 -0.067889065 1.3357894e-38 297 295
-0.027117053 0.70300001 -0.067792632 1.2985136e-38 298 295
-0.025810819 0.70099998 -0.067599766 1.2062821e-38 299 295
-0.024546666 0.69999999 -0.067503333 1.1049758e-38 300 295
-0.023252707 0.69800001 -0.06731046 1.0496943e-38 301 295
-0.02199732 0.69700003 -0.067214034 1.0585546e-38 302 295
-0.020775247 0.69700003 -0.067214034 1.0308959e-38 303 295
-0.019525118 0.69599998 -0.067117594 1.0307154e-38 304 295
-0.0182522 0.69400001 -0.066924736 1.0030927e-38 305 295
-0.017035386 0.69400001 -0.066924736 9.8476081e-39 306 295
-0.015795778 0.69300002 -0.066828303 9.6632169e-39 307 295
-0.014580719 0.69300002 -0.066828303 9.5713744e-39 308 295
-0.013327086 0.69099998 -0.06663543 9.5713744e-39 309 295
-0.012097999 0.69 -0.066538997 9.8461662e-39 310 295
-0.010856641 0.68800002 -0.066346131 9.7539706e-39 311 295
-0.0096503468 0.68800002 -0.066346131 9.9362136e-39 312 295
-0.0084440531 0.68800002 -0.066346131 9.844018e-39 313 295
-0.0072377604 0.68800002 -0.066346131 9.7525413e-39 314 295
-0.0060226996 0.68699998 -0.066249698 9.8447369e-39 315 295
-0.0048111463 0.68599999 -0.066153266 9.4784725e-39 316 295
-0.00360836 0.68599999 -0.066153266 9.6632225e-39 317 295
-0.0024055731 0.68599999 -0.066153266 9.6632225e-39 318 295
-0.0012027866 0.68599999 -0.066153266 9.5706681e-39 319 295
0 0.68400002 -0.0659604 9.4788284e-39 320 295
0.00119928 0.68400002 -0.0659604 9.4788284e-39 321 295
0.0023985601 0.68400002 -0.0659604 8.835624e-39 322 295
0.00359784 0.68400002 -0.0659604 8.6512314e-39 323 295
0.0047971201 0.68400002 -0.0659604 8.2828216e-39 324 295
0.0059964 0.68400002 -0.0659604 8.2828216e-39 325 295
0.0071956799 0.68400002 -0.0659604 8.5597658e-39 326 295
0.0083949603 0.68400002 -0.0659604 8.6519614e-39 327 295
0.0095942402 0.68400002 -0.0659604 9.5706709e-39 328 295
0.01079352 0.68400002 -0.0659604 9.4784753e-39 329 295
0.0119928 0.68400002 -0.0659604 9.8436621e-39 330 295
0.01319208 0.68400002 -0.0659604 9.7514665e-39 331 295
0.01439136 0.68400002 -0.0659604 9.9362108e-39 332 295
0.01559064 0.68400002 -0.0659604 1.0304992e-38 333 295
0.016839013 0.68599999 -0.066153266 1.0765596e-38 334 295
0.018041799 0.68599999 -0.066153266 1.085815e-38 335 295
0.019244585 0.68599999 -0.066153266 1.1316608e-38 336 295
0.020477179 0.68699998 -0.066249698 1.1408803e-38 337 295
0.021681719 0.68699998 -0.066249698 1.1500999e-38 338 295
0.022886258 0.68699998 -0.066249698 1.1777227e-38 339 295
0.024090799 0.68699998 -0.066249698 1.1593912e-38 340 295
0.025295338 0.68699998 -0.066249698 1.1593912e-38 341 295
0.026538454 0.68800002 -0.066346131 1.1870132e-38 342 295
0.027825398 0.69 -0.066538997 1.2054523e-38 343 295
0.029035198 0.69 -0.066538997 1.1871208e-38 344 295
0.030288832 0.69099998 -0.06663543 1.2055239e-38 345 295
0.031591557 0.69300002 -0.066828303 1.1964122e-38 346 295
0.032853961 0.69400001 -0.066924736 1.2332905e-38 347 295
0.034168959 0.69599998 -0.067117594 1.1967009e-38 348 295
0.035440128 0.69700003 -0.067214034 1.2243956e-38 349 295
0.0367148 0.69800001 -0.06731046 1.2245767e-38 350 295
0.037938625 0.69800001 -0.06731046 1.2337964e-38 351 295
0.039274666 0.69999999 -0.067503333 1.2889341e-38 352 295
0.040502001 0.69999999 -0.067503333 1.4272275e-38 353 295
0.041610107 0.69800001 -0.06731046 1.5570597e-38 354 295
0.042833932 0.69800001 -0.06731046 1.907403e-38 355 295
-0.027117053 0.70300001 -0.069025226 1.3262446e-38 298 296
-0.025810819 0.70099998 -0.068828844 1.234013e-38 299 296
-0.024546666 0.69999999 -0.068730667 1.1326338e-38 300 296
-0.023252707 0.69800001 -0.068534292 1.0865e-38 301 296
-0.02202888 0.69800001 -0.068534292 1.0771367e-38 302 296
-0.020805053 0.69800001 -0.068534292 1.0494419e-38 303 296
-0.019553173 0.69700003 -0.068436109 1.0584454e-38 304 296
-0.018304799 0.69599998 -0.068337917 1.0399703e-38 305 296
-0.017035386 0.69400001 -0.068141542 9.8490403e-39 306 296
-0.015818574 0.69400001 -0.068141542 9.6642903e-39 307 296
-0.014580719 0.69300002 -0.068043359 9.6635728e-39 308 296
-0.013327086 0.69099998 -0.067846984 9.5713772e-39 309 296
-0.012097999 0.69 -0.0677488 9.9372856e-39 310 296
-0.010888199 0.69 -0.0677488 9.8447313e-39 311 296
-0.0096503468 0.68800002 -0.067552425 9.9362136e-39 312 296
-0.0084440531 0.68800002 -0.067552425 9.844018e-39 313 296
-0.0072272392 0.68699998 -0.067454241 9.5688703e-39 314 296
-0.0060226996 0.68699998 -0.067454241 9.6614246e-39 315 296
-0.0048111463 0.68599999 -0.06735605 9.6617848e-39 316 296
-0.00360836 0.68599999 -0.06735605 9.7543391e-39 317 296
-0.0024055731 0.68599999 -0.06735605 9.6632225e-39 318 296
-0.0012027866 0.68599999 -0.06735605 9.6632225e-39 319 296
0 0.68400002 -0.067159683 9.7543335e-39 320 296
0.00119928 0.68400002 -0.067159683 9.7543335e-39 321 296
0.0023985601 0.68400002 -0.067159683 9.3869957e-39 322 296
0.00359784 0.68400002 -0.067159683 9.0185733e-39 323 296
0.0047971201 0.68400002 -0.067159683 8.3750172e-39 324 296
0.0059964 0.68400002 -0.067159683 8.4672142e-39 325 296
0.0071956799 0.68400002 -0.067159683 8.2846181e-39 326 296
0.0083949603 0.68400002 -0.067159683 8.4690093e-39 327 296
0.0095942402 0.68400002 -0.067159683 9.4791914e-39 328 296
0.01079352 0.68400002 -0.067159683 9.4791914e-39 329 296
0.0119928 0.68400002 -0.067159683 9.5688703e-39 330 296
0.01319208 0.68400002 -0.067159683 9.5688703e-39 331 296
0.01439136 0.68400002 -0.067159683 1.0028762e-38 332 296
0.01559064 0.68400002 -0.067159683 1.0304989e-38 333 296
0.016839013 0.68599999 -0.06735605 1.0948911e-38 334 296
0.018041799 0.68599999 -0.06735605 1.0948911e-38 335 296
0.019272638 0.68699998 -0.067454241 1.1132939e-38 336 296
0.020477179 0.68699998 -0.067454241 1.1225135e-38 337 296
