# .PCD v.7 - Point Cloud Data file format
FIELDS x y z rgb imX imY
SIZE 4 4 4 4 4 4
TYPE F F F F F F
COUNT 1 1 1 1 1 1
WIDTH 829
HEIGHT 1
VIEWPOINT 0 0 0 1 0 0 0
POINTS 829
DATA ascii
0.0059964 0.68400002 -0.058764715 1.1133658e-38 325 289
0.0071851597 0.68300003 -0.05867881 1.1318403e-38 326 289
0.0083826864 0.68300003 -0.05867881 1.14106e-38 327 289
0.0095802136 0.68300003 -0.05867881 1.1594268e-38 328 289
0.01077774 0.68300003 -0.05867881 1.1686463e-38 329 289
0.011975267 0.68300003 -0.05867881 1.2144923e-38 330 289
0.013172794 0.68300003 -0.05867881 1.2237119e-38 331 289
0.014370319 0.68300003 -0.05867881 1.2420431e-38 332 289
0.01559064 0.68400002 -0.058764715 1.2512627e-38 333 289
0.016789921 0.68400002 -0.058764715 1.260446e-38 334 289
0.018041799 0.68599999 -0.058936544 1.260446e-38 335 289
0.019244585 0.68599999 -0.058936544 1.2604457e-38 336 289
0.020477179 0.68699998 -0.059022456 1.2512261e-38 337 289
0.021681719 0.68699998 -0.059022456 1.2420782e-38 338 289
0.022886258 0.68699998 -0.059022456 1.2512977e-38 339 289
0.024125867 0.68800002 -0.059108373 1.2236751e-38 340 289
0.02533216 0.68800002 -0.059108373 1.2236751e-38 341 289
0.026538454 0.68800002 -0.059108373 1.2329668e-38 342 289
0.027744746 0.68800002 -0.059108373 1.2421863e-38 343 289
0.029161438 0.69300002 -0.05953794 1.2605176e-38 344 289
0.0303765 0.69300002 -0.05953794 1.2697371e-38 345 289
0.031637147 0.69400001 -0.059623852 1.2606975e-38 346 289
0.032853961 0.69400001 -0.059623852 1.2883202e-38 347 289
0.034070771 0.69400001 -0.059623852 1.2609492e-38 348 289
0.035389278 0.69599998 -0.059795678 1.2794243e-38 349 289
0.0367148 0.69800001 -0.059967503 1.261166e-38 350 289
0.037938625 0.69800001 -0.059967503 1.2888607e-38 351 289
0.039274666 0.69999999 -0.060139328 1.2799291e-38 352 289
0.040502001 0.69999999 -0.060139328 1.2983683e-38 353 289
0.041729331 0.69999999 -0.060139328 1.4365564e-38 354 289
0.042833932 0.69800001 -0.059967503 1.7961192e-38 355 289
0.04405776 0.69800001 -0.059967503 1.7512131e-38 356 289
-0.032184184 0.70599997 -0.061892662 1.4744797e-38 294 290
-0.030946331 0.70599997 -0.061892662 1.1794539e-38 295 290
-0.029624319 0.704 -0.061717331 1.2523432e-38 296 290
-0.028389972 0.704 -0.061717331 1.2062454e-38 297 290
-0.027117053 0.70300001 -0.061629668 1.2058854e-38 298 290
-0.025884461 0.70300001 -0.061629668 1.1597878e-38 299 290
-0.024546666 0.69999999 -0.061366666 1.1596084e-38 300 290
-0.023252707 0.69800001 -0.061191335 1.1227303e-38 301 290
-0.02199732 0.69700003 -0.061103668 1.1042912e-38 302 290
-0.020775247 0.69700003 -0.061103668 1.0950714e-38 303 290
-0.019525118 0.69599998 -0.061015997 1.0858163e-38 304 290
-0.0182522 0.69400001 -0.060840666 1.0674132e-38 305 290
-0.01701084 0.69300002 -0.060752999 1.0580501e-38 306 290
-0.015795778 0.69300002 -0.060752999 1.0580501e-38 307 290
-0.014580719 0.69300002 -0.060752999 1.0579784e-38 308 290
-0.013327086 0.69099998 -0.060577665 1.0764176e-38 309 290
-0.012097999 0.69 -0.060489997 1.0857444e-38 310 290
-0.010888199 0.69 -0.060489997 1.0857444e-38 311 290
-0.0096503468 0.68800002 -0.060314666 1.1132586e-38 312 290
-0.0084440531 0.68800002 -0.060314666 1.0948195e-38 313 290
-0.0072377604 0.68800002 -0.060314666 1.0947476e-38 314 290
-0.0060226996 0.68699998 -0.060226995 1.0855279e-38 315 290
-0.0048181596 0.68699998 -0.060226995 1.0763802e-38 316 290
-0.0036136196 0.68699998 -0.060226995 1.0763802e-38 317 290
-0.0024090798 0.68699998 -0.060226995 1.030427e-38 318 290
-0.0012045399 0.68699998 -0.060226995 1.030427e-38 319 290
0 0.68599999 -0.060139328 1.0304636e-38 320 290
0.0012027866 0.68599999 -0.060139328 1.021244e-38 321 290
0.0024090798 0.68699998 -0.060226995 1.012168e-38 322 290
0.00359784 0.68400002 -0.059964001 1.0213877e-38 323 290
0.0047971201 0.68400002 -0.059964001 1.039934e-38 324 290
0.0059964 0.68400002 -0.059964001 1.0767764e-38 325 290
0.0071851597 0.68300003 -0.059876334 1.131877e-38 326 290
0.0083826864 0.68300003 -0.059876334 1.131877e-38 327 290
0.0095802136 0.68300003 -0.059876334 1.1502071e-38 328 290
0.01077774 0.68300003 -0.059876334 1.1225485e-38 329 290
0.011975267 0.68300003 -0.059876334 1.1684308e-38 330 290
0.013172794 0.68300003 -0.059876334 1.1776863e-38 331 290
0.014370319 0.68300003 -0.059876334 1.1868704e-38 332 290
0.01559064 0.68400002 -0.059964001 1.1961258e-38 333 290
0.016789921 0.68400002 -0.059964001 1.2237119e-38 334 290
0.018041799 0.68599999 -0.060139328 1.2144923e-38 335 290
0.019244585 0.68599999 -0.060139328 1.2144921e-38 336 290
0.020477179 0.68699998 -0.060226995 1.2144921e-38 337 290
0.021681719 0.68699998 -0.060226995 1.2236397e-38 338 290
0.022886258 0.68699998 -0.060226995 1.2236397e-38 339 290
0.024125867 0.68800002 -0.060314666 1.2236397e-38 340 290
0.02533216 0.68800002 -0.060314666 1.2236397e-38 341 290
0.026538454 0.68800002 -0.060314666 1.2329668e-38 342 290
0.027865725 0.69099998 -0.060577665 1.2421863e-38 343 290
0.029161438 0.69300002 -0.060752999 1.2330384e-38 344 290
0.0303765 0.69300002 -0.060752999 1.2514777e-38 345 290
0.031637147 0.69400001 -0.060840666 1.2514779e-38 346 290
0.032853961 0.69400001 -0.060840666 1.2883202e-38 347 290
0.034168959 0.69599998 -0.061015997 1.2517662e-38 348 290
0.035389278 0.69599998 -0.061015997 1.2609859e-38 349 290
0.0367148 0.69800001 -0.061191335 1.2427994e-38 350 290
0.038047329 0.69999999 -0.061366666 1.2796777e-38 351 290
0.039274666 0.69999999 -0.061366666 1.2799293e-38 352 290
0.040502001 0.69999999 -0.061366666 1.2891489e-38 353 290
0.041729331 0.69999999 -0.061366666 1.4275169e-38 354 290
0.042833932 0.69800001 -0.061191335 1.8147385e-38 355 290
0.04405776 0.69800001 -0.061191335 1.7328462e-38 356 290
-0.032229774 0.70700002 -0.063219935 1.6312124e-38 294 291
-0.030946331 0.70599997 -0.063130513 1.3085277e-38 295 291
-0.029624319 0.704 -0.062951677 1.2890783e-38 296 291
-0.028389972 0.704 -0.062951677 1.233761e-38 297 291
-0.027117053 0.70300001 -0.062862262 1.2150698e-38 298 291
-0.025884461 0.70300001 -0.062862262 1.1782274e-38 299 291
-0.024546666 0.69999999 -0.062593997 1.1319867e-38 300 291
-0.023252707 0.69800001 -0.062415157 1.104328e-38 301 291
-0.02199732 0.69700003 -0.062325738 1.067557e-38 302 291
-0.020745439 0.69599998 -0.062236317 1.0491538e-38 303 291
-0.019525118 0.69599998 -0.062236317 1.0581933e-38 304 291
-0.0182522 0.69400001 -0.06205748 1.0489738e-38 305 291
-0.01701084 0.69300002 -0.061968062 1.0304273e-38 306 291
-0.015795778 0.69300002 -0.061968062 1.0304273e-38 307 291
-0.014580719 0.69300002 -0.061968062 1.0212077e-38 308 291
-0.013327086 0.69099998 -0.061789215 1.0396469e-38 309 291
-0.012097999 0.69 -0.061699796 1.0489735e-38 310 291
-0.010888199 0.69 -0.061699796 1.0581931e-38 311 291
-0.0096503468 0.68800002 -0.06152096 1.0948192e-38 312 291
-0.0084440531 0.68800002 -0.06152096 1.0855997e-38 313 291
-0.0072377604 0.68800002 -0.06152096 1.0763802e-38 314 291
-0.0060226996 0.68699998 -0.061431535 1.0763802e-38 315 291
-0.0048181596 0.68699998 -0.061431535 1.0305339e-38 316 291
-0.0036136196 0.68699998 -0.061431535 1.0029113e-38 317 291
-0.0024090798 0.68699998 -0.061431535 9.8447341e-39 318 291
-0.0012045399 0.68699998 -0.061431535 9.5685073e-39 319 291
0 0.68599999 -0.061342116 9.751835e-39 320 291
0.0012027866 0.68599999 -0.061342116 9.5678039e-39 321 291
0.0024055731 0.68599999 -0.061342116 9.5685199e-39 322 291
0.00359784 0.68400002 -0.061163284 9.7532699e-39 323 291
0.0047971201 0.68400002 -0.061163284 1.0306791e-38 324 291
0.0059964 0.68400002 -0.061163284 1.0491182e-38 325 291
0.0071851597 0.68300003 -0.061073858 1.1318419e-38 326 291
0.0083826864 0.68300003 -0.061073858 1.1226224e-38 327 291
0.0095802136 0.68300003 -0.061073858 1.0948911e-38 328 291
0.01077774 0.68300003 -0.061073858 1.0395737e-38 329 291
0.011975267 0.68300003 -0.061073858 1.0672328e-38 330 291
0.013172794 0.68300003 -0.061073858 1.0948914e-38 331 291
0.01439136 0.68400002 -0.061163284 1.1591765e-38 332 291
0.01559064 0.68400002 -0.061163284 1.1868353e-38 333 291
0.016839013 0.68599999 -0.061342116 1.1961255e-38 334 291
0.018041799 0.68599999 -0.061342116 1.186906e-38 335 291
0.019272638 0.68699998 -0.061431535 1.1869057e-38 336 291
0.020477179 0.68699998 -0.061431535 1.1869057e-38 337 291
0.021681719 0.68699998 -0.061431535 1.2052369e-38 338 291
0.022886258 0.68699998 -0.061431535 1.2052369e-38 339 291
0.024125867 0.68800002 -0.06152096 1.2144921e-38 340 291
0.02533216 0.68800002 -0.06152096 1.2144921e-38 341 291
0.026538454 0.68800002 -0.06152096 1.2053801e-38 342 291
0.027865725 0.69099998 -0.061789215 1.2330387e-38 343 291
0.029161438 0.69300002 -0.061968062 1.2330387e-38 344 291
0.0303765 0.69300002 -0.061968062 1.2514779e-38 345 291
0.031637147 0.69400001 -0.06205748 1.2514782e-38 346 291
0.032853961 0.69400001 -0.06205748 1.2699173e-38 347 291
0.034168959 0.69599998 -0.062236317 1.2333628e-38 348 291
0.035440128 0.69700003 -0.062325738 1.2610215e-38 349 291
0.0367148 0.69800001 -0.062415157 1.2428347e-38 350 291
0.038047329 0.69999999 -0.062593997 1.2796771e-38 351 291
0.039274666 0.69999999 -0.062593997 1.2800371e-38 352 291
0.040502001 0.69999999 -0.062593997 1.2431587e-38 353 291
0.041729331 0.69999999 -0.062593997 1.4092576e-38 354 291
0.042833932 0.69800001 -0.062415157 1.8517966e-38 355 291
0.04405776 0.69800001 -0.062415157 1.7606128e-38 356 291
-0.030946331 0.70599997 -0.064368367 1.4652249e-38 295 292
-0.029624319 0.704 -0.064186029 1.298478e-38 296 292
-0.028389972 0.704 -0.064186029 1.2247215e-38 297 292
-0.027117053 0.70300001 -0.064094849 1.2058505e-38 298 292
-0.025810819 0.70099998 -0.063912503 1.1689723e-38 299 292
-0.024546666 0.69999999 -0.063821331 1.1595728e-38 300 292
-0.023252707 0.69800001 -0.063638985 1.1134751e-38 301 292
-0.02199732 0.69700003 -0.06354782 1.0767399e-38 302 292
-0.020745439 0.69599998 -0.063456632 1.0582649e-38 303 292
-0.019469013 0.69400001 -0.063274294 1.0397542e-38 304 292
-0.0182522 0.69400001 -0.063274294 1.0305345e-38 305 292
-0.01701084 0.69300002 -0.063183114 1.0212077e-38 306 292
-0.015795778 0.69300002 -0.063183114 1.0212077e-38 307 292
-0.014580719 0.69300002 -0.063183114 1.0487938e-38 308 292
-0.013327086 0.69099998 -0.063000768 1.0580134e-38 309 292
-0.012097999 0.69 -0.062909603 1.0396819e-38 310 292
-0.010856641 0.68800002 -0.06272725 1.0396819e-38 311 292
-0.0096503468 0.68800002 -0.06272725 1.0305345e-38 312 292
-0.0084440531 0.68800002 -0.06272725 1.0212791e-38 313 292
-0.0072377604 0.68800002 -0.06272725 1.0213147e-38 314 292
-0.0060226996 0.68699998 -0.062636077 1.0305342e-38 315 292
-0.0048181596 0.68699998 -0.062636077 1.0304621e-38 316 292
-0.0036136196 0.68699998 -0.062636077 1.0120229e-38 317 292
-0.0024090798 0.68699998 -0.062636077 9.5685073e-39 318 292
-0.0012045399 0.68699998 -0.062636077 9.4763103e-39 319 292
0 0.68599999 -0.062544905 9.1079131e-39 320 292
0.0012027866 0.68599999 -0.062544905 9.0157175e-39 321 292
0.0024055731 0.68599999 -0.062544905 8.832771e-39 322 292
0.00359784 0.68400002 -0.062362559 9.0171636e-39 323 292
0.0047971201 0.68400002 -0.062362559 9.2951785e-39 324 292
0.0059964 0.68400002 -0.062362559 9.6636022e-39 325 292
0.0071851597 0.68300003 -0.06227139 1.0399709e-38 326 292
0.0083826864 0.68300003 -0.06227139 1.0491904e-38 327 292
0.0095802136 0.68300003 -0.06227139 1.0764527e-38 328 292
0.01077774 0.68300003 -0.06227139 1.0395743e-38 329 292
0.011975267 0.68300003 -0.06227139 1.0028056e-38 330 292
0.01319208 0.68400002 -0.062362559 1.0304642e-38 331 292
0.01439136 0.68400002 -0.062362559 1.0764542e-38 332 292
0.01559064 0.68400002 -0.062362559 1.0949292e-38 333 292
0.016839013 0.68599999 -0.062544905 1.1500648e-38 334 292
0.018068098 0.68699998 -0.062636077 1.1500648e-38 335 292
0.019272638 0.68699998 -0.062636077 1.1684308e-38 336 292
0.020477179 0.68699998 -0.062636077 1.1776863e-38 337 292
0.021681719 0.68699998 -0.062636077 1.1869057e-38 338 292
0.022919573 0.68800002 -0.06272725 1.1961252e-38 339 292
0.024125867 0.68800002 -0.06272725 1.1870129e-38 340 292
0.02533216 0.68800002 -0.06272725 1.1870129e-38 341 292
0.026538454 0.68800002 -0.06272725 1.1962327e-38 342 292
0.027865725 0.69099998 -0.063000768 1.2054523e-38 343 292
0.029161438 0.69300002 -0.063183114 1.2146721e-38 344 292
0.0303765 0.69300002 -0.063183114 1.2238917e-38 345 292
0.031637147 0.69400001 -0.063274294 1.2239637e-38 346 292
0.032853961 0.69400001 -0.063274294 1.2331833e-38 347 292
0.034218054 0.69700003 -0.06354782 1.2242154e-38 348 292
0.035490975 0.69800001 -0.063638985 1.2518742e-38 349 292
0.0367148 0.69800001 -0.063638985 1.2245401e-38 350 292
0.038047329 0.69999999 -0.063821331 1.2706379e-38 351 292
0.039274666 0.69999999 -0.063821331 1.2800742e-38 352 292
0.040502001 0.69999999 -0.063821331 1.2800742e-38 353 292
0.041729331 0.69999999 -0.063821331 1.4643598e-38 354 292
0.042956665 0.69999999 -0.063821331 1.9437771e-38 355 292
-0.031034 0.708 -0.065792084 1.5667124e-38 295 293
-0.02979264 0.708 -0.065792084 1.3813465e-38 296 293
-0.028470624 0.70599997 -0.065606222 1.2983704e-38 297 293
-0.027117053 0.70300001 -0.065327443 1.2336167e-38 298 293
-0.025810819 0.70099998 -0.065141588 1.1782993e-38 299 293
-0.024546666 0.69999999 -0.065048665 1.1137991e-38 300 293
-0.023252707 0.69800001 -0.06486281 1.0861763e-38 301 293
-0.02199732 0.69700003 -0.064769886 1.0584454e-38 302 293
-0.020745439 0.69599998 -0.064676955 1.0307507e-38 303 293
-0.019469013 0.69400001 -0.064491108 1.0122394e-38 304 293
-0.0182522 0.69400001 -0.064491108 9.8461662e-39 305 293
-0.017035386 0.69400001 -0.064491108 1.0029478e-38 306 293
-0.015795778 0.69300002 -0.064398177 1.0121674e-38 307 293
-0.014580719 0.69300002 -0.064398177 1.0305339e-38 308 293
-0.013327086 0.69099998 -0.06421233 1.0305339e-38 309 293
-0.012097999 0.69 -0.064119399 1.0580487e-38 310 293
-0.010856641 0.68800002 -0.063933544 1.0488292e-38 311 293
-0.0096503468 0.68800002 -0.063933544 1.002876e-38 312 293
-0.0084440531 0.68800002 -0.063933544 1.002876e-38 313 293
-0.0072377604 0.68800002 -0.063933544 1.0028762e-38 314 293
-0.0060226996 0.68699998 -0.06384062 1.0212794e-38 315 293
-0.0048181596 0.68699998 -0.06384062 1.0212791e-38 316 293
-0.0036136196 0.68699998 -0.06384062 9.936564e-39 317 293
-0.0024090798 0.68699998 -0.06384062 9.385558e-39 318 293
-0.0012045399 0.68699998 -0.06384062 9.1089697e-39 319 293
0 0.68599999 -0.063747689 8.6498062e-39 320 293
0.0012027866 0.68599999 -0.063747689 8.3732194e-39 321 293
0.0024055731 0.68599999 -0.063747689 8.6469364e-39 322 293
0.00359784 0.68400002 -0.063561834 8.9235219e-39 323 293
0.0047971201 0.68400002 -0.063561834 9.293375e-39 324 293
0.0059964 0.68400002 -0.063561834 9.6625162e-39 325 293
0.0071851597 0.68300003 -0.063468911 1.0490106e-38 326 293
0.0083826864 0.68300003 -0.063468911 1.0490106e-38 327 293
0.0095802136 0.68300003 -0.063468911 1.0304636e-38 328 293
0.01077774 0.68300003 -0.063468911 9.9362136e-39 329 293
0.011975267 0.68300003 -0.063468911 1.0118807e-38 330 293
0.01319208 0.68400002 -0.063561834 1.0395034e-38 331 293
0.01443344 0.68599999 -0.063747689 1.0947476e-38 332 293
0.015636226 0.68599999 -0.063747689 1.1408453e-38 333 293
0.016839013 0.68599999 -0.063747689 1.1683592e-38 334 293
0.018068098 0.68699998 -0.06384062 1.1775788e-38 335 293
0.019272638 0.68699998 -0.06384062 1.1776138e-38 336 293
0.020477179 0.68699998 -0.06384062 1.1960528e-38 337 293
0.021681719 0.68699998 -0.06384062 1.186941e-38 338 293
0.022919573 0.68800002 -0.063933544 1.186941e-38 339 293
0.024125867 0.68800002 -0.063933544 1.2145271e-38 340 293
0.02533216 0.68800002 -0.063933544 1.2145271e-38 341 293
0.026615599 0.69 -0.064119399 1.2054157e-38 342 293
0.027865725 0.69099998 -0.06421233 1.2238188e-38 343 293
0.029161438 0.69300002 -0.064398177 1.2237835e-38 344 293
0.030420333 0.69400001 -0.064491108 1.2422226e-38 345 293
0.031637147 0.69400001 -0.064491108 1.2238914e-38 346 293
0.032948639 0.69599998 -0.064676955 1.2607697e-38 347 293
0.034267146 0.69800001 -0.06486281 1.2149956e-38 348 293
0.035490975 0.69800001 -0.06486281 1.2519098e-38 349 293
0.036819998 0.69999999 -0.065048665 1.2521262e-38 350 293
0.038047329 0.69999999 -0.065048665 1.298224e-38 351 293
0.039274666 0.69999999 -0.065048665 1.3074801e-38 352 293
0.040502001 0.69999999 -0.065048665 1.3812368e-38 353 293
0.041610107 0.69800001 -0.06486281 1.5292568e-38 354 293
0.042833932 0.69800001 -0.06486281 1.9441011e-38 355 293
-0.02979264 0.708 -0.067033432 1.4646465e-38 296 294
-0.028389972 0.704 -0.066654719 1.2802554e-38 297 294
-0.027117053 0.70300001 -0.066560037 1.2338329e-38 298 294
-0.025810819 0.70099998 -0.066370681 1.1785514e-38 299 294
-0.024476532 0.69800001 -0.066086642 1.1689726e-38 300 294
-0.023219392 0.69700003 -0.06599196 1.1320583e-38 301 294
-0.02199732 0.69700003 -0.06599196 1.0677003e-38 302 294
-0.020745439 0.69599998 -0.065897278 1.0400056e-38 303 294
-0.019525118 0.69599998 -0.065897278 1.0215662e-38 304 294
-0.0182522 0.69400001 -0.065707922 9.9394352e-39 305 294
-0.017035386 0.69400001 -0.065707922 9.8472382e-39 306 294
-0.015795778 0.69300002 -0.06561324 9.8472382e-39 307 294
-0.014580719 0.69300002 -0.06561324 1.0123102e-38 308 294
-0.013327086 0.69099998 -0.065423876 1.0030548e-38 309 294
-0.012097999 0.69 -0.065329194 1.0212428e-38 310 294
-0.010856641 0.68800002 -0.065139838 1.0120232e-38 311 294
-0.0096503468 0.68800002 -0.065139838 9.6614218e-39 312 294
-0.0084440531 0.68800002 -0.065139838 9.7536174e-39 313 294
-0.0072377604 0.68800002 -0.065139838 9.6621407e-39 314 294
-0.0060226996 0.68699998 -0.065045156 9.7543363e-39 315 294
-0.0048181596 0.68699998 -0.065045156 1.0029478e-38 316 294
-0.0036136196 0.68699998 -0.065045156 9.8450872e-39 317 294
-0.0024090798 0.68699998 -0.065045156 9.8447313e-39 318 294
-0.0012045399 0.68699998 -0.065045156 9.5685045e-39 319 294
0 0.68599999 -0.064950474 9.2008094e-39 320 294
0.0012027866 0.68599999 -0.064950474 8.9242225e-39 321 294
0.0024055731 0.68599999 -0.064950474 8.3728634e-39 322 294
0.00359784 0.68400002 -0.064761117 8.5576134e-39 323 294
0.0047971201 0.68400002 -0.064761117 8.5590568e-39 324 294
0.0059964 0.68400002 -0.064761117 9.0200335e-39 325 294
0.0071851597 0.68300003 -0.064666435 9.8465488e-39 326 294
0.0083826864 0.68300003 -0.064666435 9.8465488e-39 327 294
0.0095802136 0.68300003 -0.064666435 1.0211371e-38 328 294
0.01077774 0.68300003 -0.064666435 1.0119176e-38 329 294
0.011975267 0.68300003 -0.064666435 9.8447369e-39 330 294
0.01319208 0.68400002 -0.064761117 1.0029128e-38 331 294
0.01443344 0.68599999 -0.064950474 1.0673047e-38 332 294
0.015636226 0.68599999 -0.064950474 1.0857797e-38 333 294
0.01686356 0.68699998 -0.065045156 1.1409522e-38 334 294
0.018068098 0.68699998 -0.065045156 1.1409522e-38 335 294
0.019272638 0.68699998 -0.065045156 1.1592113e-38 336 294
0.020477179 0.68699998 -0.065045156 1.1776863e-38 337 294
0.021713281 0.68800002 -0.065139838 1.1594265e-38 338 294
0.022919573 0.68800002 -0.065139838 1.1594265e-38 339 294
0.024125867 0.68800002 -0.065139838 1.1686814e-38 340 294
0.02533216 0.68800002 -0.065139838 1.1779009e-38 341 294
0.026538454 0.68800002 -0.065139838 1.1778656e-38 342 294
0.027865725 0.69099998 -0.065423876 1.1871211e-38 343 294
0.029161438 0.69300002 -0.06561324 1.2146365e-38 344 294
0.030420333 0.69400001 -0.065707922 1.2238561e-38 345 294
0.031637147 0.69400001 -0.065707922 1.2056688e-38 346 294
0.032948639 0.69599998 -0.065897278 1.2148884e-38 347 294
0.034267146 0.69800001 -0.066086642 1.2059207e-38 348 294
0.035490975 0.69800001 -0.066086642 1.2335796e-38 349 294
0.036819998 0.69999999 -0.066275999 1.2338319e-38 350 294
0.038047329 0.69999999 -0.066275999 1.2706742e-38 351 294
0.039274666 0.69999999 -0.066275999 1.3074085e-38 352 294
0.040502001 0.69999999 -0.066275999 1.5010193e-38 353 294
0.041610107 0.69800001 -0.066086642 1.5847905e-38 354 294
0.042833932 0.69800001 -0.066086642 1.9259143e-38 355 294
-0.028349647 0.70300001 -0.067792632 1.2713604e-38 297 295
-0.027001332 0.69999999 -0.067503333 1.2523442e-38 298 295
-0.025700359 0.69800001 -0.06731046 1.2062824e-38 299 295
-0.024476532 0.69800001 -0.06731046 1.123199e-38 300 295
-0.023219392 0.69700003 -0.067214034 1.104724e-38 301 295
-0.02199732 0.69700003 -0.067214034 1.0861763e-38 302 295
-0.020745439 0.69599998 -0.067117594 1.0584817e-38 303 295
-0.019525118 0.69599998 -0.067117594 1.0124192e-38 304 295
-0.0182522 0.69400001 -0.066924736 1.0031997e-38 305 295
-0.017035386 0.69400001 -0.066924736 9.7564859e-39 306 295
-0.015795778 0.69300002 -0.066828303 9.6642903e-39 307 295
-0.014580719 0.69300002 -0.066828303 1.0030553e-38 308 295
-0.013327086 0.69099998 -0.06663543 9.8461634e-39 309 295
-0.012097999 0.69 -0.066538997 9.8447313e-39 310 295
-0.010856641 0.68800002 -0.066346131 9.8447313e-39 311 295
-0.0096503468 0.68800002 -0.066346131 9.4784725e-39 312 295
-0.0084440531 0.68800002 -0.066346131 9.3862769e-39 313 295
-0.0072377604 0.68800002 -0.066346131 9.7543391e-39 314 295
-0.0060226996 0.68699998 -0.066249698 9.7543391e-39 315 295
-0.0048181596 0.68699998 -0.066249698 9.8465319e-39 316 295
-0.0036136196 0.68699998 -0.066249698 9.7543363e-39 317 295
-0.0024090798 0.68699998 -0.066249698 9.4788256e-39 318 295
-0.0012045399 0.68699998 -0.066249698 9.38663e-39 319 295
0 0.68599999 -0.066153266 9.0189363e-39 320 295
0.0012027866 0.68599999 -0.066153266 8.6505125e-39 321 295
0.0023985601 0.68400002 -0.0659604 8.2824657e-39 322 295
0.00359784 0.68400002 -0.0659604 8.3746613e-39 323 295
0.0047971201 0.68400002 -0.0659604 8.7427221e-39 324 295
0.0059964 0.68400002 -0.0659604 9.1118634e-39 325 295
0.0071851597 0.68300003 -0.065863967 9.6628694e-39 326 295
0.0083826864 0.68300003 -0.065863967 9.6628694e-39 327 295
0.0095802136 0.68300003 -0.065863967 9.9362263e-39 328 295
0.01077774 0.68300003 -0.065863967 9.8440306e-39 329 295
0.0119928 0.68400002 -0.0659604 9.9365766e-39 330 295
0.01319208 0.68400002 -0.0659604 1.0213524e-38 331 295
0.01443344 0.68599999 -0.066153266 1.0765952e-38 332 295
0.015636226 0.68599999 -0.066153266 1.0858148e-38 333 295
0.01686356 0.68699998 -0.066249698 1.1133646e-38 334 295
0.018068098 0.68699998 -0.066249698 1.1225841e-38 335 295
0.019272638 0.68699998 -0.066249698 1.1409153e-38 336 295
0.020477179 0.68699998 -0.066249698 1.1593545e-38 337 295
0.021713281 0.68800002 -0.066346131 1.1594265e-38 338 295
0.022919573 0.68800002 -0.066346131 1.1594265e-38 339 295
0.024125867 0.68800002 -0.066346131 1.1686461e-38 340 295
0.02533216 0.68800002 -0.066346131 1.1686461e-38 341 295
0.026538454 0.68800002 -0.066346131 1.1778656e-38 342 295
0.027825398 0.69 -0.066538997 1.1871211e-38 343 295
0.029161438 0.69300002 -0.066828303 1.2054886e-38 344 295
0.0303765 0.69300002 -0.066828303 1.2239637e-38 345 295
0.031637147 0.69400001 -0.066924736 1.2056688e-38 346 295
0.03299598 0.69700003 -0.067214034 1.2241079e-38 347 295
0.034267146 0.69800001 -0.06731046 1.1967739e-38 348 295
0.035490975 0.69800001 -0.06731046 1.233652e-38 349 295
0.036819998 0.69999999 -0.067503333 1.2521276e-38 350 295
0.038047329 0.69999999 -0.067503333 1.2706026e-38 351 295
0.039274666 0.69999999 -0.067503333 1.3256691e-38 352 295
0.040502001 0.69999999 -0.067503333 1.6575734e-38 353 295
0.041729331 0.69999999 -0.067503333 1.6402891e-38 354 295
-0.028349647 0.70300001 -0.069025226 1.3544091e-38 297 296
-0.027001332 0.69999999 -0.068730667 1.2801108e-38 298 296
-0.025700359 0.69800001 -0.068534292 1.1971708e-38 299 296
-0.024476532 0.69800001 -0.068534292 1.150965e-38 300 296
-0.023252707 0.69800001 -0.068534292 1.1325259e-38 301 296
-0.02199732 0.69700003 -0.068436109 1.123054e-38 302 296
-0.020775247 0.69700003 -0.068436109 1.0862116e-38 303 296
-0.019525118 0.69599998 -0.068337917 1.0492608e-38 304 296
-0.0182522 0.69400001 -0.068141542 1.0400412e-38 305 296
-0.017035386 0.69400001 -0.068141542 9.7568418e-39 306 296
-0.015795778 0.69300002 -0.068043359 9.6646462e-39 307 296
-0.014580719 0.69300002 -0.068043359 9.7546894e-39 308 296
-0.013327086 0.69099998 -0.067846984 9.6624938e-39 309 296
-0.012097999 0.69 -0.0677488 9.5699451e-39 310 296
-0.010856641 0.68800002 -0.067552425 9.5699451e-39 311 296
-0.0096503468 0.68800002 -0.067552425 9.3862769e-39 312 296
-0.0084440531 0.68800002 -0.067552425 9.4784725e-39 313 296
-0.0072377604 0.68800002 -0.067552425 9.4784725e-39 314 296
-0.0060226996 0.68699998 -0.067454241 9.5706681e-39 315 296
-0.0048181596 0.68699998 -0.067454241 9.5710241e-39 316 296
-0.0036136196 0.68699998 -0.067454241 9.6632197e-39 317 296
-0.0024090798 0.68699998 -0.067454241 9.5710241e-39 318 296
-0.0012045399 0.68699998 -0.067454241 9.4788284e-39 319 296
0 0.68599999 -0.06735605 9.2026115e-39 320 296
0.0012027866 0.68599999 -0.06735605 8.9260232e-39 321 296
0.0023985601 0.68400002 -0.067159683 8.2835461e-39 322 296
0.00359784 0.68400002 -0.067159683 8.4679359e-39 323 296
0.0047971201 0.68400002 -0.067159683 8.6523272e-39 324 296
0.0059964 0.68400002 -0.067159683 8.8367184e-39 325 296
0.0071851597 0.68300003 -0.067061491 9.8469047e-39 326 296
0.0083826864 0.68300003 -0.067061491 9.6625134e-39 327 296
0.0095802136 0.68300003 -0.067061491 9.7536329e-39 328 296
0.01077774 0.68300003 -0.067061491 9.6614372e-39 329 296
0.0119928 0.68400002 -0.067159683 9.8458159e-39 330 296
0.01319208 0.68400002 -0.067159683 1.0122044e-38 331 296
0.01443344 0.68599999 -0.06735605 1.0949261e-38 332 296
0.015636226 0.68599999 -0.06735605 1.1041816e-38 333 296
0.01686356 0.68699998 -0.067454241 1.1134362e-38 334 296
0.018068098 0.68699998 -0.067454241 1.1134362e-38 335 296
0.019272638 0.68699998 -0.067454241 1.1225841e-38 336 296
0.020477179 0.68699998 -0.067454241 1.1409872e-38 337 296
0.021713281 0.68800002 -0.067552425 1.1226204e-38 338 296
0.022919573 0.68800002 -0.067552425 1.13184e-38 339 296
0.024125867 0.68800002 -0.067552425 1.1502795e-38 340 296
0.02533216 0.68800002 -0.067552425 1.1502795e-38 341 296
0.026615599 0.69 -0.0677488 1.1411674e-38 342 296
0.027825398 0.69 -0.0677488 1.1596066e-38 343 296
0.029077278 0.69099998 -0.067846984 1.1871576e-38 344 296
0.0303765 0.69300002 -0.068043359 1.2148165e-38 345 296
0.031637147 0.69400001 -0.068141542 1.2149605e-38 346 296
0.03299598 0.69700003 -0.068436109 1.2333996e-38 347 296
0.034267146 0.69800001 -0.068534292 1.2060654e-38 348 296
0.035490975 0.69800001 -0.068534292 1.2429435e-38 349 296
0.036819998 0.69999999 -0.068730667 1.2522714e-38 350 296
0.038047329 0.69999999 -0.068730667 1.279894e-38 351 296
0.039330769 0.70099998 -0.068828844 1.3349617e-38 352 296
0.040559858 0.70099998 -0.068828844 1.7498419e-38 353 296
-0.027001332 0.69999999 -0.069957994 1.326209e-38 298 297
-0.025700359 0.69800001 -0.069758117 1.243233e-38 299 297
-0.024476532 0.69800001 -0.069758117 1.1971705e-38 300 297
-0.023252707 0.69800001 -0.069758117 1.1602562e-38 301 297
-0.02199732 0.69700003 -0.069658175 1.1508201e-38 302 297
-0.020775247 0.69700003 -0.069658175 1.0955028e-38 303 297
-0.019553173 0.69700003 -0.069658175 1.0861031e-38 304 297
-0.018304799 0.69599998 -0.069558233 1.0584803e-38 305 297
-0.017035386 0.69400001 -0.069358356 1.0307858e-38 306 297
-0.015795778 0.69300002 -0.069258414 1.0031631e-38 307 297
-0.014580719 0.69300002 -0.069258414 1.0029478e-38 308 297
-0.013327086 0.69099998 -0.069058537 9.9372828e-39 309 297
-0.012097999 0.69 -0.068958595 9.3855608e-39 310 297
-0.010856641 0.68800002 -0.068758719 9.3855608e-39 311 297
-0.0096503468 0.68800002 -0.068758719 9.2937281e-39 312 297
-0.0084440531 0.68800002 -0.068758719 9.4784781e-39 313 297
-0.0072377604 0.68800002 -0.068758719 9.3869957e-39 314 297
-0.0060314666 0.68800002 -0.068758719 9.3869957e-39 315 297
-0.0048181596 0.68699998 -0.068658777 9.5706681e-39 316 297
-0.0036136196 0.68699998 -0.068658777 9.5706681e-39 317 297
-0.0024090798 0.68699998 -0.068658777 9.5706737e-39 318 297
-0.0012045399 0.68699998 -0.068658777 9.3859237e-39 319 297
0 0.68599999 -0.068558842 9.018586e-39 320 297
0.0012027866 0.68599999 -0.068558842 8.8345548e-39 321 297
0.0024055731 0.68599999 -0.068558842 8.4668639e-39 322 297
0.00359784 0.68400002 -0.068358958 8.6512552e-39 323 297
0.0047971201 0.68400002 -0.068358958 8.7441697e-39 324 297
0.0059964 0.68400002 -0.068358958 8.9289211e-39 325 297
0.0071956799 0.68400002 -0.068358958 9.4799214e-39 326 297
0.0083826864 0.68300003 -0.068259016 9.6639526e-39 327 297
0.0095802136 0.68300003 -0.068259016 1.002985e-38 328 297
0.01079352 0.68400002 -0.068358958 9.84546e-39 329 297
0.0119928 0.68400002 -0.068358958 1.0122397e-38 330 297
0.01319208 0.68400002 -0.068358958 1.0214593e-38 331 297
0.01443344 0.68599999 -0.068558842 1.0766305e-38 332 297
0.015636226 0.68599999 -0.068558842 1.0858501e-38 333 297
0.01686356 0.68699998 -0.068658777 1.113364e-38 334 297
0.018068098 0.68699998 -0.068658777 1.113364e-38 335 297
0.019272638 0.68699998 -0.068658777 1.1133643e-38 336 297
0.020477179 0.68699998 -0.068658777 1.140987e-38 337 297
0.021713281 0.68800002 -0.068758719 1.1502071e-38 338 297
0.022919573 0.68800002 -0.068758719 1.1594268e-38 339 297
0.024125867 0.68800002 -0.068758719 1.1319123e-38 340 297
0.02533216 0.68800002 -0.068758719 1.1411319e-38 341 297
0.026615599 0.69 -0.068958595 1.1503514e-38 342 297
0.027825398 0.69 -0.068958595 1.1596068e-38 343 297
0.029077278 0.69099998 -0.069058537 1.1688627e-38 344 297
0.0303765 0.69300002 -0.069258414 1.1965574e-38 345 297
0.031728316 0.69599998 -0.069558233 1.2059207e-38 346 297
0.03299598 0.69700003 -0.069658175 1.2335796e-38 347 297
0.034267146 0.69800001 -0.069758117 1.1970612e-38 348 297
0.035490975 0.69800001 -0.069758117 1.2339036e-38 349 297
0.036819998 0.69999999 -0.069957994 1.2616344e-38 350 297
0.038047329 0.69999999 -0.069957994 1.2800737e-38 351 297
0.039330769 0.70099998 -0.070057929 1.3903156e-38 352 297
0.040559858 0.70099998 -0.070057929 1.8052319e-38 353 297
-0.025700359 0.69800001 -0.07098195 1.2617808e-38 299 298
-0.024476532 0.69800001 -0.07098195 1.197387e-38 300 298
-0.023252707 0.69800001 -0.07098195 1.1605086e-38 301 298
-0.02202888 0.69800001 -0.07098195 1.160077e-38 302 298
-0.020805053 0.69800001 -0.07098195 1.1139792e-38 303 298
-0.019581227 0.69800001 -0.07098195 1.0679164e-38 304 298
-0.018331099 0.69700003 -0.070880257 1.0402577e-38 305 298
-0.017084479 0.69599998 -0.070778556 1.0309662e-38 306 298
-0.015818574 0.69400001 -0.07057517 9.8486843e-39 307 298
-0.014580719 0.69300002 -0.070473477 1.0122044e-38 308 298
-0.01336566 0.69300002 -0.070473477 9.7536203e-39 309 298
-0.012115533 0.69099998 -0.070270091 9.5692388e-39 310 298
-0.010856641 0.68800002 -0.06996502 9.293012e-39 311 298
-0.0096503468 0.68800002 -0.06996502 9.2937309e-39 312 298
-0.0084440531 0.68800002 -0.06996502 9.2937309e-39 313 298
-0.0072377604 0.68800002 -0.06996502 9.3869957e-39 314 298
-0.0060314666 0.68800002 -0.06996502 9.4791914e-39 315 298
-0.0048251734 0.68800002 -0.06996502 9.4791914e-39 316 298
-0.0036136196 0.68699998 -0.069863312 9.4791914e-39 317 298
-0.0024090798 0.68699998 -0.069863312 9.5692388e-39 318 298
-0.0012045399 0.68699998 -0.069863312 9.5692388e-39 319 298
0 0.68699998 -0.069863312 8.8349178e-39 320 298
0.0012027866 0.68599999 -0.069761619 8.8349178e-39 321 298
0.0024055731 0.68599999 -0.069761619 8.5590568e-39 322 298
0.00360836 0.68599999 -0.069761619 8.5590568e-39 323 298
0.0048111463 0.68599999 -0.069761619 8.6523272e-39 324 298
0.0059964 0.68400002 -0.06955824 8.9289155e-39 325 298
0.0071956799 0.68400002 -0.06955824 9.7557853e-39 326 298
0.0083826864 0.68300003 -0.069456547 9.8479809e-39 327 298
0.0095802136 0.68300003 -0.069456547 1.0214596e-38 328 298
0.01079352 0.68400002 -0.06955824 1.01224e-38 329 298
0.0119928 0.68400002 -0.06955824 1.0215665e-38 330 298
0.013230653 0.68599999 -0.069761619 1.0215665e-38 331 298
0.01443344 0.68599999 -0.069761619 1.0949261e-38 332 298
0.015636226 0.68599999 -0.069761619 1.1041816e-38 333 298
0.01686356 0.68699998 -0.069863312 1.1042166e-38 334 298
0.018068098 0.68699998 -0.069863312 1.1134362e-38 335 298
0.019272638 0.68699998 -0.069863312 1.1134359e-38 336 298
0.020506985 0.68800002 -0.06996502 1.1226554e-38 337 298
0.021713281 0.68800002 -0.06996502 1.1227276e-38 338 298
0.022919573 0.68800002 -0.06996502 1.1411669e-38 339 298
0.024125867 0.68800002 -0.06996502 1.1228003e-38 340 298
0.02533216 0.68800002 -0.06996502 1.1320558e-38 341 298
0.026615599 0.69 -0.070168398 1.1320202e-38 342 298
0.027825398 0.69 -0.070168398 1.1504233e-38 343 298
0.029077278 0.69099998 -0.070270091 1.1688627e-38 344 298
0.0303765 0.69300002 -0.070473477 1.2149605e-38 345 298
0.031728316 0.69599998 -0.070778556 1.2151407e-38 346 298
0.03299598 0.69700003 -0.070880257 1.2612025e-38 347 298
0.034267146 0.69800001 -0.07098195 1.2338319e-38 348 298
0.035490975 0.69800001 -0.07098195 1.2798937e-38 349 298
0.036819998 0.69999999 -0.071185328 1.307625e-38 350 298
0.038047329 0.69999999 -0.071185328 1.3906011e-38 351 298
0.039330769 0.70099998 -0.071287021 1.4276986e-38 352 298
-0.025700359 0.69800001 -0.072205767 1.3080234e-38 299 299
-0.024476532 0.69800001 -0.072205767 1.2801108e-38 300 299
-0.023252707 0.69800001 -0.072205767 1.2155739e-38 301 299
-0.02202888 0.69800001 -0.072205767 1.2152499e-38 302 299
-0.020805053 0.69800001 -0.072205767 1.1599325e-38 303 299
-0.019581227 0.69800001 -0.072205767 1.1230893e-38 304 299
-0.018331099 0.69700003 -0.072102323 1.0954665e-38 305 299
-0.017084479 0.69599998 -0.071998879 1.0860666e-38 306 299
-0.015818574 0.69400001 -0.071791984 1.0676273e-38 307 299
-0.01460176 0.69400001 -0.071791984 1.0582287e-38 308 299
-0.01336566 0.69300002 -0.07168854 1.0305339e-38 309 299
-0.012150601 0.69300002 -0.07168854 9.7536203e-39 310 299
-0.010888199 0.69 -0.071378194 9.5688703e-39 311 299
-0.0096783992 0.69 -0.071378194 9.0182174e-39 312 299
-0.0084440531 0.68800002 -0.071171306 9.2029674e-39 313 299
-0.0072377604 0.68800002 -0.071171306 9.2040366e-39 314 299
-0.0060314666 0.68800002 -0.071171306 9.3884279e-39 315 299
-0.0048251734 0.68800002 -0.071171306 9.7543335e-39 316 299
-0.0036136196 0.68699998 -0.071067855 9.6621379e-39 317 299
-0.0024090798 0.68699998 -0.071067855 9.6610715e-39 318 299
-0.0012045399 0.68699998 -0.071067855 9.7532671e-39 319 299
0 0.68699998 -0.071067855 9.3866454e-39 320 299
0.0012027866 0.68599999 -0.070964411 9.1104187e-39 321 299
0.0024055731 0.68599999 -0.070964411 8.8342017e-39 322 299
0.00360836 0.68599999 -0.070964411 8.8342017e-39 323 299
0.0048111463 0.68599999 -0.070964411 8.3768193e-39 324 299
0.0059964 0.68400002 -0.070757523 8.8374387e-39 325 299
0.0071956799 0.68400002 -0.070757523 9.2051296e-39 326 299
0.0083826864 0.68300003 -0.070654072 9.2973252e-39 327 299
0.0095802136 0.68300003 -0.070654072 1.0307144e-38 328 299
0.01079352 0.68400002 -0.070757523 1.039934e-38 329 299
0.012027865 0.68599999 -0.070964411 1.0583358e-38 330 299
0.013249939 0.68699998 -0.071067855 1.0583358e-38 331 299
0.014454478 0.68699998 -0.071067855 1.1041813e-38 332 299
0.015659019 0.68699998 -0.071067855 1.1134009e-38 333 299
0.01686356 0.68699998 -0.071067855 1.0859573e-38 334 299
0.018068098 0.68699998 -0.071067855 1.0859573e-38 335 299
0.019272638 0.68699998 -0.071067855 1.0951765e-38 336 299
0.020477179 0.68699998 -0.071067855 1.1043961e-38 337 299
0.021713281 0.68800002 -0.071171306 1.1228712e-38 338 299
0.022919573 0.68800002 -0.071171306 1.1320908e-38 339 299
0.024125867 0.68800002 -0.071171306 1.150387e-38 340 299
0.02533216 0.68800002 -0.071171306 1.150387e-38 341 299
0.026615599 0.69 -0.071378194 1.1044707e-38 342 299
0.027865725 0.69099998 -0.071481638 1.1044707e-38 343 299
0.029161438 0.69300002 -0.07168854 1.1230537e-38 344 299
0.030420333 0.69400001 -0.071791984 1.1507483e-38 345 299
0.031728316 0.69599998 -0.071998879 1.1877341e-38 346 299
0.033043321 0.69800001 -0.072205767 1.2246122e-38 347 299
0.034267146 0.69800001 -0.072205767 1.252343e-38 348 299
0.035592664 0.69999999 -0.072412662 1.2984408e-38 349 299
0.036872596 0.70099998 -0.072516106 1.3444684e-38 350 299
0.038101684 0.70099998 -0.072516106 1.4643226e-38 351 299
0.039499093 0.704 -0.072826453 1.4557179e-38 352 299
-0.024476532 0.69800001 -0.073429599 1.3537604e-38 300 300
-0.023252707 0.69800001 -0.073429599 1.2246865e-38 301 300
-0.02202888 0.69800001 -0.073429599 1.1693694e-38 302 300
-0.020864666 0.69999999 -0.073639996 1.1508944e-38 303 300
-0.019637333 0.69999999 -0.073639996 1.0956479e-38 304 300
-0.0183574 0.69800001 -0.073429599 1.0771729e-38 305 300
-0.017109027 0.69700003 -0.073324397 1.067989e-38 306 300
-0.015864158 0.69599998 -0.073219195 1.0218912e-38 307 300
-0.01460176 0.69400001 -0.073008798 1.0216756e-38 308 300
-0.01336566 0.69300002 -0.072903603 9.848334e-39 309 300
-0.012115533 0.69099998 -0.072693199 9.2958791e-39 310 300
-0.01090398 0.69099998 -0.072693199 9.1114878e-39 311 300
-0.0096924258 0.69099998 -0.072693199 9.2940812e-39 312 300
-0.0084440531 0.68800002 -0.0723776 9.3862769e-39 313 300
-0.0072377604 0.68800002 -0.0723776 9.3884307e-39 314 300
-0.0060314666 0.68800002 -0.0723776 9.3884307e-39 315 300
-0.0048251734 0.68800002 -0.0723776 9.938729e-39 316 300
-0.0036136196 0.68699998 -0.07227239 9.8465319e-39 317 300
-0.0024090798 0.68699998 -0.07227239 9.5706709e-39 318 300
-0.0012045399 0.68699998 -0.07227239 9.5706709e-39 319 300
0 0.68699998 -0.07227239 9.3877244e-39 320 300
0.0012045399 0.68699998 -0.07227239 9.2955288e-39 321 300
0.0024090798 0.68699998 -0.07227239 8.9274721e-39 322 300
0.00360836 0.68599999 -0.072167195 8.7427221e-39 323 300
0.0048111463 0.68599999 -0.072167195 8.6516083e-39 324 300
0.0059964 0.68400002 -0.071956798 8.8356394e-39 325 300
0.0071956799 0.68400002 -0.071956798 9.4802774e-39 326 300
0.0083949603 0.68400002 -0.071956798 9.7565041e-39 327 300
0.0095942402 0.68400002 -0.071956798 1.039934e-38 328 300
0.01079352 0.68400002 -0.071956798 1.039934e-38 329 300
0.012027865 0.68599999 -0.072167195 1.0491889e-38 330 300
0.013249939 0.68699998 -0.07227239 1.0399693e-38 331 300
0.014454478 0.68699998 -0.07227239 1.0950346e-38 332 300
0.015659019 0.68699998 -0.07227239 1.0950346e-38 333 300
0.01686356 0.68699998 -0.07227239 1.0950699e-38 334 300
0.018068098 0.68699998 -0.07227239 1.1226926e-38 335 300
0.019272638 0.68699998 -0.07227239 1.1043608e-38 336 300
0.020477179 0.68699998 -0.07227239 1.1136164e-38 337 300
0.021713281 0.68800002 -0.0723776 1.1228359e-38 338 300
0.022919573 0.68800002 -0.0723776 1.1320555e-38 339 300
0.024125867 0.68800002 -0.0723776 1.1228725e-38 340 300
0.02533216 0.68800002 -0.0723776 1.1136529e-38 341 300
0.026615599 0.69 -0.072587997 1.1043625e-38 342 300
0.027865725 0.69099998 -0.072693199 1.1043625e-38 343 300
0.029161438 0.69300002 -0.072903603 1.1136902e-38 344 300
0.030420333 0.69400001 -0.073008798 1.2058857e-38 345 300
0.031728316 0.69599998 -0.073219195 1.2243966e-38 346 300
0.033043321 0.69800001 -0.073429599 1.2889335e-38 347 300
0.034267146 0.69800001 -0.073429599 1.2707471e-38 348 300
0.035490975 0.69800001 -0.073429599 1.335284e-38 349 300
0.036977798 0.70300001 -0.073955595 1.3813483e-38 350 300
0.038210396 0.70300001 -0.073955595 1.4919832e-38 351 300
-0.023319334 0.69999999 -0.07486733 1.1973875e-38 301 301
-0.022091998 0.69999999 -0.07486733 1.1511451e-38 302 301
-0.020894472 0.70099998 -0.074974284 1.114231e-38 303 301
-0.019665385 0.70099998 -0.074974284 1.0866432e-38 304 301
-0.018409999 0.69999999 -0.07486733 1.0589486e-38 305 301
-0.017133573 0.69800001 -0.074653424 1.0862832e-38 306 301
-0.015886955 0.69700003 -0.074546471 1.0586605e-38 307 301
-0.014643839 0.69599998 -0.074439511 1.0492254e-38 308 301
-0.01336566 0.69300002 -0.074118659 1.0307863e-38 309 301
-0.012115533 0.69099998 -0.073904753 9.939438e-39 310 301
-0.01090398 0.69099998 -0.073904753 9.8468823e-39 311 301
-0.0096924258 0.69099998 -0.073904753 9.7546866e-39 312 301
-0.0084686 0.69 -0.0737978 9.8468823e-39 313 301
-0.0072377604 0.68800002 -0.073583893 9.8468851e-39 314 301
-0.0060314666 0.68800002 -0.073583893 9.9390821e-39 315 301
-0.0048251734 0.68800002 -0.073583893 1.0213874e-38 316 301
-0.0036136196 0.68699998 -0.073476933 1.0213874e-38 317 301
-0.0024090798 0.68699998 -0.073476933 1.0122394e-38 318 301
-0.0012062934 0.68800002 -0.073583893 1.0214949e-38 319 301
0 0.68800002 -0.073583893 9.9390849e-39 320 301
0.0012045399 0.68699998 -0.073476933 9.8468879e-39 321 301
0.0024090798 0.68699998 -0.073476933 9.5695947e-39 322 301
0.0036136196 0.68699998 -0.073476933 9.2930092e-39 323 301
0.0048181596 0.68699998 -0.073476933 8.8345548e-39 324 301
0.0060139326 0.68599999 -0.073369987 9.2029772e-39 325 301
0.0072167199 0.68599999 -0.073369987 9.3880775e-39 326 301
0.0083949603 0.68400002 -0.073156074 9.7565013e-39 327 301
0.0095942402 0.68400002 -0.073156074 1.0582649e-38 328 301
0.010825079 0.68599999 -0.073369987 1.0675204e-38 329 301
0.012045399 0.68699998 -0.073476933 1.0950343e-38 330 301
0.013249939 0.68699998 -0.073476933 1.0950343e-38 331 301
0.014454478 0.68699998 -0.073476933 1.1225485e-38 332 301
0.015659019 0.68699998 -0.073476933 1.1409516e-38 333 301
0.01686356 0.68699998 -0.073476933 1.1410953e-38 334 301
0.018068098 0.68699998 -0.073476933 1.1503148e-38 335 301
0.019272638 0.68699998 -0.073476933 1.1320908e-38 336 301
0.020506985 0.68800002 -0.073583893 1.1504939e-38 337 301
0.021713281 0.68800002 -0.073583893 1.1504939e-38 338 301
0.022919573 0.68800002 -0.073583893 1.1597135e-38 339 301
0.024125867 0.68800002 -0.073583893 1.1320558e-38 340 301
0.025405798 0.69 -0.0737978 1.1228003e-38 341 301
0.026654173 0.69099998 -0.073904753 1.0859959e-38 342 301
0.027946379 0.69300002 -0.074118659 1.0952514e-38 343 301
0.029203519 0.69400001 -0.074225612 1.0954682e-38 344 301
0.030420333 0.69400001 -0.074225612 1.1507495e-38 345 301
0.03177391 0.69700003 -0.074546471 1.2429084e-38 346 301
0.033043321 0.69800001 -0.074653424 1.2797868e-38 347 301
0.034267146 0.69800001 -0.074653424 1.2800752e-38 348 301
0.035490975 0.69800001 -0.074653424 1.3077698e-38 349 301
0.0367148 0.69800001 -0.074653424 1.3078809e-38 350 301
-0.022091998 0.69999999 -0.076094657 1.2247934e-38 302 302
-0.020894472 0.70099998 -0.076203369 1.1326338e-38 303 302
-0.019721493 0.70300001 -0.076420791 1.0866082e-38 304 302
-0.018436298 0.70099998 -0.076203369 1.0681332e-38 305 302
-0.017133573 0.69800001 -0.075877249 1.0678814e-38 306 302
-0.015909746 0.69800001 -0.075877249 1.0402227e-38 307 302
-0.01466488 0.69700003 -0.075768545 1.0308956e-38 308 302
-0.01336566 0.69300002 -0.075333714 9.9405324e-39 309 302
-0.012115533 0.69099998 -0.075116299 9.7564915e-39 310 302
-0.01090398 0.69099998 -0.075116299 9.8486871e-39 311 302
-0.0096924258 0.69099998 -0.075116299 1.0215662e-38 312 302
-0.008480873 0.69099998 -0.075116299 1.0215662e-38 313 302
-0.0072587994 0.69 -0.075007595 1.0214943e-38 314 302
-0.0060489997 0.69 -0.075007595 1.0214943e-38 315 302
-0.0048251734 0.68800002 -0.074790187 1.0489738e-38 316 302
-0.0036136196 0.68699998 -0.074681476 1.0674129e-38 317 302
-0.0024090798 0.68699998 -0.074681476 1.0307144e-38 318 302
-0.0012062934 0.68800002 -0.074790187 1.0214949e-38 319 302
0 0.68800002 -0.074790187 1.0214949e-38 320 302
0.0012045399 0.68699998 -0.074681476 1.0122394e-38 321 302
0.0024090798 0.68699998 -0.074681476 9.846169e-39 322 302
0.0036136196 0.68699998 -0.074681476 9.7536146e-39 323 302
0.0048251734 0.68800002 -0.074790187 9.6621407e-39 324 302
0.0060226996 0.68699998 -0.074681476 9.8465319e-39 325 302
0.0072272392 0.68699998 -0.074681476 1.0031281e-38 326 302
0.0084195063 0.68599999 -0.074572764 1.0307507e-38 327 302
0.0096222926 0.68599999 -0.074572764 1.094999e-38 328 302
0.010825079 0.68599999 -0.074572764 1.094999e-38 329 302
0.012045399 0.68699998 -0.074681476 1.1134006e-38 330 302
0.013249939 0.68699998 -0.074681476 1.1134006e-38 331 302
0.014454478 0.68699998 -0.074681476 1.140987e-38 332 302
0.015659019 0.68699998 -0.074681476 1.1502065e-38 333 302
0.01686356 0.68699998 -0.074681476 1.1411669e-38 334 302
0.018068098 0.68699998 -0.074681476 1.1596419e-38 335 302
0.019300694 0.68800002 -0.074790187 1.141382e-38 336 302
0.020506985 0.68800002 -0.074790187 1.141382e-38 337 302
0.021713281 0.68800002 -0.074790187 1.1413823e-38 338 302
0.022919573 0.68800002 -0.074790187 1.1506018e-38 339 302
0.024195999 0.69 -0.075007595 1.1504589e-38 340 302
0.025405798 0.69 -0.075007595 1.1504589e-38 341 302
0.02673132 0.69300002 -0.075333714 1.1044707e-38 342 302
0.027946379 0.69300002 -0.075333714 1.1136902e-38 343 302
0.029203519 0.69400001 -0.075442426 1.1414215e-38 344 302
0.030507999 0.69599998 -0.075659841 1.1967389e-38 345 302
0.03177391 0.69700003 -0.075768545 1.2520558e-38 346 302
0.033043321 0.69800001 -0.075877249 1.3073732e-38 347 302
0.034267146 0.69800001 -0.075877249 1.270784e-38 348 302
0.035490975 0.69800001 -0.075877249 1.2892232e-38 349 302
-0.020983893 0.704 -0.077763841 1.1510369e-38 303 303
-0.019749546 0.704 -0.077763841 1.1232703e-38 304 303
-0.018436298 0.70099998 -0.077432454 1.0956477e-38 305 303
-0.017182667 0.69999999 -0.077321991 1.0403671e-38 306 303
-0.015909746 0.69800001 -0.077101074 9.9426947e-39 307 303
-0.01468592 0.69800001 -0.077101074 1.0033094e-38 308 303
-0.013442807 0.69700003 -0.076990619 9.9408982e-39 309 303
-0.012150601 0.69300002 -0.076548778 1.0124917e-38 310 303
-0.010935539 0.69300002 -0.076548778 1.0124917e-38 311 303
-0.0096924258 0.69099998 -0.076327853 1.0309295e-38 312 303
-0.008480873 0.69099998 -0.076327853 1.0216741e-38 313 303
-0.0072693196 0.69099998 -0.076327853 1.0674485e-38 314 303
-0.0060577663 0.69099998 -0.076327853 1.0581931e-38 315 303
-0.0048251734 0.68800002 -0.075996481 1.0399693e-38 316 303
-0.0036188802 0.68800002 -0.075996481 1.067592e-38 317 303
-0.0024195998 0.69 -0.076217398 1.0675198e-38 318 303
-0.0012097999 0.69 -0.076217398 1.0583003e-38 319 303
0 0.69 -0.076217398 1.0582284e-38 320 303
0.0012062934 0.68800002 -0.075996481 1.0582284e-38 321 303
0.0024125867 0.68800002 -0.075996481 1.0490088e-38 322 303
0.0036188802 0.68800002 -0.075996481 1.0490088e-38 323 303
0.0048251734 0.68800002 -0.075996481 1.0214943e-38 324 303
0.0060314666 0.68800002 -0.075996481 1.0307139e-38 325 303
0.0072272392 0.68699998 -0.075886011 1.0583005e-38 326 303
0.0084317802 0.68699998 -0.075886011 1.0675201e-38 327 303
0.0096363192 0.68699998 -0.075886011 1.0950343e-38 328 303
0.010840859 0.68699998 -0.075886011 1.1042539e-38 329 303
0.012045399 0.68699998 -0.075886011 1.1318753e-38 330 303
0.013249939 0.68699998 -0.075886011 1.1226557e-38 331 303
0.014454478 0.68699998 -0.075886011 1.1502065e-38 332 303
0.015659019 0.68699998 -0.075886011 1.1686817e-38 333 303
0.01686356 0.68699998 -0.075886011 1.1596419e-38 334 303
0.0180944 0.68800002 -0.075996481 1.1872646e-38 335 303
0.019300694 0.68800002 -0.075996481 1.1689331e-38 336 303
0.020506985 0.68800002 -0.075996481 1.1781528e-38 337 303
0.021776399 0.69 -0.076217398 1.1690054e-38 338 303
0.022986198 0.69 -0.076217398 1.1506021e-38 339 303
0.024195999 0.69 -0.076217398 1.1505668e-38 340 303
0.025442619 0.69099998 -0.076327853 1.1413472e-38 341 303
0.02673132 0.69300002 -0.076548778 1.1321289e-38 342 303
0.027986705 0.69400001 -0.07665924 1.1505682e-38 343 303
0.029287677 0.69599998 -0.076880157 1.1690798e-38 344 303
0.030507999 0.69599998 -0.076880157 1.2059582e-38 345 303
0.03177391 0.69700003 -0.076990619 1.242873e-38 346 303
0.033043321 0.69800001 -0.077101074 1.2705675e-38 347 303
-0.019749546 0.704 -0.078998186 1.1692965e-38 304 304
-0.018488899 0.70300001 -0.078885972 1.1324183e-38 305 304
-0.017207211 0.70099998 -0.078661539 1.0954691e-38 306 304
-0.015909746 0.69800001 -0.078324907 1.0494072e-38 307 304
-0.01468592 0.69800001 -0.078324907 1.0308959e-38 308 304
-0.013442807 0.69700003 -0.078212693 1.0308959e-38 309 304
-0.012168133 0.69400001 -0.077876054 1.0585173e-38 310 304
-0.01095132 0.69400001 -0.077876054 1.0677369e-38 311 304
-0.0097204801 0.69300002 -0.077763841 1.0860668e-38 312 304
-0.0085054198 0.69300002 -0.077763841 1.0768471e-38 313 304
-0.0072693196 0.69099998 -0.077539407 1.1225851e-38 314 304
-0.0060577663 0.69099998 -0.077539407 1.1225851e-38 315 304
-0.0048462129 0.69099998 -0.077539407 1.0768822e-38 316 304
-0.0036293997 0.69 -0.077427194 1.0861019e-38 317 304
-0.0024195998 0.69 -0.077427194 1.1043964e-38 318 304
