# .PCD v.7 - Point Cloud Data file format
FIELDS x y z rgb imX imY
SIZE 4 4 4 4 4 4
TYPE F F F F F F
COUNT 1 1 1 1 1 1
WIDTH 842
HEIGHT 1
VIEWPOINT 0 0 0 1 0 0 0
POINTS 842
DATA ascii
-0.0026685731 0.76099998 -0.0040028598 1.5000792e-38 318 243
-0.0013342865 0.76099998 -0.0040028598 1.5000792e-38 319 243
0 0.759 -0.0039923396 1.4817483e-38 320 243
0.00133078 0.759 -0.0039923396 1.4725287e-38 321 243
0.0026545466 0.75700003 -0.0039818203 1.4266827e-38 322 243
0.0039818203 0.75700003 -0.0039818203 1.4266827e-38 323 243
0.0053090933 0.75700003 -0.0039818203 1.3992035e-38 324 243
0.0066363667 0.75700003 -0.0039818203 1.4084231e-38 325 243
0.0079636406 0.75700003 -0.0039818203 1.3810514e-38 326 243
0.0092909131 0.75700003 -0.0039818203 1.3810514e-38 327 243
0.010618187 0.75700003 -0.0039818203 1.3993458e-38 328 243
0.01197702 0.759 -0.0039923396 1.3717231e-38 329 243
0.0133078 0.759 -0.0039923396 1.3531761e-38 330 243
0.014677152 0.76099998 -0.0040028598 1.3347369e-38 331 243
0.016011439 0.76099998 -0.0040028598 1.3162275e-38 332 243
0.017345725 0.76099998 -0.0040028598 1.2793492e-38 333 243
0.018680012 0.76099998 -0.0040028598 1.2700593e-38 334 243
0.020014299 0.76099998 -0.0040028598 1.2608397e-38 335 243
0.02137664 0.76200002 -0.0040081199 1.2515851e-38 336 243
0.02271268 0.76200002 -0.0040081199 1.2239264e-38 337 243
0.024111839 0.764 -0.0040186401 1.2147069e-38 338 243
0.025518013 0.76599997 -0.0040291594 1.2147069e-38 339 243
0.026896132 0.76700002 -0.00403442 1.1779365e-38 340 243
0.028314579 0.76899999 -0.0040449398 1.1779365e-38 341 243
0.02966289 0.76899999 -0.0040449398 1.150387e-38 342 243
0.031091858 0.77100003 -0.0040554604 1.1688261e-38 343 243
0.032569919 0.77399999 -0.0040712398 1.1138696e-38 344 243
0.033927001 0.77399999 -0.0040712398 1.1138696e-38 345 243
0.035375252 0.77600002 -0.0040817601 1.1698746e-38 346 243
0.036830518 0.778 -0.0040922803 1.5294375e-38 347 243
0.038194612 0.778 -0.0040922803 1.6961846e-38 348 243
-0.042015124 0.773 -0.0054213065 1.7978886e-38 289 244
-0.0406598 0.773 -0.0054213065 1.8439126e-38 290 244
-0.039304473 0.773 -0.0054213065 1.7424974e-38 291 244
-0.037949149 0.773 -0.0054213065 1.4375639e-38 292 244
-0.036593821 0.773 -0.0054213065 1.2992705e-38 293 244
-0.03514732 0.77100003 -0.0054072798 1.4732862e-38 294 244
-0.033707831 0.76899999 -0.0053932532 1.4548471e-38 295 244
-0.032359518 0.76899999 -0.0053932532 1.5097663e-38 296 244
-0.030930554 0.76700002 -0.0053792265 1.4820717e-38 297 244
-0.029585747 0.76700002 -0.0053792265 1.5003299e-38 298 244
-0.028204117 0.76599997 -0.0053722127 1.4911103e-38 299 244
-0.026861066 0.76599997 -0.0053722127 1.491075e-38 300 244
-0.025451386 0.764 -0.0053581866 1.4726e-38 301 244
-0.02404872 0.76200002 -0.0053441599 1.5093341e-38 302 244
-0.022682872 0.76099998 -0.0053371461 1.5093341e-38 303 244
-0.021348584 0.76099998 -0.0053371461 1.500078e-38 304 244
-0.020014299 0.76099998 -0.0053371461 1.5185171e-38 305 244
-0.018680012 0.76099998 -0.0053371461 1.5001501e-38 306 244
-0.017300138 0.759 -0.0053231199 1.5001501e-38 307 244
-0.015927281 0.75700003 -0.0053090933 1.5001501e-38 308 244
-0.014600007 0.75700003 -0.0053090933 1.5001501e-38 309 244
-0.013272733 0.75700003 -0.0053090933 1.4817833e-38 310 244
-0.01194546 0.75700003 -0.0053090933 1.4817833e-38 311 244
-0.010618187 0.75700003 -0.0053090933 1.5001148e-38 312 244
-0.0092909131 0.75700003 -0.0053090933 1.5001148e-38 313 244
-0.0079636406 0.75700003 -0.0053090933 1.5001145e-38 314 244
-0.0066363667 0.75700003 -0.0053090933 1.490895e-38 315 244
-0.0053231199 0.759 -0.0053231199 1.4817833e-38 316 244
-0.0040028598 0.76099998 -0.0053371461 1.4633442e-38 317 244
-0.0026685731 0.76099998 -0.0053371461 1.4724563e-38 318 244
-0.0013342865 0.76099998 -0.0053371461 1.4724563e-38 319 244
0 0.759 -0.0053231199 1.4724563e-38 320 244
0.00133078 0.759 -0.0053231199 1.4724563e-38 321 244
0.0026545466 0.75700003 -0.0053090933 1.4174629e-38 322 244
0.0039818203 0.75700003 -0.0053090933 1.4266824e-38 323 244
0.0053090933 0.75700003 -0.0053090933 1.3992754e-38 324 244
0.0066363667 0.75700003 -0.0053090933 1.3992754e-38 325 244
0.0079636406 0.75700003 -0.0053090933 1.3809792e-38 326 244
0.0092909131 0.75700003 -0.0053090933 1.3809792e-38 327 244
0.010618187 0.75700003 -0.0053090933 1.3625398e-38 328 244
0.01194546 0.75700003 -0.0053090933 1.334917e-38 329 244
0.0133078 0.759 -0.0053231199 1.3347019e-38 330 244
0.014677152 0.76099998 -0.0053371461 1.2978236e-38 331 244
0.016011439 0.76099998 -0.0053371461 1.2793858e-38 332 244
0.017345725 0.76099998 -0.0053371461 1.2517631e-38 333 244
0.018680012 0.76099998 -0.0053371461 1.2425085e-38 334 244
0.0200406 0.76200002 -0.0053441599 1.2332889e-38 335 244
0.02137664 0.76200002 -0.0053441599 1.2147788e-38 336 244
0.02271268 0.76200002 -0.0053441599 1.1871561e-38 337 244
0.024111839 0.764 -0.0053581866 1.1779365e-38 338 244
0.025518013 0.76599997 -0.0053722127 1.1779365e-38 339 244
0.026896132 0.76700002 -0.0053792265 1.168717e-38 340 244
0.028314579 0.76899999 -0.0053932532 1.1594615e-38 341 244
0.029740039 0.77100003 -0.0054072798 1.1411672e-38 342 244
0.031091858 0.77100003 -0.0054072798 1.1596063e-38 343 244
0.032569919 0.77399999 -0.0054283198 1.1230173e-38 344 244
0.033927001 0.77399999 -0.0054283198 1.1230173e-38 345 244
0.035375252 0.77600002 -0.0054423464 1.1883856e-38 346 244
0.036735836 0.77600002 -0.0054423464 1.5295096e-38 347 244
0.038194612 0.778 -0.0054563731 1.6686336e-38 348 244
-0.0406598 0.773 -0.0067766332 1.8346933e-38 290 245
-0.039304473 0.773 -0.0067766332 1.7701564e-38 291 245
-0.037949149 0.773 -0.0067766332 1.4837341e-38 292 245
-0.036593821 0.773 -0.0067766332 1.2624645e-38 293 245
-0.03514732 0.77100003 -0.0067590997 1.4641742e-38 294 245
-0.033707831 0.76899999 -0.0067415666 1.4365156e-38 295 245
-0.032359518 0.76899999 -0.0067415666 1.4821796e-38 296 245
-0.030930554 0.76700002 -0.006724033 1.4545209e-38 297 245
-0.029585747 0.76700002 -0.006724033 1.4635603e-38 298 245
-0.028204117 0.76599997 -0.0067152665 1.4451571e-38 299 245
-0.026861066 0.76599997 -0.0067152665 1.4359376e-38 300 245
-0.025451386 0.764 -0.006697733 1.4359376e-38 301 245
-0.02404872 0.76200002 -0.0066801999 1.4541969e-38 302 245
-0.022682872 0.76099998 -0.0066714329 1.4541969e-38 303 245
-0.021348584 0.76099998 -0.0066714329 1.4449771e-38 304 245
-0.020014299 0.76099998 -0.0066714329 1.4542325e-38 305 245
-0.018680012 0.76099998 -0.0066714329 1.4542688e-38 306 245
-0.017300138 0.759 -0.0066538998 1.4542688e-38 307 245
-0.015927281 0.75700003 -0.0066363667 1.4725637e-38 308 245
-0.014600007 0.75700003 -0.0066363667 1.4725637e-38 309 245
-0.013272733 0.75700003 -0.0066363667 1.4633442e-38 310 245
-0.01194546 0.75700003 -0.0066363667 1.4633442e-38 311 245
-0.010618187 0.75700003 -0.0066363667 1.4542325e-38 312 245
-0.0092909131 0.75700003 -0.0066363667 1.4357574e-38 313 245
-0.0079636406 0.75700003 -0.0066363667 1.4633439e-38 314 245
-0.0066363667 0.75700003 -0.0066363667 1.4633439e-38 315 245
-0.0053231199 0.759 -0.0066538998 1.4633439e-38 316 245
-0.0040028598 0.76099998 -0.0066714329 1.4541242e-38 317 245
-0.0026685731 0.76099998 -0.0066714329 1.4540173e-38 318 245
-0.00133078 0.759 -0.0066538998 1.4540173e-38 319 245
0 0.759 -0.0066538998 1.4265028e-38 320 245
0.0013272733 0.75700003 -0.0066363667 1.4357225e-38 321 245
0.0026475333 0.755 -0.0066188332 1.3991319e-38 322 245
0.0039712996 0.755 -0.0066188332 1.417535e-38 323 245
0.0053090933 0.75700003 -0.0066363667 1.3809442e-38 324 245
0.0066363667 0.75700003 -0.0066363667 1.3809442e-38 325 245
0.0079636406 0.75700003 -0.0066363667 1.3809792e-38 326 245
0.0092909131 0.75700003 -0.0066363667 1.3717597e-38 327 245
0.010618187 0.75700003 -0.0066363667 1.3532482e-38 328 245
0.01194546 0.75700003 -0.0066363667 1.3440287e-38 329 245
0.0133078 0.759 -0.0066538998 1.3254823e-38 330 245
0.014677152 0.76099998 -0.0066714329 1.2886041e-38 331 245
0.016011439 0.76099998 -0.0066714329 1.2517631e-38 332 245
0.017345725 0.76099998 -0.0066714329 1.2425435e-38 333 245
0.018680012 0.76099998 -0.0066714329 1.2057742e-38 334 245
0.0200406 0.76200002 -0.0066801999 1.1965545e-38 335 245
0.02137664 0.76200002 -0.0066801999 1.1964829e-38 336 245
0.022772292 0.764 -0.006697733 1.1780079e-38 337 245
0.024111839 0.764 -0.006697733 1.1779363e-38 338 245
0.025518013 0.76599997 -0.0067152665 1.1687167e-38 339 245
0.026861066 0.76599997 -0.0067152665 1.1411306e-38 340 245
0.02824094 0.76700002 -0.006724033 1.1411306e-38 341 245
0.02966289 0.76899999 -0.0067415666 1.1136529e-38 342 245
0.031091858 0.77100003 -0.0067590997 1.1505312e-38 343 245
0.032527838 0.773 -0.0067766332 1.1047228e-38 344 245
0.033927001 0.77399999 -0.0067853997 1.0955032e-38 345 245
0.035375252 0.77600002 -0.0068029333 1.2345916e-38 346 245
0.036735836 0.77600002 -0.0068029333 1.5111786e-38 347 245
0.038096428 0.77600002 -0.0068029333 1.668598e-38 348 245
-0.037949149 0.773 -0.0081319595 1.5207572e-38 292 246
-0.036593821 0.773 -0.0081319595 1.271829e-38 293 246
-0.03514732 0.77100003 -0.0081109209 1.4550286e-38 294 246
-0.033707831 0.76899999 -0.0080898795 1.4089308e-38 295 246
-0.032359518 0.76899999 -0.0080898795 1.4546306e-38 296 246
-0.030930554 0.76700002 -0.00806884 1.4085329e-38 297 246
-0.029585747 0.76700002 -0.00806884 1.435867e-38 298 246
-0.02824094 0.76700002 -0.00806884 1.4266474e-38 299 246
-0.026861066 0.76599997 -0.0080583189 1.4266827e-38 300 246
-0.025518013 0.76599997 -0.0080583189 1.4174631e-38 301 246
-0.024111839 0.764 -0.0080372803 1.454017e-38 302 246
-0.022682872 0.76099998 -0.0080057196 1.4447974e-38 303 246
-0.021348584 0.76099998 -0.0080057196 1.4447253e-38 304 246
-0.020014299 0.76099998 -0.0080057196 1.4723838e-38 305 246
-0.018680012 0.76099998 -0.0080057196 1.454017e-38 306 246
-0.017300138 0.759 -0.0079846792 1.4632367e-38 307 246
-0.015969358 0.759 -0.0079846792 1.4723482e-38 308 246
-0.014600007 0.75700003 -0.0079636406 1.4723482e-38 309 246
-0.013272733 0.75700003 -0.0079636406 1.4447972e-38 310 246
-0.01194546 0.75700003 -0.0079636406 1.4447972e-38 311 246
-0.010618187 0.75700003 -0.0079636406 1.454017e-38 312 246
-0.0092909131 0.75700003 -0.0079636406 1.4447974e-38 313 246
-0.0079636406 0.75700003 -0.0079636406 1.435793e-38 314 246
-0.0066363667 0.75700003 -0.0079636406 1.435793e-38 315 246
-0.0053231199 0.759 -0.0079846792 1.4357927e-38 316 246
-0.0040028598 0.76099998 -0.0080057196 1.4173536e-38 317 246
-0.0026685731 0.76099998 -0.0080057196 1.4447974e-38 318 246
-0.00133078 0.759 -0.0079846792 1.4447974e-38 319 246
0 0.759 -0.0079846792 1.4173185e-38 320 246
0.0013272733 0.75700003 -0.0079636406 1.4265381e-38 321 246
0.0026475333 0.755 -0.0079425992 1.3899472e-38 322 246
0.0039712996 0.755 -0.0079425992 1.4175701e-38 323 246
0.0053090933 0.75700003 -0.0079636406 1.3626124e-38 324 246
0.0066188332 0.755 -0.0079425992 1.3626124e-38 325 246
0.0079425992 0.755 -0.0079425992 1.3716875e-38 326 246
0.0092909131 0.75700003 -0.0079636406 1.3624678e-38 327 246
0.010618187 0.75700003 -0.0079636406 1.334917e-38 328 246
0.01194546 0.75700003 -0.0079636406 1.334917e-38 329 246
0.0133078 0.759 -0.0079846792 1.2889278e-38 330 246
0.014677152 0.76099998 -0.0080057196 1.2428658e-38 331 246
0.016011439 0.76099998 -0.0080057196 1.2335035e-38 332 246
0.017345725 0.76099998 -0.0080057196 1.1966251e-38 333 246
0.01870456 0.76200002 -0.0080162399 1.224069e-38 334 246
0.0200406 0.76200002 -0.0080162399 1.2148494e-38 335 246
0.02137664 0.76200002 -0.0080162399 1.2147419e-38 336 246
0.022772292 0.764 -0.0080372803 1.2055224e-38 337 246
0.024111839 0.764 -0.0080372803 1.177936e-38 338 246
0.025518013 0.76599997 -0.0080583189 1.1594967e-38 339 246
0.026861066 0.76599997 -0.0080583189 1.1319109e-38 340 246
0.02824094 0.76700002 -0.00806884 1.1411306e-38 341 246
0.02966289 0.76899999 -0.0080898795 1.1045413e-38 342 246
0.031091858 0.77100003 -0.0081109209 1.1506032e-38 343 246
0.032527838 0.773 -0.0081319595 1.104723e-38 344 246
0.033927001 0.77399999 -0.0081424797 1.1415653e-38 345 246
0.03528408 0.77399999 -0.0081424797 1.3176044e-38 346 246
0.036735836 0.77600002 -0.0081635201 1.5112152e-38 347 246
0.038096428 0.77600002 -0.0081635201 1.6593784e-38 348 246
-0.037949149 0.773 -0.0094872871 1.5854386e-38 292 247
-0.036593821 0.773 -0.0094872871 1.3088517e-38 293 247
-0.03514732 0.77100003 -0.0094627403 1.4089308e-38 294 247
-0.033707831 0.76899999 -0.0094381925 1.4181862e-38 295 247
-0.032359518 0.76899999 -0.0094381925 1.4454105e-38 296 247
-0.030930554 0.76700002 -0.0094136465 1.3993486e-38 297 247
-0.029585747 0.76700002 -0.0094136465 1.4175e-38 298 247
-0.028204117 0.76599997 -0.0094013726 1.3990969e-38 299 247
-0.026861066 0.76599997 -0.0094013726 1.4082083e-38 300 247
-0.025518013 0.76599997 -0.0094013726 1.3989886e-38 301 247
-0.024111839 0.764 -0.0093768267 1.4171757e-38 302 247
-0.022682872 0.76099998 -0.0093400059 1.4079562e-38 303 247
-0.021348584 0.76099998 -0.0093400059 1.3896252e-38 304 247
-0.020014299 0.76099998 -0.0093400059 1.3896252e-38 305 247
-0.018680012 0.76099998 -0.0093400059 1.407993e-38 306 247
-0.017300138 0.759 -0.00931546 1.4172126e-38 307 247
-0.015969358 0.759 -0.00931546 1.4172482e-38 308 247
-0.014600007 0.75700003 -0.0092909131 1.4172482e-38 309 247
-0.013272733 0.75700003 -0.0092909131 1.4080283e-38 310 247
-0.01194546 0.75700003 -0.0092909131 1.4080283e-38 311 247
-0.010618187 0.75700003 -0.0092909131 1.4172479e-38 312 247
-0.0092909131 0.75700003 -0.0092909131 1.4264675e-38 313 247
-0.0079636406 0.75700003 -0.0092909131 1.4081713e-38 314 247
-0.0066363667 0.75700003 -0.0092909131 1.417391e-38 315 247
-0.0053090933 0.75700003 -0.0092909131 1.4357578e-38 316 247
-0.0039818203 0.75700003 -0.0092909131 1.4173185e-38 317 247
-0.00266156 0.759 -0.00931546 1.3896966e-38 318 247
-0.00133078 0.759 -0.00931546 1.3896966e-38 319 247
0 0.759 -0.00931546 1.3622179e-38 320 247
0.00133078 0.759 -0.00931546 1.3714375e-38 321 247
0.0026475333 0.755 -0.0092663663 1.3531782e-38 322 247
0.0039712996 0.755 -0.0092663663 1.3716174e-38 323 247
0.0053090933 0.75700003 -0.0092909131 1.3533934e-38 324 247
0.0066188332 0.755 -0.0092663663 1.344138e-38 325 247
0.0079425992 0.755 -0.0092663663 1.3441012e-38 326 247
0.0092909131 0.75700003 -0.0092909131 1.3441012e-38 327 247
0.010618187 0.75700003 -0.0092909131 1.3349167e-38 328 247
0.01194546 0.75700003 -0.0092909131 1.3256972e-38 329 247
0.0133078 0.759 -0.00931546 1.2889262e-38 330 247
0.014677152 0.76099998 -0.0093400059 1.2612674e-38 331 247
0.016011439 0.76099998 -0.0093400059 1.2426139e-38 332 247
0.017345725 0.76099998 -0.0093400059 1.2333943e-38 333 247
0.01870456 0.76200002 -0.0093522798 1.187263e-38 334 247
0.0200406 0.76200002 -0.0093522798 1.1780435e-38 335 247
0.021432746 0.764 -0.0093768267 1.168753e-38 336 247
0.022772292 0.764 -0.0093768267 1.1503499e-38 337 247
0.024174958 0.76599997 -0.0094013726 1.1594618e-38 338 247
0.025518013 0.76599997 -0.0094013726 1.1502421e-38 339 247
0.026896132 0.76700002 -0.0094136465 1.1318403e-38 340 247
0.02824094 0.76700002 -0.0094136465 1.14106e-38 341 247
0.029740039 0.77100003 -0.0094627403 1.0862116e-38 342 247
0.03117251 0.773 -0.0094872871 1.1322735e-38 343 247
0.032569919 0.77399999 -0.0094995592 1.0956126e-38 344 247
0.033927001 0.77399999 -0.0094995592 1.132455e-38 345 247
0.03528408 0.77399999 -0.0094995592 1.3453352e-38 346 247
0.036735836 0.77600002 -0.009524107 1.5205069e-38 347 247
-0.037949149 0.773 -0.010842613 1.6591604e-38 292 248
-0.036593821 0.773 -0.010842613 1.4010126e-38 293 248
-0.03514732 0.77100003 -0.01081456 1.3995339e-38 294 248
-0.033707831 0.76899999 -0.010786506 1.4179371e-38 295 248
-0.032359518 0.76899999 -0.010786506 1.4269736e-38 296 248
-0.030930554 0.76700002 -0.010758453 1.3900954e-38 297 248
-0.029585747 0.76700002 -0.010758453 1.3990616e-38 298 248
-0.028204117 0.76599997 -0.010744425 1.3805864e-38 299 248
-0.026861066 0.76599997 -0.010744425 1.3989167e-38 300 248
-0.025451386 0.764 -0.010716373 1.3989167e-38 301 248
-0.02404872 0.76200002 -0.01068832 1.3896603e-38 302 248
-0.022682872 0.76099998 -0.010674292 1.3804407e-38 303 248
-0.021348584 0.76099998 -0.010674292 1.3804051e-38 304 248
-0.020014299 0.76099998 -0.010674292 1.3711855e-38 305 248
-0.018680012 0.76099998 -0.010674292 1.389517e-38 306 248
-0.017345725 0.76099998 -0.010674292 1.3987366e-38 307 248
-0.015969358 0.759 -0.01064624 1.3804051e-38 308 248
-0.014638579 0.759 -0.01064624 1.3804051e-38 309 248
-0.0133078 0.759 -0.01064624 1.3804054e-38 310 248
-0.01194546 0.75700003 -0.010618187 1.3896249e-38 311 248
-0.010618187 0.75700003 -0.010618187 1.3896971e-38 312 248
-0.0092909131 0.75700003 -0.010618187 1.3989167e-38 313 248
-0.0079636406 0.75700003 -0.010618187 1.3806568e-38 314 248
-0.0066363667 0.75700003 -0.010618187 1.3806568e-38 315 248
-0.0053090933 0.75700003 -0.010618187 1.3897684e-38 316 248
-0.0039818203 0.75700003 -0.010618187 1.3713653e-38 317 248
-0.00266156 0.759 -0.01064624 1.380442e-38 318 248
-0.00133078 0.759 -0.01064624 1.3435996e-38 319 248
0 0.759 -0.01064624 1.3528193e-38 320 248
0.0013272733 0.75700003 -0.010618187 1.3712224e-38 321 248
0.0026545466 0.75700003 -0.010618187 1.3529984e-38 322 248
0.0039818203 0.75700003 -0.010618187 1.3806571e-38 323 248
0.0053090933 0.75700003 -0.010618187 1.3440666e-38 324 248
0.0066188332 0.755 -0.010590133 1.3440666e-38 325 248
0.0079425992 0.755 -0.010590133 1.3532132e-38 326 248
0.0092909131 0.75700003 -0.010618187 1.3532132e-38 327 248
0.01064624 0.759 -0.01064624 1.3257337e-38 328 248
0.01197702 0.759 -0.01064624 1.3165142e-38 329 248
0.0133078 0.759 -0.01064624 1.2889278e-38 330 248
0.014677152 0.76099998 -0.010674292 1.2428658e-38 331 248
0.016011439 0.76099998 -0.010674292 1.2242842e-38 332 248
0.01736852 0.76200002 -0.01068832 1.1689668e-38 333 248
0.01870456 0.76200002 -0.01068832 1.1871558e-38 334 248
0.0200406 0.76200002 -0.01068832 1.1594971e-38 335 248
0.021432746 0.764 -0.010716373 1.1593898e-38 336 248
0.022772292 0.764 -0.010716373 1.1593898e-38 337 248
0.024174958 0.76599997 -0.010744425 1.1318753e-38 338 248
0.025518013 0.76599997 -0.010744425 1.1318753e-38 339 248
0.026896132 0.76700002 -0.010758453 1.1226926e-38 340 248
0.028314579 0.76899999 -0.010786506 1.1411319e-38 341 248
0.029740039 0.77100003 -0.01081456 1.0953956e-38 342 248
0.03117251 0.773 -0.010842613 1.1322738e-38 343 248
0.032569919 0.77399999 -0.01085664 1.0956129e-38 344 248
0.033927001 0.77399999 -0.01085664 1.1693694e-38 345 248
0.03528408 0.77399999 -0.01085664 1.3638464e-38 346 248
0.036641158 0.77399999 -0.01085664 1.5298345e-38 347 248
-0.03514732 0.77100003 -0.01216638 1.3813468e-38 294 249
-0.033707831 0.76899999 -0.012134819 1.3628718e-38 295 249
-0.032359518 0.76899999 -0.012134819 1.4085345e-38 296 249
-0.030930554 0.76700002 -0.01210326 1.3808757e-38 297 249
-0.029585747 0.76700002 -0.01210326 1.3806585e-38 298 249
-0.028204117 0.76599997 -0.012087479 1.3438161e-38 299 249
-0.026861066 0.76599997 -0.012087479 1.3713303e-38 300 249
-0.025451386 0.764 -0.01205592 1.3713303e-38 301 249
-0.02404872 0.76200002 -0.01202436 1.3804051e-38 302 249
-0.022682872 0.76099998 -0.012008579 1.3711855e-38 303 249
-0.021348584 0.76099998 -0.012008579 1.343599e-38 304 249
-0.020014299 0.76099998 -0.012008579 1.343599e-38 305 249
-0.018680012 0.76099998 -0.012008579 1.3619308e-38 306 249
-0.017345725 0.76099998 -0.012008579 1.3619308e-38 307 249
-0.015969358 0.759 -0.01197702 1.3619305e-38 308 249
-0.014638579 0.759 -0.01197702 1.3619305e-38 309 249
-0.0133078 0.759 -0.01197702 1.352819e-38 310 249
-0.01194546 0.75700003 -0.01194546 1.3712221e-38 311 249
-0.010618187 0.75700003 -0.01194546 1.3621105e-38 312 249
-0.0092909131 0.75700003 -0.01194546 1.3621105e-38 313 249
-0.0079425992 0.755 -0.011913899 1.3621823e-38 314 249
-0.0066188332 0.755 -0.011913899 1.3621823e-38 315 249
-0.0053090933 0.75700003 -0.01194546 1.3528556e-38 316 249
-0.0039923396 0.759 -0.01197702 1.343636e-38 317 249
-0.00266156 0.759 -0.01197702 1.3343813e-38 318 249
-0.0013272733 0.75700003 -0.01194546 1.3067586e-38 319 249
0 0.75700003 -0.01194546 1.3251617e-38 320 249
0.0013272733 0.75700003 -0.01194546 1.3343813e-38 321 249
0.0026545466 0.75700003 -0.01194546 1.2978978e-38 322 249
0.0039818203 0.75700003 -0.01194546 1.3163369e-38 323 249
0.0053090933 0.75700003 -0.01194546 1.3255918e-38 324 249
0.0066188332 0.755 -0.011913899 1.3255918e-38 325 249
0.0079425992 0.755 -0.011913899 1.3164791e-38 326 249
0.0092909131 0.75700003 -0.01194546 1.298076e-38 327 249
0.01064624 0.759 -0.01197702 1.298076e-38 328 249
0.01197702 0.759 -0.01197702 1.2888565e-38 329 249
0.0133078 0.759 -0.01197702 1.2703817e-38 330 249
0.014677152 0.76099998 -0.012008579 1.2335035e-38 331 249
0.016011439 0.76099998 -0.012008579 1.2058095e-38 332 249
0.01736852 0.76200002 -0.01202436 1.1689671e-38 333 249
0.01870456 0.76200002 -0.01202436 1.1412022e-38 334 249
0.0200406 0.76200002 -0.01202436 1.1043598e-38 335 249
0.021432746 0.764 -0.01205592 1.1409872e-38 336 249
0.022772292 0.764 -0.01205592 1.1225841e-38 337 249
0.024174958 0.76599997 -0.012087479 1.0951059e-38 338 249
0.025551327 0.76700002 -0.01210326 1.0951059e-38 339 249
0.026896132 0.76700002 -0.01210326 1.0859948e-38 340 249
0.028314579 0.76899999 -0.012134819 1.1136176e-38 341 249
0.029740039 0.77100003 -0.01216638 1.0862482e-38 342 249
0.031212838 0.77399999 -0.01221372 1.113907e-38 343 249
0.032569919 0.77399999 -0.01221372 1.1325635e-38 344 249
0.033927001 0.77399999 -0.01221372 1.2339426e-38 345 249
0.03528408 0.77399999 -0.01221372 1.4008328e-38 346 249
0.036641158 0.77399999 -0.01221372 1.5299067e-38 347 249
-0.040028598 0.76099998 -0.013342866 1.8254031e-38 290 250
-0.038694311 0.76099998 -0.013342866 1.8254031e-38 291 250
-0.035056144 0.76899999 -0.013483133 1.372379e-38 294 250
-0.033620168 0.76700002 -0.013448066 1.3170616e-38 295 250
-0.03227536 0.76700002 -0.013448066 1.390203e-38 296 250
-0.030930554 0.76700002 -0.013448066 1.3533246e-38 297 250
-0.029585747 0.76700002 -0.013448066 1.3623275e-38 298 250
-0.028204117 0.76599997 -0.013430533 1.3162297e-38 299 250
-0.026861066 0.76599997 -0.013430533 1.3529277e-38 300 250
-0.025451386 0.764 -0.013395466 1.3345246e-38 301 250
-0.02404872 0.76200002 -0.0133604 1.3435996e-38 302 250
-0.022682872 0.76099998 -0.013342866 1.3435996e-38 303 250
-0.021348584 0.76099998 -0.013342866 1.3251249e-38 304 250
-0.0200406 0.76200002 -0.0133604 1.3251249e-38 305 250
-0.01870456 0.76200002 -0.0133604 1.3251246e-38 306 250
-0.017345725 0.76099998 -0.013342866 1.3251246e-38 307 250
-0.015969358 0.759 -0.0133078 1.3434914e-38 308 250
-0.014638579 0.759 -0.0133078 1.3434914e-38 309 250
-0.0133078 0.759 -0.0133078 1.3251965e-38 310 250
-0.01194546 0.75700003 -0.013272733 1.334416e-38 311 250
-0.010618187 0.75700003 -0.013272733 1.3436716e-38 312 250
-0.0092909131 0.75700003 -0.013272733 1.334416e-38 313 250
-0.0079425992 0.755 -0.013237666 1.3436363e-38 314 250
-0.0066188332 0.755 -0.013237666 1.3436363e-38 315 250
-0.0053090933 0.75700003 -0.013272733 1.3343091e-38 316 250
-0.0039923396 0.759 -0.0133078 1.3250895e-38 317 250
-0.00266156 0.759 -0.0133078 1.3158703e-38 318 250
-0.0013272733 0.75700003 -0.013272733 1.3158703e-38 319 250
0 0.75700003 -0.013272733 1.2883911e-38 320 250
0.0013272733 0.75700003 -0.013272733 1.2976106e-38 321 250
0.0026545466 0.75700003 -0.013272733 1.2885703e-38 322 250
0.0039818203 0.75700003 -0.013272733 1.316265e-38 323 250
0.0053090933 0.75700003 -0.013272733 1.298041e-38 324 250
0.0066363667 0.75700003 -0.013272733 1.2887855e-38 325 250
0.0079636406 0.75700003 -0.013272733 1.2888565e-38 326 250
0.0092909131 0.75700003 -0.013272733 1.2888565e-38 327 250
0.01064624 0.759 -0.0133078 1.2612701e-38 328 250
0.01197702 0.759 -0.0133078 1.2427949e-38 329 250
0.0133078 0.759 -0.0133078 1.2243205e-38 330 250
0.014677152 0.76099998 -0.013342866 1.2151009e-38 331 250
0.016011439 0.76099998 -0.013342866 1.178223e-38 332 250
0.01736852 0.76200002 -0.0133604 1.1505643e-38 333 250
0.01870456 0.76200002 -0.0133604 1.1319824e-38 334 250
0.0200406 0.76200002 -0.0133604 1.1043595e-38 335 250
0.021432746 0.764 -0.013395466 1.1134006e-38 336 250
0.022772292 0.764 -0.013395466 1.104181e-38 337 250
0.024206521 0.76700002 -0.013448066 1.0583358e-38 338 250
0.025551327 0.76700002 -0.013448066 1.0675554e-38 339 250
0.026896132 0.76700002 -0.013448066 1.0584803e-38 340 250
0.028314579 0.76899999 -0.013483133 1.0953227e-38 341 250
0.029817186 0.773 -0.013553266 1.0955398e-38 342 250
0.031212838 0.77399999 -0.013570799 1.1231985e-38 343 250
0.032569919 0.77399999 -0.013570799 1.1694424e-38 344 250
0.033927001 0.77399999 -0.013570799 1.2985163e-38 345 250
0.03528408 0.77399999 -0.013570799 1.4376397e-38 346 250
-0.0399234 0.759 -0.014638579 1.7978523e-38 290 251
-0.038592618 0.759 -0.014638579 1.7793772e-38 291 251
-0.03726184 0.759 -0.014638579 1.7146589e-38 292 251
-0.036262438 0.76599997 -0.014773586 1.5302677e-38 293 251
-0.034919381 0.76599997 -0.014773586 1.3542642e-38 294 251
-0.033620168 0.76700002 -0.014792874 1.2712522e-38 295 251
-0.03227536 0.76700002 -0.014792874 1.3718004e-38 296 251
-0.030930554 0.76700002 -0.014792874 1.3441776e-38 297 251
-0.029585747 0.76700002 -0.014792874 1.334813e-38 298 251
-0.028204117 0.76599997 -0.014773586 1.2979706e-38 299 251
-0.026861066 0.76599997 -0.014773586 1.325377e-38 300 251
-0.025451386 0.764 -0.014735013 1.2977183e-38 301 251
-0.02404872 0.76200002 -0.01469644 1.3343444e-38 302 251
-0.022682872 0.76099998 -0.014677152 1.3251249e-38 303 251
-0.021348584 0.76099998 -0.014677152 1.3250527e-38 304 251
-0.0200406 0.76200002 -0.01469644 1.3250527e-38 305 251
-0.01870456 0.76200002 -0.01469644 1.3158687e-38 306 251
-0.017345725 0.76099998 -0.014677152 1.3158687e-38 307 251
-0.016011439 0.76099998 -0.014677152 1.3158331e-38 308 251
-0.014638579 0.759 -0.014638579 1.3158331e-38 309 251
-0.0133078 0.759 -0.014638579 1.3066501e-38 310 251
-0.01194546 0.75700003 -0.014600007 1.3158697e-38 311 251
-0.010618187 0.75700003 -0.014600007 1.3251967e-38 312 251
-0.0092909131 0.75700003 -0.014600007 1.3251967e-38 313 251
-0.0079636406 0.75700003 -0.014600007 1.3251612e-38 314 251
-0.0066363667 0.75700003 -0.014600007 1.3251612e-38 315 251
-0.0053090933 0.75700003 -0.014600007 1.3068299e-38 316 251
-0.0039923396 0.759 -0.014638579 1.2976104e-38 317 251
-0.00266156 0.759 -0.014638579 1.2883908e-38 318 251
-0.00133078 0.759 -0.014638579 1.2699877e-38 319 251
0 0.75700003 -0.014600007 1.2608397e-38 320 251
0.0013272733 0.75700003 -0.014600007 1.2885343e-38 321 251
0.0026545466 0.75700003 -0.014600007 1.2611267e-38 322 251
0.0039818203 0.75700003 -0.014600007 1.279566e-38 323 251
0.0053090933 0.75700003 -0.014600007 1.2612701e-38 324 251
0.0066363667 0.75700003 -0.014600007 1.2612701e-38 325 251
0.0079636406 0.75700003 -0.014600007 1.2429026e-38 326 251
0.0092909131 0.75700003 -0.014600007 1.2429026e-38 327 251
0.01064624 0.759 -0.014638579 1.2335754e-38 328 251
0.01197702 0.759 -0.014638579 1.2151362e-38 329 251
0.0133078 0.759 -0.014638579 1.215029e-38 330 251
0.014677152 0.76099998 -0.014677152 1.2058095e-38 331 251
0.016011439 0.76099998 -0.014677152 1.1597838e-38 332 251
0.01736852 0.76200002 -0.01469644 1.1229416e-38 333 251
0.01870456 0.76200002 -0.01469644 1.1227626e-38 334 251
0.0200406 0.76200002 -0.01469644 1.09514e-38 335 251
0.021432746 0.764 -0.014735013 1.0675186e-38 336 251
0.022772292 0.764 -0.014735013 1.058299e-38 337 251
0.024206521 0.76700002 -0.014792874 1.0400043e-38 338 251
0.025551327 0.76700002 -0.014792874 1.0492239e-38 339 251
0.026966266 0.76899999 -0.014831445 1.0585877e-38 340 251
0.028314579 0.76899999 -0.014831445 1.0770268e-38 341 251
0.029817186 0.773 -0.014908593 1.0772085e-38 342 251
0.03117251 0.773 -0.014908593 1.1417455e-38 343 251
0.032527838 0.773 -0.014908593 1.1696228e-38 344 251
0.033883166 0.773 -0.014908593 1.3079162e-38 345 251
0.035238493 0.773 -0.014908593 1.3825028e-38 346 251
-0.0399234 0.759 -0.015969358 1.7701579e-38 290 252
-0.038592618 0.759 -0.015969358 1.7424994e-38 291 252
-0.03726184 0.759 -0.015969358 1.6870728e-38 292 252
-0.036167759 0.764 -0.016074561 1.5672185e-38 293 252
-0.034828212 0.764 -0.016074561 1.3821398e-38 294 252
-0.033620168 0.76700002 -0.01613768 1.2530659e-38 295 252
-0.03227536 0.76700002 -0.01613768 1.3534692e-38 296 252
-0.030930554 0.76700002 -0.01613768 1.3257745e-38 297 252
-0.029585747 0.76700002 -0.01613768 1.3348483e-38 298 252
-0.02824094 0.76700002 -0.01613768 1.2887505e-38 299 252
-0.026861066 0.76599997 -0.016116638 1.2978978e-38 300 252
-0.025451386 0.764 -0.016074561 1.2518e-38 301 252
-0.024111839 0.764 -0.016074561 1.2883905e-38 302 252
-0.022682872 0.76099998 -0.016011439 1.2699874e-38 303 252
-0.021348584 0.76099998 -0.016011439 1.2698441e-38 304 252
-0.0200406 0.76200002 -0.01603248 1.2698441e-38 305 252
-0.018680012 0.76099998 -0.016011439 1.2698445e-38 306 252
-0.017345725 0.76099998 -0.016011439 1.2698445e-38 307 252
-0.016011439 0.76099998 -0.016011439 1.2882473e-38 308 252
-0.014638579 0.759 -0.015969358 1.2882473e-38 309 252
-0.0133078 0.759 -0.015969358 1.279064e-38 310 252
-0.01194546 0.75700003 -0.015927281 1.279064e-38 311 252
-0.010618187 0.75700003 -0.015927281 1.2700243e-38 312 252
-0.0092909131 0.75700003 -0.015927281 1.2700243e-38 313 252
-0.0079636406 0.75700003 -0.015927281 1.2516574e-38 314 252
-0.0066363667 0.75700003 -0.015927281 1.2700964e-38 315 252
-0.0053231199 0.759 -0.015969358 1.2334337e-38 316 252
-0.0039923396 0.759 -0.015969358 1.2241783e-38 317 252
-0.00266156 0.759 -0.015969358 1.2333252e-38 318 252
-0.00133078 0.759 -0.015969358 1.2425448e-38 319 252
0 0.759 -0.015969358 1.2243211e-38 320 252
0.0013272733 0.75700003 -0.015927281 1.2243211e-38 321 252
0.0026545466 0.75700003 -0.015927281 1.2427602e-38 322 252
0.0039818203 0.75700003 -0.015927281 1.2519799e-38 323 252
0.0053090933 0.75700003 -0.015927281 1.2336122e-38 324 252
0.0066363667 0.75700003 -0.015927281 1.2336122e-38 325 252
0.0079846792 0.759 -0.015969358 1.2060967e-38 326 252
0.00931546 0.759 -0.015969358 1.1968413e-38 327 252
0.010674292 0.76099998 -0.016011439 1.2151365e-38 328 252
0.012008579 0.76099998 -0.016011439 1.1782583e-38 329 252
0.013342866 0.76099998 -0.016011439 1.1690037e-38 330 252
0.014677152 0.76099998 -0.016011439 1.1690037e-38 331 252
0.01603248 0.76200002 -0.01603248 1.1504568e-38 332 252
0.01736852 0.76200002 -0.01603248 1.1320175e-38 333 252
0.01870456 0.76200002 -0.01603248 1.0952119e-38 334 252
0.0200406 0.76200002 -0.01603248 1.0675892e-38 335 252
0.021488851 0.76599997 -0.016116638 1.0491513e-38 336 252
0.022831906 0.76599997 -0.016116638 1.0491513e-38 337 252
0.024269639 0.76899999 -0.016179759 1.0308211e-38 338 252
0.025617953 0.76899999 -0.016179759 1.0492961e-38 339 252
0.027036399 0.77100003 -0.016221842 1.0310734e-38 340 252
0.028461859 0.773 -0.016263919 1.0679517e-38 341 252
0.029817186 0.773 -0.016263919 1.0682056e-38 342 252
0.03117251 0.773 -0.016263919 1.1327426e-38 343 252
0.032527838 0.773 -0.016263919 1.1239582e-38 344 252
0.033883166 0.773 -0.016263919 1.2438126e-38 345 252
0.035238493 0.773 -0.016263919 1.3181108e-38 346 252
-0.040028598 0.76099998 -0.017345725 1.7425713e-38 290 253
-0.038694311 0.76099998 -0.017345725 1.6965095e-38 291 253
-0.037360024 0.76099998 -0.017345725 1.6318276e-38 292 253
-0.036167759 0.764 -0.017414106 1.5672907e-38 293 253
-0.034828212 0.764 -0.017414106 1.456005e-38 294 253
-0.033620168 0.76700002 -0.017482487 1.2716138e-38 295 253
-0.03227536 0.76700002 -0.017482487 1.344144e-38 296 253
-0.030930554 0.76700002 -0.017482487 1.344144e-38 297 253
-0.029585747 0.76700002 -0.017482487 1.3164833e-38 298 253
-0.02824094 0.76700002 -0.017482487 1.2888607e-38 299 253
-0.026861066 0.76599997 -0.017459691 1.2885357e-38 300 253
-0.025451386 0.764 -0.017414106 1.2700964e-38 301 253
-0.024111839 0.764 -0.017414106 1.2790638e-38 302 253
-0.022682872 0.76099998 -0.017345725 1.2698441e-38 303 253
-0.021348584 0.76099998 -0.017345725 1.2422217e-38 304 253
-0.0200406 0.76200002 -0.01736852 1.2422217e-38 305 253
-0.018680012 0.76099998 -0.017345725 1.2605529e-38 306 253
-0.017345725 0.76099998 -0.017345725 1.2697725e-38 307 253
-0.016011439 0.76099998 -0.017345725 1.2698078e-38 308 253
-0.014677152 0.76099998 -0.017345725 1.2698078e-38 309 253
-0.013342866 0.76099998 -0.017345725 1.2606601e-38 310 253
-0.01197702 0.759 -0.017300138 1.2698796e-38 311 253
-0.01064624 0.759 -0.017300138 1.242293e-38 312 253
-0.00931546 0.759 -0.017300138 1.242293e-38 313 253
-0.0079846792 0.759 -0.017300138 1.2423649e-38 314 253
-0.0066538998 0.759 -0.017300138 1.2423649e-38 315 253
-0.0053231199 0.759 -0.017300138 1.2332536e-38 316 253
-0.0039923396 0.759 -0.017300138 1.2332536e-38 317 253
-0.00266156 0.759 -0.017300138 1.2240339e-38 318 253
-0.00133078 0.759 -0.017300138 1.2240339e-38 319 253
0 0.759 -0.017300138 1.2149221e-38 320 253
0.00133078 0.759 -0.017300138 1.2518002e-38 321 253
0.00266156 0.759 -0.017300138 1.2517997e-38 322 253
0.0039923396 0.759 -0.017300138 1.2610551e-38 323 253
0.0053231199 0.759 -0.017300138 1.2243208e-38 324 253
0.0066538998 0.759 -0.017300138 1.2243208e-38 325 253
0.0079846792 0.759 -0.017300138 1.2150293e-38 326 253
0.0093400059 0.76099998 -0.017345725 1.2150293e-38 327 253
0.010674292 0.76099998 -0.017345725 1.1965176e-38 328 253
0.012008579 0.76099998 -0.017345725 1.187298e-38 329 253
0.013342866 0.76099998 -0.017345725 1.1688233e-38 330 253
0.01469644 0.76200002 -0.01736852 1.1688233e-38 331 253
0.01603248 0.76200002 -0.01736852 1.1503855e-38 332 253
0.017414106 0.764 -0.017414106 1.1319103e-38 333 253
0.01870456 0.76200002 -0.01736852 1.1042889e-38 334 253
0.0200406 0.76200002 -0.01736852 1.0858498e-38 335 253
0.021432746 0.764 -0.017414106 1.0490804e-38 336 253
0.022831906 0.76599997 -0.017459691 1.0583358e-38 337 253
0.024269639 0.76899999 -0.017528072 1.0217094e-38 338 253
0.025617953 0.76899999 -0.017528072 1.030929e-38 339 253
0.027036399 0.77100003 -0.01757366 1.05866e-38 340 253
0.028461859 0.773 -0.017619247 1.0863185e-38 341 253
0.029817186 0.773 -0.017619247 1.0866079e-38 342 253
0.03117251 0.773 -0.017619247 1.1419253e-38 343 253
0.032527838 0.773 -0.017619247 1.1239938e-38 344 253
0.033927001 0.77399999 -0.01764204 1.1977503e-38 345 253
-0.040028598 0.76099998 -0.018680012 1.7608662e-38 290 254
-0.038694311 0.76099998 -0.018680012 1.7055488e-38 291 254
-0.037360024 0.76099998 -0.018680012 1.6225362e-38 292 254
-0.036025736 0.76099998 -0.018680012 1.5672188e-38 293 254
-0.034964975 0.76700002 -0.018827293 1.4837363e-38 294 254
-0.033620168 0.76700002 -0.018827293 1.3085646e-38 295 254
-0.03227536 0.76700002 -0.018827293 1.3261366e-38 296 254
-0.030930554 0.76700002 -0.018827293 1.2708194e-38 297 254
-0.029585747 0.76700002 -0.018827293 1.3440697e-38 298 254
-0.02824094 0.76700002 -0.018827293 1.3071916e-38 299 254
-0.026861066 0.76599997 -0.018802745 1.2794238e-38 300 254
-0.025518013 0.76599997 -0.018802745 1.2425454e-38 301 254
-0.024111839 0.764 -0.018753653 1.2515495e-38 302 254
-0.022772292 0.764 -0.018753653 1.2239267e-38 303 254
-0.02137664 0.76200002 -0.01870456 1.205452e-38 304 254
-0.0200406 0.76200002 -0.01870456 1.205452e-38 305 254
-0.01870456 0.76200002 -0.01870456 1.1871208e-38 306 254
-0.01736852 0.76200002 -0.01870456 1.1871208e-38 307 254
-0.016011439 0.76099998 -0.018680012 1.2330384e-38 308 254
-0.014677152 0.76099998 -0.018680012 1.2330384e-38 309 254
-0.013342866 0.76099998 -0.018680012 1.2239264e-38 310 254
-0.012008579 0.76099998 -0.018680012 1.2147069e-38 311 254
-0.01064624 0.759 -0.01863092 1.2055592e-38 312 254
-0.00931546 0.759 -0.01863092 1.2055592e-38 313 254
-0.0079846792 0.759 -0.01863092 1.1872999e-38 314 254
-0.0066538998 0.759 -0.01863092 1.1872999e-38 315 254
-0.0053231199 0.759 -0.01863092 1.1689333e-38 316 254
-0.0039923396 0.759 -0.01863092 1.1689333e-38 317 254
-0.00266156 0.759 -0.01863092 1.1871927e-38 318 254
-0.00133078 0.759 -0.01863092 1.1964122e-38 319 254
0 0.759 -0.01863092 1.1965199e-38 320 254
0.00133078 0.759 -0.01863092 1.1965199e-38 321 254
0.00266156 0.759 -0.01863092 1.214959e-38 322 254
0.0039923396 0.759 -0.01863092 1.214959e-38 323 254
0.0053231199 0.759 -0.01863092 1.2057391e-38 324 254
0.0066538998 0.759 -0.01863092 1.1965196e-38 325 254
0.0080057196 0.76099998 -0.018680012 1.16904e-38 326 254
0.0093400059 0.76099998 -0.018680012 1.1506369e-38 327 254
0.010674292 0.76099998 -0.018680012 1.1597119e-38 328 254
0.01202436 0.76200002 -0.01870456 1.1504924e-38 329 254
0.0133604 0.76200002 -0.01870456 1.1229063e-38 330 254
0.01469644 0.76200002 -0.01870456 1.1229063e-38 331 254
0.016074561 0.764 -0.018753653 1.0860649e-38 332 254
0.017414106 0.764 -0.018753653 1.0768453e-38 333 254
0.018753653 0.764 -0.018753653 1.0675904e-38 334 254
0.020093199 0.764 -0.018753653 1.0583709e-38 335 254
0.021432746 0.764 -0.018753653 1.0399688e-38 336 254
0.022831906 0.76599997 -0.018802745 1.0399688e-38 337 254
0.024269639 0.76899999 -0.018876385 1.049368e-38 338 254
0.025617953 0.76899999 -0.018876385 1.0678072e-38 339 254
0.027036399 0.77100003 -0.018925481 1.058804e-38 340 254
0.028388219 0.77100003 -0.018925481 1.0864629e-38 341 254
0.029740039 0.77100003 -0.018925481 1.0591307e-38 342 254
0.03117251 0.773 -0.018974574 1.1144479e-38 343 254
0.032527838 0.773 -0.018974574 1.0226875e-38 344 254
-0.040028598 0.76099998 -0.020014299 1.770086e-38 290 255
-0.038694311 0.76099998 -0.020014299 1.7055491e-38 291 255
-0.037360024 0.76099998 -0.020014299 1.5949498e-38 292 255
-0.036025736 0.76099998 -0.020014299 1.5304128e-38 293 255
-0.034964975 0.76700002 -0.020172099 1.4562944e-38 294 255
-0.033620168 0.76700002 -0.020172099 1.3548791e-38 295 255
-0.03227536 0.76700002 -0.020172099 1.3632318e-38 296 255
-0.030930554 0.76700002 -0.020172099 1.271036e-38 297 255
-0.029585747 0.76700002 -0.020172099 1.3073364e-38 298 255
-0.028314579 0.76899999 -0.0202247 1.2888972e-38 299 255
-0.026896132 0.76700002 -0.020172099 1.2702413e-38 300 255
-0.025518013 0.76599997 -0.020145798 1.2517662e-38 301 255
-0.024174958 0.76599997 -0.020145798 1.2148874e-38 302 255
-0.022772292 0.764 -0.020093199 1.1964122e-38 303 255
-0.02137664 0.76200002 -0.0200406 1.1871924e-38 304 255
-0.0200406 0.76200002 -0.0200406 1.1779728e-38 305 255
-0.01870456 0.76200002 -0.0200406 1.1871558e-38 306 255
-0.01736852 0.76200002 -0.0200406 1.1871558e-38 307 255
-0.01603248 0.76200002 -0.0200406 1.205487e-38 308 255
-0.014677152 0.76099998 -0.020014299 1.205487e-38 309 255
-0.013342866 0.76099998 -0.020014299 1.205487e-38 310 255
-0.012008579 0.76099998 -0.020014299 1.205487e-38 311 255
-0.010674292 0.76099998 -0.020014299 1.1780079e-38 312 255
-0.0093400059 0.76099998 -0.020014299 1.1687883e-38 313 255
-0.0079846792 0.759 -0.0199617 1.1780079e-38 314 255
-0.0066538998 0.759 -0.0199617 1.1872633e-38 315 255
-0.0053231199 0.759 -0.0199617 1.1596769e-38 316 255
-0.0039923396 0.759 -0.0199617 1.1596769e-38 317 255
-0.00266156 0.759 -0.0199617 1.1779365e-38 318 255
-0.00133078 0.759 -0.0199617 1.1871561e-38 319 255
0 0.759 -0.0199617 1.1780084e-38 320 255
0.00133078 0.759 -0.0199617 1.187228e-38 321 255
0.00266156 0.759 -0.0199617 1.1964478e-38 322 255
0.0039923396 0.759 -0.0199617 1.1964478e-38 323 255
0.0053231199 0.759 -0.0199617 1.1871924e-38 324 255
0.0066714329 0.76099998 -0.020014299 1.1871924e-38 325 255
0.0080057196 0.76099998 -0.020014299 1.1688968e-38 326 255
0.0093522798 0.76200002 -0.0200406 1.1596413e-38 327 255
0.01068832 0.76200002 -0.0200406 1.1412375e-38 328 255
0.01202436 0.76200002 -0.0200406 1.1412375e-38 329 255
0.013395466 0.764 -0.020093199 1.1320178e-38 330 255
0.014735013 0.764 -0.020093199 1.1227982e-38 331 255
0.016074561 0.764 -0.020093199 1.0768453e-38 332 255
0.017414106 0.764 -0.020093199 1.0860649e-38 333 255
0.018753653 0.764 -0.020093199 1.0492955e-38 334 255
0.020145798 0.76599997 -0.020145798 1.0308564e-38 335 255
0.021488851 0.76599997 -0.020145798 1.0399688e-38 336 255
0.022831906 0.76599997 -0.020145798 1.0676273e-38 337 255
0.024269639 0.76899999 -0.0202247 1.0402208e-38 338 255
0.025617953 0.76899999 -0.0202247 1.05866e-38 339 255
0.027036399 0.77100003 -0.020277301 1.0497291e-38 340 255
0.028388219 0.77100003 -0.020277301 1.0774236e-38 341 255
0.029740039 0.77100003 -0.020277301 1.0408355e-38 342 255
-0.038694311 0.76099998 -0.021348584 1.6595952e-38 291 256
-0.037360024 0.76099998 -0.021348584 1.5764749e-38 292 256
-0.036025736 0.76099998 -0.021348584 1.5211575e-38 293 256
-0.034691449 0.76099998 -0.021348584 1.4379997e-38 294 256
-0.033620168 0.76700002 -0.021516906 1.3642432e-38 295 256
-0.03227536 0.76700002 -0.021516906 1.4094743e-38 296 256
-0.030930554 0.76700002 -0.021516906 1.3080231e-38 297 256
-0.02966289 0.76899999 -0.021573013 1.3258481e-38 298 256
-0.028314579 0.76899999 -0.021573013 1.2981534e-38 299 256
-0.026896132 0.76700002 -0.021516906 1.307012e-38 300 256
-0.025551327 0.76700002 -0.021516906 1.2609141e-38 301 256
-0.024174958 0.76599997 -0.021488851 1.2332905e-38 302 256
-0.022831906 0.76599997 -0.021488851 1.2148874e-38 303 256
-0.021432746 0.764 -0.021432746 1.1872999e-38 304 256
-0.020093199 0.764 -0.021432746 1.1596413e-38 305 256
-0.018753653 0.764 -0.021432746 1.1871558e-38 306 256
-0.017414106 0.764 -0.021432746 1.1871558e-38 307 256
-0.016074561 0.764 -0.021432746 1.1871561e-38 308 256
-0.01469644 0.76200002 -0.02137664 1.1779365e-38 309 256
-0.0133604 0.76200002 -0.02137664 1.168753e-38 310 256
-0.012008579 0.76099998 -0.021348584 1.168753e-38 311 256
-0.010674292 0.76099998 -0.021348584 1.168753e-38 312 256
-0.0093400059 0.76099998 -0.021348584 1.1503499e-38 313 256
-0.0080057196 0.76099998 -0.021348584 1.1503502e-38 314 256
-0.0066714329 0.76099998 -0.021348584 1.1687533e-38 315 256
-0.0053371461 0.76099998 -0.021348584 1.150422e-38 316 256
-0.0040028598 0.76099998 -0.021348584 1.150422e-38 317 256
-0.0026685731 0.76099998 -0.021348584 1.1412025e-38 318 256
-0.0013342865 0.76099998 -0.021348584 1.1412025e-38 319 256
0 0.759 -0.02129248 1.1686463e-38 320 256
0.00133078 0.759 -0.02129248 1.1686463e-38 321 256
0.00266156 0.759 -0.02129248 1.1503514e-38 322 256
0.0039923396 0.759 -0.02129248 1.1503514e-38 323 256
0.0053371461 0.76099998 -0.021348584 1.1504223e-38 324 256
0.0066714329 0.76099998 -0.021348584 1.1504223e-38 325 256
0.0080162399 0.76200002 -0.02137664 1.1320908e-38 326 256
0.0093522798 0.76200002 -0.02137664 1.1228712e-38 327 256
0.01068832 0.76200002 -0.02137664 1.1043961e-38 328 256
0.01202436 0.76200002 -0.02137664 1.1043961e-38 329 256
0.013395466 0.764 -0.021432746 1.0951765e-38 330 256
0.014735013 0.764 -0.021432746 1.0951765e-38 331 256
0.016074561 0.764 -0.021432746 1.0769172e-38 332 256
0.017414106 0.764 -0.021432746 1.0769172e-38 333 256
0.018802745 0.76599997 -0.021488851 1.0676623e-38 334 256
0.020145798 0.76599997 -0.021488851 1.0492592e-38 335 256
0.021516906 0.76700002 -0.021516906 1.0492242e-38 336 256
0.022861714 0.76700002 -0.021516906 1.0768469e-38 337 256
0.024269639 0.76899999 -0.021573013 1.0586603e-38 338 256
0.025617953 0.76899999 -0.021573013 1.0862829e-38 339 256
0.026896132 0.76700002 -0.021516906 1.0681685e-38 340 256
0.02824094 0.76700002 -0.021516906 1.1050467e-38 341 256
-0.037360024 0.76099998 -0.022682872 1.5489241e-38 292 257
-0.036025736 0.76099998 -0.022682872 1.5027903e-38 293 257
-0.034919381 0.76599997 -0.022831906 1.4104855e-38 294 257
-0.033576332 0.76599997 -0.022831906 1.3551683e-38 295 257
-0.032233275 0.76599997 -0.022831906 1.4097277e-38 296 257
-0.03117251 0.773 -0.023040552 1.2990929e-38 297 257
-0.029740039 0.77100003 -0.02298094 1.3444684e-38 298 257
-0.028388219 0.77100003 -0.02298094 1.2799673e-38 299 257
-0.027106533 0.773 -0.023040552 1.3255231e-38 300 257
-0.02568458 0.77100003 -0.02298094 1.2794253e-38 301 257
-0.024206521 0.76700002 -0.022861714 1.2518365e-38 302 257
-0.022861714 0.76700002 -0.022861714 1.2334334e-38 303 257
-0.021488851 0.76599997 -0.022831906 1.1874429e-38 304 257
-0.020145798 0.76599997 -0.022831906 1.1690037e-38 305 257
-0.018802745 0.76599997 -0.022831906 1.1689318e-38 306 257
-0.017459691 0.76599997 -0.022831906 1.1689318e-38 307 257
-0.016116638 0.76599997 -0.022831906 1.1687883e-38 308 257
-0.014735013 0.764 -0.022772292 1.1687883e-38 309 257
-0.013395466 0.764 -0.022772292 1.1503855e-38 310 257
-0.01205592 0.764 -0.022772292 1.1411659e-38 311 257
-0.01068832 0.76200002 -0.02271268 1.1411306e-38 312 257
-0.0093400059 0.76099998 -0.022682872 1.1319109e-38 313 257
-0.0080057196 0.76099998 -0.022682872 1.141095e-38 314 257
-0.0066714329 0.76099998 -0.022682872 1.141095e-38 315 257
-0.0053371461 0.76099998 -0.022682872 1.1228357e-38 316 257
-0.0040028598 0.76099998 -0.022682872 1.1043964e-38 317 257
-0.0026685731 0.76099998 -0.022682872 1.1227279e-38 318 257
-0.0013342865 0.76099998 -0.022682872 1.1227279e-38 319 257
0 0.76099998 -0.022682872 1.1318403e-38 320 257
0.0013342865 0.76099998 -0.022682872 1.14106e-38 321 257
0.0026685731 0.76099998 -0.022682872 1.131912e-38 322 257
0.0040028598 0.76099998 -0.022682872 1.1411674e-38 323 257
0.0053371461 0.76099998 -0.022682872 1.1228712e-38 324 257
0.0066801999 0.76200002 -0.02271268 1.1136158e-38 325 257
0.0080162399 0.76200002 -0.02271268 1.1136158e-38 326 257
0.0093522798 0.76200002 -0.02271268 1.1136158e-38 327 257
0.01068832 0.76200002 -0.02271268 1.0860296e-38 328 257
0.01205592 0.764 -0.022772292 1.0860296e-38 329 257
0.013395466 0.764 -0.022772292 1.0768097e-38 330 257
0.014735013 0.764 -0.022772292 1.0768097e-38 331 257
0.016116638 0.76599997 -0.022831906 1.0769172e-38 332 257
0.017459691 0.76599997 -0.022831906 1.0769172e-38 333 257
0.018827293 0.76700002 -0.022861714 1.0585504e-38 334 257
0.020172099 0.76700002 -0.022861714 1.0585504e-38 335 257
0.021516906 0.76700002 -0.022861714 1.0585156e-38 336 257
0.022921326 0.76899999 -0.022921326 1.0861385e-38 337 257
0.024269639 0.76899999 -0.022921326 1.067952e-38 338 257
0.025617953 0.76899999 -0.022921326 1.1047944e-38 339 257
0.026896132 0.76700002 -0.022861714 1.1049761e-38 340 257
0.02824094 0.76700002 -0.022861714 1.0865729e-38 341 257
-0.034919381 0.76599997 -0.024174958 1.3553483e-38 294 258
-0.033576332 0.76599997 -0.024174958 1.3184341e-38 295 258
-0.032233275 0.76599997 -0.024174958 1.3455873e-38 296 258
-0.029740039 0.77100003 -0.02433276 1.3447926e-38 298 258
-0.028388219 0.77100003 -0.02433276 1.2433775e-38 299 258
-0.027106533 0.773 -0.024395877 1.3074082e-38 300 258
-0.02568458 0.77100003 -0.02433276 1.270566e-38 301 258
-0.024206521 0.76700002 -0.024206521 1.2429063e-38 302 258
-0.022861714 0.76700002 -0.024206521 1.2244672e-38 303 258
-0.021488851 0.76599997 -0.024174958 1.1876243e-38 304 258
-0.020145798 0.76599997 -0.024174958 1.1599656e-38 305 258
-0.018827293 0.76700002 -0.024206521 1.1598937e-38 306 258
-0.017459691 0.76599997 -0.024174958 1.1414186e-38 307 258
-0.016116638 0.76599997 -0.024174958 1.1321627e-38 308 258
-0.014773586 0.76599997 -0.024174958 1.1321627e-38 309 258
-0.013430533 0.76599997 -0.024174958 1.1320552e-38 310 258
-0.01205592 0.764 -0.024111839 1.1228357e-38 311 258
-0.010716373 0.764 -0.024111839 1.1227276e-38 312 258
-0.0093522798 0.76200002 -0.02404872 1.1227276e-38 313 258
-0.0080162399 0.76200002 -0.02404872 1.1227279e-38 314 258
-0.0066714329 0.76099998 -0.024017159 1.1042889e-38 315 258
-0.0053371461 0.76099998 -0.024017159 1.1226923e-38 316 258
-0.0040028598 0.76099998 -0.024017159 1.1226923e-38 317 258
-0.0026685731 0.76099998 -0.024017159 1.0951059e-38 318 258
-0.00133604 0.76200002 -0.02404872 1.1043614e-38 319 258
0 0.76099998 -0.024017159 1.1226926e-38 320 258
0.0013342865 0.76099998 -0.024017159 1.1226926e-38 321 258
0.0026685731 0.76099998 -0.024017159 1.1043614e-38 322 258
0.0040028598 0.76099998 -0.024017159 1.1135811e-38 323 258
0.0053441599 0.76200002 -0.02404872 1.1136883e-38 324 258
0.0066801999 0.76200002 -0.02404872 1.1136883e-38 325 258
0.0080372803 0.764 -0.024111839 1.1044684e-38 326 258
0.0093768267 0.764 -0.024111839 1.1044684e-38 327 258
0.010716373 0.764 -0.024111839 1.0585507e-38 328 258
0.01205592 0.764 -0.024111839 1.0493311e-38 329 258
