# .PCD v.7 - Point Cloud Data file format
FIELDS x y z rgb imX imY
SIZE 4 4 4 4 4 4
TYPE F F F F F F
COUNT 1 1 1 1 1 1
WIDTH 843
HEIGHT 1
VIEWPOINT 0 0 0 1 0 0 0
POINTS 843
DATA ascii
-0.0013237667 0.755 -0.013237666 1.0670163e-38 319 250
0 0.755 -0.013237666 1.030247e-38 320 250
0.0013272733 0.75700003 -0.013272733 1.0118077e-38 321 250
0.0026545466 0.75700003 -0.013272733 9.4748754e-39 322 250
0.0039818203 0.75700003 -0.013272733 9.4748754e-39 323 250
0.0053090933 0.75700003 -0.013272733 9.2004465e-39 324 250
0.0066363667 0.75700003 -0.013272733 9.2004465e-39 325 250
0.0079636406 0.75700003 -0.013272733 8.9256518e-39 326 250
0.00931546 0.759 -0.0133078 9.0178475e-39 327 250
0.010674292 0.76099998 -0.013342866 8.833459e-39 328 250
0.012008579 0.76099998 -0.013342866 8.7412634e-39 329 250
0.0133604 0.76200002 -0.0133604 8.7398355e-39 330 250
0.01469644 0.76200002 -0.0133604 8.6476398e-39 331 250
0.016074561 0.764 -0.013395466 8.3717788e-39 332 250
0.017414106 0.764 -0.013395466 8.2795818e-39 333 250
0.018753653 0.764 -0.013395466 8.4625409e-39 334 250
0.020093199 0.764 -0.013395466 8.6472923e-39 335 250
0.021432746 0.764 -0.013395466 8.3739452e-39 336 250
0.022772292 0.764 -0.013395466 8.8349234e-39 337 250
0.024174958 0.76599997 -0.013430533 8.1034722e-39 338 250
0.025551327 0.76700002 -0.013448066 8.471896e-39 339 250
0.026966266 0.76899999 -0.013483133 1.0777162e-38 340 250
-0.048981119 0.77600002 -0.014966453 1.8348379e-38 284 251
-0.047497798 0.77399999 -0.014927879 1.6688498e-38 285 251
-0.046140719 0.77399999 -0.014927879 1.6128082e-38 286 251
-0.044725779 0.773 -0.014908593 1.1426105e-38 287 251
-0.043258239 0.77100003 -0.01487002 1.3352096e-38 288 251
-0.041797712 0.76899999 -0.014831445 1.3167705e-38 289 251
-0.0404494 0.76899999 -0.014831445 1.3533596e-38 290 251
-0.038999394 0.76700002 -0.014792874 1.3257011e-38 291 251
-0.037654586 0.76700002 -0.014792874 1.3346684e-38 292 251
-0.036262438 0.76599997 -0.014773586 1.2885706e-38 293 251
-0.034919381 0.76599997 -0.014773586 1.2884634e-38 294 251
-0.033357166 0.76099998 -0.014677152 1.2700243e-38 295 251
-0.032022879 0.76099998 -0.014677152 1.2975032e-38 296 251
-0.030607941 0.759 -0.014638579 1.2882836e-38 297 251
-0.029277159 0.759 -0.014638579 1.3158697e-38 298 251
-0.027946379 0.759 -0.014638579 1.3158697e-38 299 251
-0.026545467 0.75700003 -0.014600007 1.3066501e-38 300 251
-0.025218192 0.75700003 -0.014600007 1.288247e-38 301 251
-0.023827799 0.755 -0.014561433 1.2972869e-38 302 251
-0.022504034 0.755 -0.014561433 1.2788119e-38 303 251
-0.021180267 0.755 -0.014561433 1.2144904e-38 304 251
-0.0198565 0.755 -0.014561433 1.2052708e-38 305 251
-0.018532733 0.755 -0.014561433 1.1777916e-38 306 251
-0.017208965 0.755 -0.014561433 1.1685721e-38 307 251
-0.01586416 0.75400001 -0.014542146 1.1777566e-38 308 251
-0.014542146 0.75400001 -0.014542146 1.1685012e-38 309 251
-0.013220133 0.75400001 -0.014542146 1.1316608e-38 310 251
-0.01189812 0.75400001 -0.014542146 1.0947825e-38 311 251
-0.010576107 0.75400001 -0.014542146 1.0579412e-38 312 251
-0.0092540924 0.75400001 -0.014542146 1.0579412e-38 313 251
-0.00793208 0.75400001 -0.014542146 1.0855273e-38 314 251
-0.0066100666 0.75400001 -0.014542146 1.0855273e-38 315 251
-0.0052880533 0.75400001 -0.014542146 1.1038942e-38 316 251
-0.0039712996 0.755 -0.014561433 1.0946746e-38 317 251
-0.0026475333 0.755 -0.014561433 1.0763078e-38 318 251
-0.0013272733 0.75700003 -0.014600007 1.0578687e-38 319 251
0 0.75700003 -0.014600007 1.0027678e-38 320 251
0.0013272733 0.75700003 -0.014600007 9.5670584e-39 321 251
0.0026545466 0.75700003 -0.014600007 9.2908442e-39 322 251
0.0039818203 0.75700003 -0.014600007 9.1986486e-39 323 251
0.0053090933 0.75700003 -0.014600007 9.0160552e-39 324 251
0.0066363667 0.75700003 -0.014600007 9.1082508e-39 325 251
0.0079636406 0.75700003 -0.014600007 8.8341751e-39 326 251
0.00931546 0.759 -0.014638579 8.8341751e-39 327 251
0.010674292 0.76099998 -0.014677152 8.833459e-39 328 251
0.012008579 0.76099998 -0.014677152 8.648709e-39 329 251
0.0133604 0.76200002 -0.01469644 8.5561603e-39 330 251
0.01469644 0.76200002 -0.01469644 8.2799321e-39 331 251
0.016074561 0.764 -0.014735013 8.3706984e-39 332 251
0.017414106 0.764 -0.014735013 8.3706984e-39 333 251
0.018753653 0.764 -0.014735013 8.2781525e-39 334 251
0.020093199 0.764 -0.014735013 8.5547408e-39 335 251
0.021432746 0.764 -0.014735013 8.1899169e-39 336 251
0.022772292 0.764 -0.014735013 8.6512552e-39 337 251
0.024174958 0.76599997 -0.014773586 8.0112766e-39 338 251
0.025551327 0.76700002 -0.014792874 9.394211e-39 339 251
-0.048981119 0.77600002 -0.01632704 1.8164705e-38 284 252
-0.047497798 0.77399999 -0.016284959 1.7058359e-38 285 252
-0.046140719 0.77399999 -0.016284959 1.6498309e-38 286 252
-0.044725779 0.773 -0.016263919 1.1519747e-38 287 252
-0.043370452 0.773 -0.016263919 1.3445013e-38 288 252
-0.04190642 0.77100003 -0.016221842 1.3168786e-38 289 252
-0.0404494 0.76899999 -0.016179759 1.3442833e-38 290 252
-0.038999394 0.76700002 -0.01613768 1.3073691e-38 291 252
-0.037654586 0.76700002 -0.01613768 1.316265e-38 292 252
-0.036262438 0.76599997 -0.016116638 1.2885703e-38 293 252
-0.034919381 0.76599997 -0.016116638 1.2700243e-38 294 252
-0.033488665 0.764 -0.016074561 1.2515851e-38 295 252
-0.032022879 0.76099998 -0.016011439 1.2514782e-38 296 252
-0.030607941 0.759 -0.015969358 1.2514782e-38 297 252
-0.029277159 0.759 -0.015969358 1.2790287e-38 298 252
-0.027946379 0.759 -0.015969358 1.2698092e-38 299 252
-0.026545467 0.75700003 -0.015927281 1.2698089e-38 300 252
-0.025218192 0.75700003 -0.015927281 1.2605892e-38 301 252
-0.023827799 0.755 -0.015885198 1.251298e-38 302 252
-0.022504034 0.755 -0.015885198 1.2420784e-38 303 252
-0.021180267 0.755 -0.015885198 1.2053078e-38 304 252
-0.0198565 0.755 -0.015885198 1.2053078e-38 305 252
-0.018532733 0.755 -0.015885198 1.186976e-38 306 252
-0.017208965 0.755 -0.015885198 1.186976e-38 307 252
-0.015885198 0.755 -0.015885198 1.1869407e-38 308 252
-0.014542146 0.75400001 -0.01586416 1.1685015e-38 309 252
-0.013220133 0.75400001 -0.01586416 1.1408082e-38 310 252
-0.01189812 0.75400001 -0.01586416 1.1131493e-38 311 252
-0.010576107 0.75400001 -0.01586416 1.1038942e-38 312 252
-0.0092540924 0.75400001 -0.01586416 1.0946746e-38 313 252
-0.00793208 0.75400001 -0.01586416 1.0580119e-38 314 252
-0.0066100666 0.75400001 -0.01586416 1.0580119e-38 315 252
-0.0052880533 0.75400001 -0.01586416 1.076415e-38 316 252
-0.0039712996 0.755 -0.015885198 1.0580119e-38 317 252
-0.0026475333 0.755 -0.015885198 1.039609e-38 318 252
-0.0013272733 0.75700003 -0.015927281 1.0119864e-38 319 252
0 0.75700003 -0.015927281 9.6599701e-39 320 252
0.0013272733 0.75700003 -0.015927281 9.2915477e-39 321 252
0.0026545466 0.75700003 -0.015927281 8.9231351e-39 322 252
0.0039818203 0.75700003 -0.015927281 9.1071662e-39 323 252
0.0053090933 0.75700003 -0.015927281 8.648709e-39 324 252
0.0066363667 0.75700003 -0.015927281 8.833459e-39 325 252
0.0079846792 0.759 -0.015969358 8.9256546e-39 326 252
0.00931546 0.759 -0.015969358 8.9256546e-39 327 252
0.010674292 0.76099998 -0.016011439 8.9242225e-39 328 252
0.01202436 0.76200002 -0.01603248 8.6479958e-39 329 252
0.0133604 0.76200002 -0.01603248 8.0047872e-39 330 252
0.014735013 0.764 -0.016074561 7.9125915e-39 331 252
0.016074561 0.764 -0.016074561 7.8189708e-39 332 252
0.017414106 0.764 -0.016074561 7.8189708e-39 333 252
0.018753653 0.764 -0.016074561 7.9108189e-39 334 252
0.020145798 0.76599997 -0.016116638 8.2796014e-39 335 252
0.021432746 0.764 -0.016074561 7.8236581e-39 336 252
0.022772292 0.764 -0.016074561 8.4690275e-39 337 252
0.024174958 0.76599997 -0.016116638 8.3786284e-39 338 252
-0.048981119 0.77600002 -0.017687626 1.7795927e-38 284 253
-0.047497798 0.77399999 -0.01764204 1.751898e-38 285 253
-0.046140719 0.77399999 -0.01764204 1.7052564e-38 286 253
-0.044725779 0.773 -0.017619247 1.1797413e-38 287 253
-0.043258239 0.77100003 -0.01757366 1.3537209e-38 288 253
-0.04190642 0.77100003 -0.01757366 1.3168786e-38 289 253
-0.0404494 0.76899999 -0.017528072 1.3168054e-38 290 253
-0.038999394 0.76700002 -0.017482487 1.2707077e-38 291 253
-0.037654586 0.76700002 -0.017482487 1.279711e-38 292 253
-0.036309779 0.76700002 -0.017482487 1.2151741e-38 293 253
-0.034919381 0.76599997 -0.017459691 1.251693e-38 294 253
-0.033576332 0.76599997 -0.017459691 1.2147788e-38 295 253
-0.032022879 0.76099998 -0.017345725 1.2330387e-38 296 253
-0.030688593 0.76099998 -0.017345725 1.2330387e-38 297 253
-0.029277159 0.759 -0.017300138 1.2605176e-38 298 253
-0.027946379 0.759 -0.017300138 1.251298e-38 299 253
-0.026545467 0.75700003 -0.017254554 1.251298e-38 300 253
-0.025218192 0.75700003 -0.017254554 1.251298e-38 301 253
-0.023827799 0.755 -0.017208965 1.2420063e-38 302 253
-0.022504034 0.755 -0.017208965 1.2327867e-38 303 253
-0.021180267 0.755 -0.017208965 1.2144555e-38 304 253
-0.0198565 0.755 -0.017208965 1.2052358e-38 305 253
-0.018532733 0.755 -0.017208965 1.1960522e-38 306 253
-0.017208965 0.755 -0.017208965 1.1960522e-38 307 253
-0.015885198 0.755 -0.017208965 1.1776857e-38 308 253
-0.014542146 0.75400001 -0.017186172 1.1776857e-38 309 253
-0.013220133 0.75400001 -0.017186172 1.1133655e-38 310 253
-0.01189812 0.75400001 -0.017186172 1.0949264e-38 311 253
-0.010576107 0.75400001 -0.017186172 1.0856345e-38 312 253
-0.0092540924 0.75400001 -0.017186172 1.0856345e-38 313 253
-0.00793208 0.75400001 -0.017186172 1.0763431e-38 314 253
-0.0066188332 0.755 -0.017208965 1.0763431e-38 315 253
-0.0052950666 0.755 -0.017208965 1.0580838e-38 316 253
-0.0039712996 0.755 -0.017208965 1.0396446e-38 317 253
-0.0026475333 0.755 -0.017208965 1.0303895e-38 318 253
-0.0013272733 0.75700003 -0.017254554 1.0027667e-38 319 253
0 0.75700003 -0.017254554 9.659254e-39 320 253
0.0013272733 0.75700003 -0.017254554 9.3823084e-39 321 253
0.0026545466 0.75700003 -0.017254554 8.9245728e-39 322 253
0.0039818203 0.75700003 -0.017254554 8.7405417e-39 323 253
0.0053090933 0.75700003 -0.017254554 8.6490622e-39 324 253
0.0066538998 0.759 -0.017300138 8.8334534e-39 325 253
0.0079846792 0.759 -0.017300138 8.7419795e-39 326 253
0.0093400059 0.76099998 -0.017345725 8.7419795e-39 327 253
0.01068832 0.76200002 -0.01736852 8.831308e-39 328 253
0.01202436 0.76200002 -0.01736852 8.4625255e-39 329 253
0.013395466 0.764 -0.017414106 8.0019201e-39 330 253
0.014735013 0.764 -0.017414106 7.9097245e-39 331 253
0.016074561 0.764 -0.017414106 7.9093713e-39 332 253
0.017459691 0.76599997 -0.017459691 8.001567e-39 333 253
0.018802745 0.76599997 -0.017459691 7.9111692e-39 334 253
0.020145798 0.76599997 -0.017459691 8.3721474e-39 335 253
0.021432746 0.764 -0.017414106 8.0995191e-39 336 253
0.022772292 0.764 -0.017414106 8.3764662e-39 337 253
0.024174958 0.76599997 -0.017459691 8.6541391e-39 338 253
-0.047497798 0.77399999 -0.018999118 1.7426068e-38 285 254
-0.046081103 0.773 -0.018974574 1.6687743e-38 286 254
-0.044725779 0.773 -0.018974574 1.2262352e-38 287 254
-0.043258239 0.77100003 -0.018925481 1.3721604e-38 288 254
-0.04190642 0.77100003 -0.018925481 1.316843e-38 289 254
-0.040554602 0.77100003 -0.018925481 1.3260606e-38 290 254
-0.039101087 0.76899999 -0.018876385 1.2707433e-38 291 254
-0.03775277 0.76899999 -0.018876385 1.2887505e-38 292 254
-0.036309779 0.76700002 -0.018827293 1.2334331e-38 293 254
-0.034919381 0.76599997 -0.018802745 1.2332183e-38 294 254
-0.033576332 0.76599997 -0.018802745 1.2055595e-38 295 254
-0.032022879 0.76099998 -0.018680012 1.2237482e-38 296 254
-0.030688593 0.76099998 -0.018680012 1.2053451e-38 297 254
-0.029277159 0.759 -0.01863092 1.1960902e-38 298 254
-0.027946379 0.759 -0.01863092 1.1868707e-38 299 254
-0.026615599 0.759 -0.01863092 1.1777227e-38 300 254
-0.025218192 0.75700003 -0.018581826 1.1593194e-38 301 254
-0.02389092 0.75700003 -0.018581826 1.1960172e-38 302 254
-0.022504034 0.755 -0.018532733 1.2052369e-38 303 254
-0.021180267 0.755 -0.018532733 1.1777213e-38 304 254
-0.0198565 0.755 -0.018532733 1.1685017e-38 305 254
-0.018532733 0.755 -0.018532733 1.1226204e-38 306 254
-0.017208965 0.755 -0.018532733 1.1226204e-38 307 254
-0.015885198 0.755 -0.018532733 1.1500643e-38 308 254
-0.014561433 0.755 -0.018532733 1.1500643e-38 309 254
-0.013237666 0.755 -0.018532733 1.1225488e-38 310 254
-0.011913899 0.755 -0.018532733 1.1041097e-38 311 254
-0.010590133 0.755 -0.018532733 1.0948542e-38 312 254
-0.0092540924 0.75400001 -0.018508185 1.076415e-38 313 254
-0.00793208 0.75400001 -0.018508185 1.0580122e-38 314 254
-0.0066188332 0.755 -0.018532733 1.0580122e-38 315 254
-0.0052950666 0.755 -0.018532733 1.0488286e-38 316 254
-0.0039712996 0.755 -0.018532733 1.0119864e-38 317 254
-0.0026475333 0.755 -0.018532733 9.7514496e-39 318 254
-0.0013272733 0.75700003 -0.018581826 9.5670584e-39 319 254
0 0.75700003 -0.018581826 9.1993647e-39 320 254
0.0013272733 0.75700003 -0.018581826 8.9231379e-39 321 254
0.0026545466 0.75700003 -0.018581826 8.6479902e-39 322 254
0.0039818203 0.75700003 -0.018581826 8.7405445e-39 323 254
0.0053090933 0.75700003 -0.018581826 8.7412634e-39 324 254
0.0066538998 0.759 -0.01863092 8.7412634e-39 325 254
0.0079846792 0.759 -0.01863092 9.0160552e-39 326 254
0.0093400059 0.76099998 -0.018680012 8.9235009e-39 327 254
0.01068832 0.76200002 -0.01870456 8.8302318e-39 328 254
0.01202436 0.76200002 -0.01870456 8.4614493e-39 329 254
0.013395466 0.764 -0.018753653 7.7260563e-39 330 254
0.014735013 0.764 -0.018753653 7.6338592e-39 331 254
0.016116638 0.76599997 -0.018802745 7.3594402e-39 332 254
0.017459691 0.76599997 -0.018802745 7.4516358e-39 333 254
0.018827293 0.76700002 -0.018827293 7.4534337e-39 334 254
0.020172099 0.76700002 -0.018827293 7.8218575e-39 335 254
0.021516906 0.76700002 -0.018827293 7.6410647e-39 336 254
0.022861714 0.76700002 -0.018827293 8.1942385e-39 337 254
0.024269639 0.76899999 -0.018876385 9.2062394e-39 338 254
-0.047497798 0.77399999 -0.020356199 1.7148403e-38 285 255
-0.046081103 0.773 -0.0203299 1.6503374e-38 286 255
-0.044725779 0.773 -0.0203299 1.3737146e-38 287 255
-0.043258239 0.77100003 -0.020277301 1.4461353e-38 288 255
-0.04190642 0.77100003 -0.020277301 1.280219e-38 289 255
-0.040554602 0.77100003 -0.020277301 1.3352815e-38 290 255
-0.039101087 0.76899999 -0.0202247 1.2707445e-38 291 255
-0.03775277 0.76899999 -0.0202247 1.2795325e-38 292 255
-0.036309779 0.76700002 -0.020172099 1.2149956e-38 293 255
-0.034919381 0.76599997 -0.020145798 1.2238917e-38 294 255
-0.033576332 0.76599997 -0.020145798 1.1961971e-38 295 255
-0.032149121 0.764 -0.020093199 1.1961255e-38 296 255
-0.030688593 0.76099998 -0.020014299 1.1776863e-38 297 255
-0.029277159 0.759 -0.0199617 1.1684314e-38 298 255
-0.027946379 0.759 -0.0199617 1.1591759e-38 299 255
-0.026615599 0.759 -0.0199617 1.1315536e-38 300 255
-0.025218192 0.75700003 -0.019909101 1.1315536e-38 301 255
-0.02389092 0.75700003 -0.019909101 1.1408084e-38 302 255
-0.022563647 0.75700003 -0.019909101 1.1684311e-38 303 255
-0.021236373 0.75700003 -0.019909101 1.1684661e-38 304 255
-0.0198565 0.755 -0.0198565 1.1408435e-38 305 255
-0.018532733 0.755 -0.0198565 1.1040741e-38 306 255
-0.017208965 0.755 -0.0198565 1.1040741e-38 307 255
-0.015885198 0.755 -0.0198565 1.1223703e-38 308 255
-0.014561433 0.755 -0.0198565 1.1315898e-38 309 255
-0.013237666 0.755 -0.0198565 1.1040388e-38 310 255
-0.011913899 0.755 -0.0198565 1.0855997e-38 311 255
-0.010590133 0.755 -0.0198565 1.0579766e-38 312 255
-0.0092663663 0.755 -0.0198565 1.0579766e-38 313 255
-0.0079425992 0.755 -0.0198565 1.0212775e-38 314 255
-0.0066188332 0.755 -0.0198565 1.012058e-38 315 255
-0.0052950666 0.755 -0.0198565 1.0119508e-38 316 255
-0.0039712996 0.755 -0.0198565 9.8429194e-39 317 255
-0.0026545466 0.75700003 -0.019909101 9.6578191e-39 318 255
-0.0013272733 0.75700003 -0.019909101 9.3815923e-39 319 255
0 0.75700003 -0.019909101 9.0138972e-39 320 255
0.0013272733 0.75700003 -0.019909101 8.9217016e-39 321 255
0.0026545466 0.75700003 -0.019909101 8.7391082e-39 322 255
0.0039818203 0.75700003 -0.019909101 8.9235009e-39 323 255
0.0053231199 0.759 -0.0199617 8.9245756e-39 324 255
0.0066538998 0.759 -0.0199617 8.7405445e-39 325 255
0.0080057196 0.76099998 -0.020014299 8.9227848e-39 326 255
0.0093522798 0.76200002 -0.0200406 8.8305878e-39 327 255
0.01068832 0.76200002 -0.0200406 8.4625311e-39 328 255
0.01205592 0.764 -0.020093199 8.2777811e-39 329 255
0.013395466 0.764 -0.020093199 7.5423797e-39 330 255
0.014735013 0.764 -0.020093199 7.4501841e-39 331 255
0.016116638 0.76599997 -0.020145798 7.3597905e-39 332 255
0.017459691 0.76599997 -0.020145798 7.728573e-39 333 255
0.018827293 0.76700002 -0.020172099 7.5467027e-39 334 255
0.020172099 0.76700002 -0.020172099 7.8232896e-39 335 255
0.021516906 0.76700002 -0.020172099 7.916574e-39 336 255
0.022861714 0.76700002 -0.020172099 8.2857153e-39 337 255
-0.046081103 0.773 -0.021685226 1.6411188e-38 286 256
-0.044610061 0.77100003 -0.021629119 1.4198853e-38 287 256
-0.043258239 0.77100003 -0.021629119 1.4924507e-38 288 256
-0.04190642 0.77100003 -0.021629119 1.3080234e-38 289 256
-0.040554602 0.77100003 -0.021629119 1.3443941e-38 290 256
-0.039101087 0.76899999 -0.021573013 1.2890767e-38 291 256
-0.03775277 0.76899999 -0.021573013 1.2887877e-38 292 256
-0.036309779 0.76700002 -0.021516906 1.2242507e-38 293 256
-0.034964975 0.76700002 -0.021516906 1.1872292e-38 294 256
-0.033576332 0.76599997 -0.021488851 1.1411674e-38 295 256
-0.032149121 0.764 -0.021432746 1.1501362e-38 296 256
-0.030688593 0.76099998 -0.021348584 1.1225135e-38 297 256
-0.029277159 0.759 -0.02129248 1.1315901e-38 298 256
-0.027946379 0.759 -0.02129248 1.094712e-38 299 256
-0.026615599 0.759 -0.02129248 1.076273e-38 300 256
-0.025218192 0.75700003 -0.021236373 1.0854926e-38 301 256
-0.02389092 0.75700003 -0.021236373 1.0948192e-38 302 256
-0.022563647 0.75700003 -0.021236373 1.1040388e-38 303 256
-0.021236373 0.75700003 -0.021236373 1.1224053e-38 304 256
-0.0198565 0.755 -0.021180267 1.1224053e-38 305 256
-0.018532733 0.755 -0.021180267 1.0855997e-38 306 256
-0.017254554 0.75700003 -0.021236373 1.0855997e-38 307 256
-0.015885198 0.755 -0.021180267 1.0673053e-38 308 256
-0.014561433 0.755 -0.021180267 1.0765248e-38 309 256
-0.013237666 0.755 -0.021180267 1.0854923e-38 310 256
-0.011913899 0.755 -0.021180267 1.0762728e-38 311 256
-0.010590133 0.755 -0.021180267 1.0303542e-38 312 256
-0.0092663663 0.755 -0.021180267 1.0303542e-38 313 256
-0.0079425992 0.755 -0.021180267 9.8447159e-39 314 256
-0.0066188332 0.755 -0.021180267 9.6603232e-39 315 256
-0.0052950666 0.755 -0.021180267 9.7503734e-39 316 256
-0.0039712996 0.755 -0.021180267 9.473788e-39 317 256
-0.0026545466 0.75700003 -0.021236373 9.1064502e-39 318 256
-0.0013272733 0.75700003 -0.021236373 9.1064502e-39 319 256
0 0.75700003 -0.021236373 8.7383893e-39 320 256
0.0013272733 0.75700003 -0.021236373 8.6461937e-39 321 256
0.0026545466 0.75700003 -0.021236373 8.4636003e-39 322 256
0.0039818203 0.75700003 -0.021236373 8.5557959e-39 323 256
0.0053231199 0.759 -0.02129248 8.7401886e-39 324 256
0.0066714329 0.76099998 -0.021348584 8.5557959e-39 325 256
0.0080057196 0.76099998 -0.021348584 8.5547239e-39 326 256
0.0093522798 0.76200002 -0.02137664 8.4625283e-39 327 256
0.01068832 0.76200002 -0.02137664 8.3699767e-39 328 256
0.01205592 0.764 -0.021432746 8.2777811e-39 329 256
0.013395466 0.764 -0.021432746 7.3590674e-39 330 256
0.014773586 0.76599997 -0.021488851 7.3590674e-39 331 256
0.016116638 0.76599997 -0.021488851 6.9935289e-39 332 256
0.017482487 0.76700002 -0.021516906 7.3619513e-39 333 256
0.018827293 0.76700002 -0.021516906 7.3637562e-39 334 256
0.020172099 0.76700002 -0.021516906 7.7325387e-39 335 256
0.021516906 0.76700002 -0.021516906 7.7350624e-39 336 256
0.022861714 0.76700002 -0.021516906 8.6566586e-39 337 256
-0.044610061 0.77100003 -0.02298094 1.4383964e-38 287 257
-0.043258239 0.77100003 -0.02298094 1.5019956e-38 288 257
-0.04190642 0.77100003 -0.02298094 1.3083848e-38 289 257
-0.040554602 0.77100003 -0.02298094 1.3353557e-38 290 257
-0.039101087 0.76899999 -0.022921326 1.2615991e-38 291 257
-0.037654586 0.76700002 -0.022861714 1.2797476e-38 292 257
-0.036309779 0.76700002 -0.022861714 1.2059911e-38 293 257
-0.034964975 0.76700002 -0.022861714 1.1689333e-38 294 257
-0.033620168 0.76700002 -0.022861714 1.1228357e-38 295 257
-0.032149121 0.764 -0.022772292 1.1133655e-38 296 257
-0.030688593 0.76099998 -0.022682872 1.104146e-38 297 257
-0.029354304 0.76099998 -0.022682872 1.0672328e-38 298 257
-0.027946379 0.759 -0.02262326 1.0487936e-38 299 257
-0.026615599 0.759 -0.02262326 1.0394668e-38 300 257
-0.025284819 0.759 -0.02262326 1.0302472e-38 301 257
-0.02389092 0.75700003 -0.022563647 1.0212077e-38 302 257
-0.022563647 0.75700003 -0.022563647 1.0212077e-38 303 257
-0.021236373 0.75700003 -0.022563647 1.030427e-38 304 257
-0.0199617 0.759 -0.02262326 1.030427e-38 305 257
-0.018581826 0.75700003 -0.022563647 1.0211722e-38 306 257
-0.017254554 0.75700003 -0.022563647 1.0211722e-38 307 257
-0.015927281 0.75700003 -0.022563647 9.8454628e-39 308 257
-0.014600007 0.75700003 -0.022563647 1.0029494e-38 309 257
-0.013237666 0.755 -0.022504034 1.0212077e-38 310 257
-0.011913899 0.755 -0.022504034 1.0027327e-38 311 257
-0.010590133 0.755 -0.022504034 9.9347619e-39 312 257
-0.0092663663 0.755 -0.022504034 1.0027318e-38 313 257
-0.0079425992 0.755 -0.022504034 9.660326e-39 314 257
-0.0066188332 0.755 -0.022504034 9.475576e-39 315 257
-0.0052950666 0.755 -0.022504034 9.3823112e-39 316 257
-0.0039818203 0.75700003 -0.022563647 9.106083e-39 317 257
-0.0026545466 0.75700003 -0.022563647 8.7383865e-39 318 257
-0.0013272733 0.75700003 -0.022563647 8.8309409e-39 319 257
0 0.75700003 -0.022563647 8.4628786e-39 320 257
0.0013272733 0.75700003 -0.022563647 8.370683e-39 321 257
0.0026545466 0.75700003 -0.022563647 8.3713991e-39 322 257
0.0039818203 0.75700003 -0.022563647 8.4635947e-39 323 257
0.0053231199 0.759 -0.02262326 8.5557959e-39 324 257
0.0066714329 0.76099998 -0.022682872 8.4636003e-39 325 257
0.0080162399 0.76200002 -0.02271268 8.3703299e-39 326 257
0.0093522798 0.76200002 -0.02271268 8.3703299e-39 327 257
0.01068832 0.76200002 -0.02271268 7.7278443e-39 328 257
0.01205592 0.764 -0.022772292 7.5438132e-39 329 257
0.013430533 0.76599997 -0.022831906 7.1771943e-39 330 257
0.014773586 0.76599997 -0.022831906 7.1771943e-39 331 257
0.01613768 0.76700002 -0.022861714 7.0864434e-39 332 257
0.017482487 0.76700002 -0.022861714 7.3633904e-39 333 257
0.018876385 0.76899999 -0.022921326 7.6403431e-39 334 257
0.0202247 0.76899999 -0.022921326 8.1013212e-39 335 257
0.021573013 0.76899999 -0.022921326 8.1964035e-39 336 257
0.022921326 0.76899999 -0.022921326 9.0261642e-39 337 257
-0.043258239 0.77100003 -0.02433276 1.4471467e-38 288 258
-0.04190642 0.77100003 -0.02433276 1.2812306e-38 289 258
-0.040554602 0.77100003 -0.02433276 1.3447559e-38 290 258
-0.039101087 0.76899999 -0.024269639 1.2525244e-38 291 258
-0.037654586 0.76700002 -0.024206521 1.2616329e-38 292 258
-0.036309779 0.76700002 -0.024206521 1.1694372e-38 293 258
-0.034964975 0.76700002 -0.024206521 1.1415272e-38 294 258
-0.033620168 0.76700002 -0.024206521 1.0861738e-38 295 258
-0.032233275 0.76599997 -0.024174958 1.0951065e-38 296 258
-0.030809574 0.764 -0.024111839 1.0582284e-38 297 258
-0.029354304 0.76099998 -0.024017159 1.0396819e-38 298 258
-0.027946379 0.759 -0.023954039 1.0212428e-38 299 258
-0.026615599 0.759 -0.023954039 9.9347647e-39 300 258
-0.025284819 0.759 -0.023954039 9.8425691e-39 301 258
-0.02389092 0.75700003 -0.02389092 9.7500203e-39 302 258
-0.022563647 0.75700003 -0.02389092 9.7500203e-39 303 258
-0.021236373 0.75700003 -0.02389092 9.7510993e-39 304 258
-0.0199617 0.759 -0.023954039 9.7510993e-39 305 258
-0.01863092 0.759 -0.023954039 9.7496672e-39 306 258
-0.017300138 0.759 -0.023954039 9.7496672e-39 307 258
-0.015927281 0.75700003 -0.02389092 9.5681542e-39 308 258
-0.014600007 0.75700003 -0.02389092 9.844381e-39 309 258
-0.013272733 0.75700003 -0.02389092 9.8443683e-39 310 258
-0.01194546 0.75700003 -0.02389092 9.7521727e-39 311 258
-0.010618187 0.75700003 -0.02389092 9.4770137e-39 312 258
-0.0092909131 0.75700003 -0.02389092 9.4770137e-39 313 258
-0.0079636406 0.75700003 -0.02389092 9.2922666e-39 314 258
-0.0066363667 0.75700003 -0.02389092 9.1078753e-39 315 258
-0.0053090933 0.75700003 -0.02389092 8.9231351e-39 316 258
-0.0039818203 0.75700003 -0.02389092 8.7387425e-39 317 258
-0.0026545466 0.75700003 -0.02389092 8.5557931e-39 318 258
-0.00133078 0.759 -0.023954039 8.3714019e-39 319 258
0 0.759 -0.023954039 8.3714019e-39 320 258
0.00133078 0.759 -0.023954039 8.2792062e-39 321 258
0.00266156 0.759 -0.023954039 8.1880868e-39 322 258
0.0039923396 0.759 -0.023954039 8.1880868e-39 323 258
0.0053371461 0.76099998 -0.024017159 8.3713991e-39 324 258
0.0066801999 0.76200002 -0.02404872 8.3713991e-39 325 258
0.0080162399 0.76200002 -0.02404872 7.7285506e-39 326 258
0.0093768267 0.764 -0.024111839 7.5445195e-39 327 258
0.010716373 0.764 -0.024111839 7.2690242e-39 328 258
0.012087479 0.76599997 -0.024174958 7.2690242e-39 329 258
0.013430533 0.76599997 -0.024174958 6.8102138e-39 330 258
0.014792874 0.76700002 -0.024206521 7.0867993e-39 331 258
0.01613768 0.76700002 -0.024206521 7.1793579e-39 332 258
0.017482487 0.76700002 -0.024206521 7.6406962e-39 333 258
0.018876385 0.76899999 -0.024269639 7.5503026e-39 334 258
0.0202247 0.76899999 -0.024269639 8.195672e-39 335 258
0.021573013 0.76899999 -0.024269639 8.1985545e-39 336 258
0.022921326 0.76899999 -0.024269639 8.9361209e-39 337 258
-0.042015124 0.773 -0.025751207 1.2906662e-38 289 259
-0.040554602 0.77100003 -0.02568458 1.3542642e-38 290 259
-0.038999394 0.76700002 -0.025551327 1.23441e-38 291 259
-0.037654586 0.76700002 -0.025551327 1.2799994e-38 292 259
-0.036309779 0.76700002 -0.025551327 1.2062429e-38 293 259
-0.034964975 0.76700002 -0.025551327 1.1874427e-38 294 259
-0.033620168 0.76700002 -0.025551327 1.1321612e-38 295 259
-0.032233275 0.76599997 -0.025518013 1.1319106e-38 296 259
-0.030809574 0.764 -0.025451386 1.0949965e-38 297 259
-0.029354304 0.76099998 -0.025351444 1.0580482e-38 298 259
-0.027946379 0.759 -0.025284819 1.0119864e-38 299 259
-0.026615599 0.759 -0.025284819 9.9347647e-39 300 259
-0.025284819 0.759 -0.025284819 9.6578191e-39 301 259
-0.023954039 0.759 -0.025284819 9.1060998e-39 302 259
-0.02262326 0.759 -0.025284819 9.1982955e-39 303 259
-0.02129248 0.759 -0.025284819 8.9227974e-39 304 259
-0.0199617 0.759 -0.025284819 8.7384061e-39 305 259
-0.01863092 0.759 -0.025284819 8.738053e-39 306 259
-0.017300138 0.759 -0.025284819 8.8302486e-39 307 259
-0.015969358 0.759 -0.025284819 9.0160678e-39 308 259
-0.014600007 0.75700003 -0.025218192 9.2004591e-39 309 259
-0.013272733 0.75700003 -0.025218192 9.5688605e-39 310 259
-0.01194546 0.75700003 -0.025218192 9.4763047e-39 311 259
-0.010618187 0.75700003 -0.025218192 9.5677744e-39 312 259
-0.0092909131 0.75700003 -0.025218192 9.2915477e-39 313 259
-0.0079636406 0.75700003 -0.025218192 9.1075222e-39 314 259
-0.0066363667 0.75700003 -0.025218192 9.1075222e-39 315 259
-0.0053090933 0.75700003 -0.025218192 8.6483461e-39 316 259
-0.0039818203 0.75700003 -0.025218192 8.4635947e-39 317 259
-0.00266156 0.759 -0.025284819 8.1877365e-39 318 259
-0.00133078 0.759 -0.025284819 8.0955409e-39 319 259
0 0.759 -0.025284819 7.5441691e-39 320 259
0.00133078 0.759 -0.025284819 7.5441691e-39 321 259
0.00266156 0.759 -0.025284819 7.5448852e-39 322 259
0.0039923396 0.759 -0.025284819 7.6370808e-39 323 259
0.0053371461 0.76099998 -0.025351444 7.8200302e-39 324 259
0.0066801999 0.76200002 -0.02538476 7.8200302e-39 325 259
0.0080162399 0.76200002 -0.02538476 7.6352844e-39 326 259
0.0093522798 0.76200002 -0.02538476 7.6352844e-39 327 259
0.010744425 0.76599997 -0.025518013 6.7180154e-39 328 259
0.012087479 0.76599997 -0.025518013 6.8105698e-39 329 259
0.013448066 0.76700002 -0.025551327 6.9038472e-39 330 259
0.014792874 0.76700002 -0.025551327 7.0885986e-39 331 259
0.01613768 0.76700002 -0.025551327 7.5488509e-39 332 259
0.017482487 0.76700002 -0.025551327 7.7332421e-39 333 259
0.018876385 0.76899999 -0.025617953 8.0112738e-39 334 259
0.0202247 0.76899999 -0.025617953 8.4722519e-39 335 259
0.021516906 0.76700002 -0.025551327 8.4733603e-39 336 259
0.022861714 0.76700002 -0.025551327 8.8425016e-39 337 259
-0.040554602 0.77100003 -0.027036399 1.4004713e-38 290 260
-0.038999394 0.76700002 -0.026896132 1.280617e-38 291 260
-0.037654586 0.76700002 -0.026896132 1.2800021e-38 292 260
-0.036309779 0.76700002 -0.026896132 1.2062454e-38 293 260
-0.034964975 0.76700002 -0.026896132 1.1785493e-38 294 260
-0.033620168 0.76700002 -0.026896132 1.0955731e-38 295 260
-0.032233275 0.76599997 -0.026861066 1.0952861e-38 296 260
-0.030890226 0.76599997 -0.026861066 1.0676273e-38 297 260
-0.029354304 0.76099998 -0.026685731 1.0214949e-38 298 260
-0.028020019 0.76099998 -0.026685731 9.8461662e-39 299 260
-0.026615599 0.759 -0.026615599 9.2915631e-39 300 260
-0.025284819 0.759 -0.026615599 9.1071718e-39 301 260
-0.023954039 0.759 -0.026615599 8.7387579e-39 302 260
-0.02262326 0.759 -0.026615599 8.7387579e-39 303 260
-0.02129248 0.759 -0.026615599 8.7387579e-39 304 260
-0.0199617 0.759 -0.026615599 8.4625311e-39 305 260
-0.01863092 0.759 -0.026615599 8.6458406e-39 306 260
-0.017300138 0.759 -0.026615599 8.9227876e-39 307 260
-0.015969358 0.759 -0.026615599 8.9242197e-39 308 260
-0.014638579 0.759 -0.026615599 9.1089697e-39 309 260
-0.0133078 0.759 -0.026615599 9.5688605e-39 310 260
-0.01194546 0.75700003 -0.026545467 9.5688605e-39 311 260
-0.010618187 0.75700003 -0.026545467 9.200794e-39 312 260
-0.0092909131 0.75700003 -0.026545467 9.1085984e-39 313 260
-0.0079636406 0.75700003 -0.026545467 8.9231379e-39 314 260
-0.0066363667 0.75700003 -0.026545467 8.8309409e-39 315 260
-0.0053231199 0.759 -0.026615599 8.5547239e-39 316 260
-0.0039923396 0.759 -0.026615599 8.3703327e-39 317 260
-0.00266156 0.759 -0.026615599 8.0944717e-39 318 260
-0.00133078 0.759 -0.026615599 7.8175246e-39 319 260
0 0.76099998 -0.026685731 7.7264094e-39 320 260
0.0013342865 0.76099998 -0.026685731 7.6342124e-39 321 260
0.0026685731 0.76099998 -0.026685731 7.4519721e-39 322 260
0.0040028598 0.76099998 -0.026685731 7.5441691e-39 323 260
0.0053371461 0.76099998 -0.026685731 7.7274814e-39 324 260
0.0066801999 0.76200002 -0.0267208 7.7274814e-39 325 260
0.0080162399 0.76200002 -0.0267208 7.1771915e-39 326 260
0.0093522798 0.76200002 -0.0267208 6.9931604e-39 327 260
0.010716373 0.764 -0.026790932 6.3524755e-39 328 260
0.012087479 0.76599997 -0.026861066 6.4446711e-39 329 260
0.013448066 0.76700002 -0.026896132 6.8134536e-39 330 260
0.014792874 0.76700002 -0.026896132 7.0900405e-39 331 260
0.01613768 0.76700002 -0.026896132 7.5503026e-39 332 260
0.017482487 0.76700002 -0.026896132 8.0109206e-39 333 260
0.018876385 0.76899999 -0.026966266 8.1960378e-39 334 260
0.0202247 0.76899999 -0.026966266 8.5644602e-39 335 260
0.021516906 0.76700002 -0.026896132 8.2904012e-39 336 260
0.022861714 0.76700002 -0.026896132 8.2904012e-39 337 260
-0.038999394 0.76700002 -0.02824094 1.2625388e-38 291 261
-0.037654586 0.76700002 -0.02824094 1.2986221e-38 292 261
-0.036309779 0.76700002 -0.02824094 1.2064266e-38 293 261
-0.034964975 0.76700002 -0.02824094 1.2337221e-38 294 261
-0.033707831 0.76899999 -0.028314579 1.1691851e-38 295 261
-0.03227536 0.76700002 -0.02824094 1.1597135e-38 296 261
-0.030890226 0.76599997 -0.028204117 1.1136158e-38 297 261
-0.029470026 0.764 -0.028130481 1.0950346e-38 298 261
-0.028020019 0.76099998 -0.028020019 1.0397172e-38 299 261
-0.026685731 0.76099998 -0.028020019 1.0027327e-38 300 261
-0.025284819 0.759 -0.027946379 9.5667081e-39 301 261
-0.023954039 0.759 -0.027946379 9.1993675e-39 302 261
-0.02262326 0.759 -0.027946379 8.922782e-39 303 261
-0.02129248 0.759 -0.027946379 8.7383921e-39 304 261
-0.020014299 0.76099998 -0.028020019 8.7383921e-39 305 261
-0.018680012 0.76099998 -0.028020019 8.5557959e-39 306 261
-0.017345725 0.76099998 -0.028020019 8.7401886e-39 307 261
-0.016011439 0.76099998 -0.028020019 8.8341751e-39 308 261
-0.014638579 0.759 -0.027946379 8.9263707e-39 309 261
-0.0133078 0.759 -0.027946379 9.3848279e-39 310 261
-0.01197702 0.759 -0.027946379 9.3848279e-39 311 261
-0.01064624 0.759 -0.027946379 9.1082452e-39 312 261
-0.00931546 0.759 -0.027946379 8.8316583e-39 313 261
-0.0079846792 0.759 -0.027946379 8.3721305e-39 314 261
-0.0066538998 0.759 -0.027946379 8.0951849e-39 315 261
-0.0053231199 0.759 -0.027946379 7.7278499e-39 316 261
-0.0039923396 0.759 -0.027946379 7.5438188e-39 317 261
-0.00266156 0.759 -0.027946379 7.1764782e-39 318 261
-0.0013342865 0.76099998 -0.028020019 6.9917268e-39 319 261
0 0.76099998 -0.028020019 6.7162218e-39 320 261
0.0013342865 0.76099998 -0.028020019 6.8084174e-39 321 261
0.0026685731 0.76099998 -0.028020019 6.5336256e-39 322 261
0.0040028598 0.76099998 -0.028020019 6.7180182e-39 323 261
0.0053371461 0.76099998 -0.028020019 7.1771915e-39 324 261
0.0066801999 0.76200002 -0.028056841 7.1771915e-39 325 261
0.0080162399 0.76200002 -0.028056841 7.0860805e-39 326 261
0.0093768267 0.764 -0.028130481 7.1782761e-39 327 261
0.010716373 0.764 -0.028130481 7.1793579e-39 328 261
0.012087479 0.76599997 -0.028204117 7.2715549e-39 329 261
0.013448066 0.76700002 -0.02824094 7.2737059e-39 330 261
0.014792874 0.76700002 -0.02824094 7.5506529e-39 331 261
0.01613768 0.76700002 -0.02824094 7.9190781e-39 332 261
0.017482487 0.76700002 -0.02824094 8.1956664e-39 333 261
0.018827293 0.76700002 -0.02824094 7.7379435e-39 334 261
0.020172099 0.76700002 -0.02824094 7.8304979e-39 335 261
0.021573013 0.76899999 -0.028314579 7.8305133e-39 336 261
-0.036404461 0.76899999 -0.02966289 1.2067506e-38 293 262
-0.035056144 0.76899999 -0.02966289 1.197348e-38 294 262
-0.033707831 0.76899999 -0.02966289 1.1235915e-38 295 262
-0.03227536 0.76700002 -0.029585747 1.1599305e-38 296 262
-0.030930554 0.76700002 -0.029585747 1.1046132e-38 297 262
-0.029547172 0.76599997 -0.029547172 1.0859592e-38 298 262
-0.028130481 0.764 -0.029470026 1.049081e-38 299 262
-0.026685731 0.76099998 -0.029354304 1.002876e-38 300 262
-0.025351444 0.76099998 -0.029354304 9.8443683e-39 301 262
-0.023954039 0.759 -0.029277159 9.2015185e-39 302 262
-0.02262326 0.759 -0.029277159 8.9245728e-39 303 262
-0.02129248 0.759 -0.029277159 8.9231351e-39 304 262
-0.020014299 0.76099998 -0.029354304 8.9231351e-39 305 262
-0.018680012 0.76099998 -0.029354304 8.649065e-39 306 262
-0.017345725 0.76099998 -0.029354304 8.8334562e-39 307 262
-0.016011439 0.76099998 -0.029354304 8.9260078e-39 308 262
-0.014677152 0.76099998 -0.029354304 9.0182034e-39 309 262
-0.0133078 0.759 -0.029277159 9.2015157e-39 310 262
-0.01197702 0.759 -0.029277159 9.10932e-39 311 262
-0.01064624 0.759 -0.029277159 8.7405417e-39 312 262
-0.00931546 0.759 -0.029277159 8.5561491e-39 313 262
-0.0079846792 0.759 -0.029277159 8.094822e-39 314 262
-0.0066538998 0.759 -0.029277159 7.9100706e-39 315 262
-0.0053231199 0.759 -0.029277159 7.3597877e-39 316 262
-0.0039923396 0.759 -0.029277159 7.2675907e-39 317 262
-0.0026685731 0.76099998 -0.029354304 6.9917268e-39 318 262
-0.0013342865 0.76099998 -0.029354304 6.8995312e-39 319 262
0 0.76099998 -0.029354304 6.7162189e-39 320 262
0.0013342865 0.76099998 -0.029354304 6.7162189e-39 321 262
0.0026685731 0.76099998 -0.029354304 6.7169378e-39 322 262
0.0040028598 0.76099998 -0.029354304 6.9013305e-39 323 262
0.0053441599 0.76200002 -0.029392879 6.993882e-39 324 262
0.0066801999 0.76200002 -0.029392879 7.0860777e-39 325 262
0.0080162399 0.76200002 -0.029392879 6.995324e-39 326 262
0.0093768267 0.764 -0.029470026 7.1797138e-39 327 262
0.010744425 0.76599997 -0.029547172 7.0889615e-39 328 262
0.012087479 0.76599997 -0.029547172 7.2737115e-39 329 262
0.013448066 0.76700002 -0.029585747 7.5502998e-39 330 262
0.014792874 0.76700002 -0.029585747 7.8265266e-39 331 262
0.01613768 0.76700002 -0.029585747 7.9194439e-39 332 262
0.017482487 0.76700002 -0.029585747 8.1963909e-39 333 262
0.018827293 0.76700002 -0.029585747 7.7372274e-39 334 262
0.020172099 0.76700002 -0.029585747 7.8294231e-39 335 262
-0.036499143 0.77100003 -0.031091858 1.1794163e-38 293 263
-0.03514732 0.77100003 -0.031091858 1.261705e-38 294 263
-0.033795502 0.77100003 -0.031091858 1.1695095e-38 295 263
-0.032359518 0.76899999 -0.031011207 1.2242151e-38 296 263
-0.030930554 0.76700002 -0.030930554 1.1781533e-38 297 263
-0.029547172 0.76599997 -0.030890226 1.1320202e-38 298 263
-0.028130481 0.764 -0.030809574 1.0951059e-38 299 263
-0.026790932 0.764 -0.030809574 1.0581201e-38 300 263
-0.025351444 0.76099998 -0.030688593 1.0304974e-38 301 263
-0.024017159 0.76099998 -0.030688593 9.5695737e-39 302 263
-0.022682872 0.76099998 -0.030688593 9.2011499e-39 303 263
-0.021348584 0.76099998 -0.030688593 9.0164055e-39 304 263
-0.020014299 0.76099998 -0.030688593 9.0164055e-39 305 263
-0.018680012 0.76099998 -0.030688593 9.0171216e-39 306 263
-0.017345725 0.76099998 -0.030688593 9.1093172e-39 307 263
-0.016011439 0.76099998 -0.030688593 9.2015129e-39 308 263
-0.014677152 0.76099998 -0.030688593 9.2015129e-39 309 263
-0.013342866 0.76099998 -0.030688593 9.1086012e-39 310 263
-0.012008579 0.76099998 -0.030688593 9.0164055e-39 311 263
-0.010674292 0.76099998 -0.030688593 8.7391082e-39 312 263
-0.00931546 0.759 -0.030607941 8.2781314e-39 313 263
-0.0079846792 0.759 -0.030607941 7.6349298e-39 314 263
-0.0066714329 0.76099998 -0.030688593 7.5427328e-39 315 263
-0.0053371461 0.76099998 -0.030688593 6.9016836e-39 316 263
-0.0040028598 0.76099998 -0.030688593 6.8094866e-39 317 263
-0.0026685731 0.76099998 -0.030688593 6.8084118e-39 318 263
-0.0013342865 0.76099998 -0.030688593 6.8084118e-39 319 263
0 0.76099998 -0.030688593 6.4414299e-39 320 263
0.0013342865 0.76099998 -0.030688593 6.5336256e-39 321 263
0.0026685731 0.76099998 -0.030688593 6.6258212e-39 322 263
0.0040028598 0.76099998 -0.030688593 6.8102138e-39 323 263
0.0053441599 0.76200002 -0.030728921 6.9946009e-39 324 263
0.0066801999 0.76200002 -0.030728921 7.1789922e-39 325 263
0.0080372803 0.764 -0.030809574 7.1797138e-39 326 263
0.0093768267 0.764 -0.030809574 7.2719109e-39 327 263
0.010744425 0.76599997 -0.030890226 7.2737115e-39 328 263
0.012087479 0.76599997 -0.030890226 7.4581028e-39 329 263
0.013448066 0.76700002 -0.030930554 7.8258077e-39 330 263
0.014792874 0.76700002 -0.030930554 8.1023932e-39 331 263
0.01613768 0.76700002 -0.030930554 7.9187278e-39 332 263
0.017482487 0.76700002 -0.030930554 8.1031191e-39 333 263
0.018876385 0.76899999 -0.031011207 7.3695225e-39 334 263
-0.035056144 0.76899999 -0.032359518 1.2525597e-38 294 264
-0.033707831 0.76899999 -0.032359518 1.1788032e-38 295 264
-0.032443684 0.77100003 -0.032443684 1.2335796e-38 296 264
-0.030930554 0.76700002 -0.03227536 1.1782981e-38 297 264
-0.029585747 0.76700002 -0.03227536 1.1688977e-38 298 264
-0.028204117 0.76599997 -0.032233275 1.1320555e-38 299 264
-0.026861066 0.76599997 -0.032233275 1.0950699e-38 300 264
-0.025451386 0.764 -0.032149121 1.0673753e-38 301 264
-0.024017159 0.76099998 -0.032022879 1.0029829e-38 302 264
-0.022682872 0.76099998 -0.032022879 9.7532419e-39 303 264
-0.021348584 0.76099998 -0.032022879 9.2018688e-39 304 264
-0.0200406 0.76200002 -0.032064959 9.1096732e-39 305 264
-0.01870456 0.76200002 -0.032064959 8.926721e-39 306 264
-0.01736852 0.76200002 -0.032064959 8.926721e-39 307 264
-0.01603248 0.76200002 -0.032064959 9.2022331e-39 308 264
-0.01469644 0.76200002 -0.032064959 8.926005e-39 309 264
-0.013342866 0.76099998 -0.032022879 9.0160524e-39 310 264
-0.012008579 0.76099998 -0.032022879 8.9238568e-39 311 264
-0.010674292 0.76099998 -0.032022879 8.5547239e-39 312 264
-0.0093400059 0.76099998 -0.032022879 8.278137e-39 313 264
-0.0080057196 0.76099998 -0.032022879 7.2693773e-39 314 264
-0.0066714329 0.76099998 -0.032022879 7.2693773e-39 315 264
-0.0053371461 0.76099998 -0.032022879 6.8109173e-39 316 264
-0.0040028598 0.76099998 -0.032022879 6.7187203e-39 317 264
-0.0026685731 0.76099998 -0.032022879 6.9935163e-39 318 264
-0.0013342865 0.76099998 -0.032022879 6.9009605e-39 319 264
0 0.76200002 -0.032064959 6.9931604e-39 320 264
0.00133604 0.76200002 -0.032064959 6.9931604e-39 321 264
0.00267208 0.76200002 -0.032064959 7.0860749e-39 322 264
0.0040081199 0.76200002 -0.032064959 7.3626604e-39 323 264
0.0053441599 0.76200002 -0.032064959 7.1797082e-39 324 264
0.006697733 0.764 -0.032149121 7.272264e-39 325 264
0.0080372803 0.764 -0.032149121 7.1807914e-39 326 264
0.0094013726 0.76599997 -0.032233275 7.2729871e-39 327 264
0.010758453 0.76700002 -0.03227536 7.3662701e-39 328 264
0.012134819 0.76899999 -0.032359518 7.4584671e-39 329 264
0.013483133 0.76899999 -0.032359518 7.5506656e-39 330 264
0.014792874 0.76700002 -0.03227536 7.6428612e-39 331 264
0.01613768 0.76700002 -0.03227536 7.6435857e-39 332 264
0.017482487 0.76700002 -0.03227536 7.7357813e-39 333 264
-0.035056144 0.76899999 -0.033707831 1.2434865e-38 294 265
-0.033707831 0.76899999 -0.033707831 1.1881692e-38 295 265
-0.032443684 0.77100003 -0.033795502 1.1971352e-38 296 265
-0.030930554 0.76700002 -0.033620168 1.1602568e-38 297 265
-0.029585747 0.76700002 -0.033620168 1.1782993e-38 298 265
-0.028204117 0.76599997 -0.033576332 1.1322017e-38 299 265
-0.026861066 0.76599997 -0.033576332 1.1044353e-38 300 265
-0.025518013 0.76599997 -0.033576332 1.0767767e-38 301 265
-0.024111839 0.764 -0.033488665 9.8483312e-39 302 265
-0.02271268 0.76200002 -0.033401001 9.5717429e-39 303 265
-0.02137664 0.76200002 -0.033401001 9.111485e-39 304 265
-0.0200406 0.76200002 -0.033401001 8.8352583e-39 305 265
-0.01870456 0.76200002 -0.033401001 8.8363303e-39 306 265
-0.01736852 0.76200002 -0.033401001 8.7437759e-39 307 265
-0.01603248 0.76200002 -0.033401001 9.0189237e-39 308 265
-0.01469644 0.76200002 -0.033401001 8.8341723e-39 309 265
-0.0133604 0.76200002 -0.033401001 8.9242225e-39 310 265
-0.01202436 0.76200002 -0.033401001 8.6479958e-39 311 265
-0.01068832 0.76200002 -0.033401001 8.188105e-39 312 265
-0.0093400059 0.76099998 -0.033357166 7.9115195e-39 313 265
-0.0080057196 0.76099998 -0.033357166 7.1771915e-39 314 265
-0.0066714329 0.76099998 -0.033357166 7.2697459e-39 315 265
-0.0053371461 0.76099998 -0.033357166 7.1782705e-39 316 265
-0.0040028598 0.76099998 -0.033357166 7.0860749e-39 317 265
-0.0026685731 0.76099998 -0.033357166 7.0867937e-39 318 265
-0.00133604 0.76200002 -0.033401001 7.0867937e-39 319 265
0 0.76200002 -0.033401001 7.0867937e-39 320 265
0.00133604 0.76200002 -0.033401001 7.1789894e-39 321 265
0.00267208 0.76200002 -0.033401001 7.1797082e-39 322 265
0.0040186401 0.764 -0.033488665 7.3644596e-39 323 265
0.0053581866 0.764 -0.033488665 7.1815103e-39 324 265
0.006697733 0.764 -0.033488665 7.1815103e-39 325 265
0.00806884 0.76700002 -0.033620168 7.4573769e-39 326 265
0.0094136465 0.76700002 -0.033620168 7.5495725e-39 327 265
0.010786506 0.76899999 -0.033707831 7.4577469e-39 328 265
0.01216638 0.77100003 -0.033795502 7.4577469e-39 329 265
0.013518199 0.77100003 -0.033795502 7.5495936e-39 330 265
0.01487002 0.77100003 -0.033795502 7.7339834e-39 331 265
-0.033795502 0.77100003 -0.03514732 1.1425383e-38 295 266
-0.032443684 0.77100003 -0.03514732 1.2065691e-38 296 266
-0.030930554 0.76700002 -0.034964975 1.1604715e-38 297 266
-0.029585747 0.76700002 -0.034964975 1.1968811e-38 298 266
-0.028204117 0.76599997 -0.034919381 1.1507833e-38 299 266
-0.026861066 0.76599997 -0.034919381 1.1506038e-38 300 266
-0.025518013 0.76599997 -0.034919381 1.104506e-38 301 266
-0.024174958 0.76599997 -0.034919381 1.0768469e-38 302 266
-0.022772292 0.764 -0.034828212 1.0307492e-38 303 266
-0.02137664 0.76200002 -0.034737039 9.8472354e-39 304 266
-0.0200406 0.76200002 -0.034737039 9.7550398e-39 305 266
-0.01870456 0.76200002 -0.034737039 9.2036653e-39 306 266
-0.017414106 0.764 -0.034828212 9.2036653e-39 307 266
-0.016074561 0.764 -0.034828212 9.2022331e-39 308 266
-0.01469644 0.76200002 -0.034737039 8.926005e-39 309 266
-0.0133604 0.76200002 -0.034737039 8.9235009e-39 310 266
-0.01202436 0.76200002 -0.034737039 8.8313052e-39 311 266
-0.01068832 0.76200002 -0.034737039 8.2795818e-39 312 266
-0.0093768267 0.764 -0.034828212 8.0026362e-39 313 266
-0.0080162399 0.76200002 -0.034737039 7.2697459e-39 314 266
-0.0066801999 0.76200002 -0.034737039 7.3619415e-39 315 266
-0.0053441599 0.76200002 -0.034737039 7.3626547e-39 316 266
-0.0040186401 0.764 -0.034828212 7.4552091e-39 317 266
-0.00267208 0.76200002 -0.034737039 7.8225469e-39 318 266
-0.00133604 0.76200002 -0.034737039 7.8225469e-39 319 266
0 0.76200002 -0.034737039 8.0980562e-39 320 266
0.0013395466 0.764 -0.034828212 8.1902518e-39 321 266
0.0026861064 0.76599997 -0.034919381 8.0076612e-39 322 266
0.0040291594 0.76599997 -0.034919381 8.1920525e-39 323 266
0.0053792265 0.76700002 -0.034964975 8.0995037e-39 324 266
0.0067590997 0.77100003 -0.03514732 8.0995037e-39 325 266
0.0080898795 0.76899999 -0.035056144 7.8243616e-39 326 266
0.0094381925 0.76899999 -0.035056144 7.9165572e-39 327 266
0.01081456 0.77100003 -0.03514732 7.7325387e-39 328 266
0.012197939 0.773 -0.035238493 7.7325387e-39 329 266
-0.032443684 0.77100003 -0.036499143 1.1699828e-38 296 267
-0.030930554 0.76700002 -0.036309779 1.1330685e-38 297 267
-0.029585747 0.76700002 -0.036309779 1.1695859e-38 298 267
-0.028204117 0.76599997 -0.036262438 1.1326717e-38 299 267
-0.026861066 0.76599997 -0.036262438 1.1049394e-38 300 267
-0.025518013 0.76599997 -0.036262438 1.0680613e-38 301 267
-0.024174958 0.76599997 -0.036262438 1.0770283e-38 302 267
-0.022831906 0.76599997 -0.036262438 1.0309307e-38 303 267
-0.021432746 0.764 -0.036167759 9.6660937e-39 304 267
-0.020093199 0.764 -0.036167759 9.5735394e-39 305 267
-0.018802745 0.76599997 -0.036262438 9.2054799e-39 306 267
-0.017459691 0.76599997 -0.036262438 9.0210873e-39 307 267
-0.016116638 0.76599997 -0.036262438 8.8356212e-39 308 267
-0.014735013 0.764 -0.036167759 8.6512286e-39 309 267
-0.013395466 0.764 -0.036167759 8.5579609e-39 310 267
-0.012087479 0.76599997 -0.036262438 8.3735697e-39 311 267
-0.010744425 0.76599997 -0.036262438 8.0966367e-39 312 267
-0.0094013726 0.76599997 -0.036262438 7.8196896e-39 313 267
-0.0080583189 0.76599997 -0.036262438 7.3612352e-39 314 267
-0.0067152665 0.76599997 -0.036262438 7.4534309e-39 315 267
-0.0053792265 0.76700002 -0.036309779 7.5470558e-39 316 267
-0.00403442 0.76700002 -0.036309779 7.7314471e-39 317 267
-0.0026861064 0.76599997 -0.036262438 8.0076612e-39 318 267
-0.0013395466 0.764 -0.036167759 8.1920525e-39 319 267
0 0.764 -0.036167759 8.1005757e-39 320 267
0.0013430532 0.76599997 -0.036262438 8.1005757e-39 321 267
0.0026896133 0.76700002 -0.036309779 8.1005785e-39 322 267
0.00403442 0.76700002 -0.036309779 8.2849712e-39 323 267
0.0054213065 0.773 -0.036593821 7.9176264e-39 324 267
0.0067766332 0.773 -0.036593821 7.9176264e-39 325 267
0.0081319595 0.773 -0.036593821 8.0087542e-39 326 267
-0.026861066 0.76599997 -0.037605491 1.1419603e-38 300 268
-0.025518013 0.76599997 -0.037605491 1.0866429e-38 301 268
-0.024174958 0.76599997 -0.037605491 1.1231246e-38 302 268
-0.022831906 0.76599997 -0.037605491 1.0862464e-38 303 268
-0.021488851 0.76599997 -0.037605491 1.0585874e-38 304 268
-0.020145798 0.76599997 -0.037605491 1.0309646e-38 305 268
-0.018802745 0.76599997 -0.037605491 9.8490403e-39 306 268
-0.017459691 0.76599997 -0.037605491 9.6642903e-39 307 268
-0.016116638 0.76599997 -0.037605491 9.11292e-39 308 268
-0.014773586 0.76599997 -0.037605491 8.92817e-39 309 268
-0.013430533 0.76599997 -0.037605491 8.7427053e-39 310 268
-0.01210326 0.76700002 -0.037654586 8.6505097e-39 311 268
-0.010758453 0.76700002 -0.037654586 8.3732137e-39 312 268
-0.0094136465 0.76700002 -0.037654586 8.0969856e-39 313 268
-0.00806884 0.76700002 -0.037654586 7.8225609e-39 314 268
-0.006724033 0.76700002 -0.037654586 7.8225609e-39 315 268
-0.0053932532 0.76899999 -0.03775277 8.0073053e-39 316 268
-0.0040659797 0.773 -0.037949149 8.1920553e-39 317 268
-0.0027106532 0.773 -0.037949149 8.6515789e-39 318 268
-0.0013448066 0.76700002 -0.037654586 8.8363303e-39 319 268
0 0.76700002 -0.037654586 8.8363303e-39 320 268
0.0013570799 0.77399999 -0.037998237 8.8363303e-39 321 268
0.0027141599 0.77399999 -0.037998237 8.6526649e-39 322 268
