# .PCD v.7 - Point Cloud Data file format
FIELDS x y z rgb imX imY
SIZE 4 4 4 4 4 4
TYPE F F F F F F
COUNT 1 1 1 1 1 1
WIDTH 827
HEIGHT 1
VIEWPOINT 0 0 0 1 0 0 0
POINTS 827
DATA ascii
-0.040733438 0.704 -0.019749546 1.3900881e-38 287 256
-0.039442986 0.70300001 -0.019721493 1.3899446e-38 288 256
-0.038047329 0.69999999 -0.019637333 1.3715416e-38 289 256
-0.0367148 0.69800001 -0.019581227 1.371434e-38 290 256
-0.035389278 0.69599998 -0.019525118 1.371434e-38 291 256
-0.034168959 0.69599998 -0.019525118 1.3438116e-38 292 256
-0.032853961 0.69400001 -0.019469013 1.3345922e-38 293 256
-0.031591557 0.69300002 -0.01944096 1.3070774e-38 294 256
-0.030288832 0.69099998 -0.019384852 1.3255521e-38 295 256
-0.029077278 0.69099998 -0.019384852 1.3164044e-38 296 256
-0.027825398 0.69 -0.019356798 1.3164044e-38 297 256
-0.026538454 0.68800002 -0.019300694 1.3256597e-38 298 256
-0.02533216 0.68800002 -0.019300694 1.3256597e-38 299 256
-0.024125867 0.68800002 -0.019300694 1.3348792e-38 300 256
-0.022852944 0.68599999 -0.019244585 1.3348792e-38 301 256
-0.021650158 0.68599999 -0.019244585 1.3532463e-38 302 256
-0.020447372 0.68599999 -0.019244585 1.3716851e-38 303 256
-0.019244585 0.68599999 -0.019244585 1.3258391e-38 304 256
-0.018041799 0.68599999 -0.019244585 1.3442779e-38 305 256
-0.016839013 0.68599999 -0.019244585 1.3442421e-38 306 256
-0.015636226 0.68599999 -0.019244585 1.3442421e-38 307 256
-0.01443344 0.68599999 -0.019244585 1.3167277e-38 308 256
-0.013172794 0.68300003 -0.019160427 1.3167277e-38 309 256
-0.011975267 0.68300003 -0.019160427 1.3259474e-38 310 256
-0.01077774 0.68300003 -0.019160427 1.3167277e-38 311 256
-0.009566186 0.68199998 -0.019132372 1.3074726e-38 312 256
-0.0083704125 0.68199998 -0.019132372 1.298253e-38 313 256
-0.00717464 0.68199998 -0.019132372 1.3072928e-38 314 256
-0.005978866 0.68199998 -0.019132372 1.2980732e-38 315 256
-0.004783093 0.68199998 -0.019132372 1.2612314e-38 316 256
-0.0035925799 0.68300003 -0.019160427 1.2519761e-38 317 256
-0.0023950534 0.68300003 -0.019160427 1.2335014e-38 318 256
-0.00119928 0.68400002 -0.01918848 1.2150984e-38 319 256
0 0.68400002 -0.01918848 1.1966601e-38 320 256
0.00119928 0.68400002 -0.01918848 1.2058798e-38 321 256
0.0024055731 0.68599999 -0.019244585 1.1875133e-38 322 256
0.00360836 0.68599999 -0.019244585 1.1967329e-38 323 256
0.0048111463 0.68599999 -0.019244585 1.2152069e-38 324 256
0.0060139326 0.68599999 -0.019244585 1.2152069e-38 325 256
0.0072272392 0.68699998 -0.019272638 1.2336091e-38 326 256
0.0084317802 0.68699998 -0.019272638 1.2336091e-38 327 256
0.0096363192 0.68699998 -0.019272638 1.2611955e-38 328 256
0.010840859 0.68699998 -0.019272638 1.2611955e-38 329 256
0.012062933 0.68800002 -0.019300694 1.2520125e-38 330 256
0.0133078 0.69 -0.019356798 1.2520125e-38 331 256
0.014517599 0.69 -0.019356798 1.233611e-38 332 256
0.015750192 0.69099998 -0.019384852 1.233611e-38 333 256
0.016961746 0.69099998 -0.019384852 1.2335403e-38 334 256
0.018225901 0.69300002 -0.01944096 1.2243208e-38 335 256
0.01944096 0.69300002 -0.01944096 1.2242855e-38 336 256
0.020685827 0.69400001 -0.019469013 1.1966628e-38 337 256
0.021965759 0.69599998 -0.019525118 1.1966981e-38 338 256
0.023219392 0.69700003 -0.019553173 1.1966981e-38 339 256
0.024546666 0.69999999 -0.019637333 1.1967331e-38 340 256
0.025884461 0.70300001 -0.019721493 1.1967331e-38 341 256
0.027155625 0.704 -0.019749546 1.1875148e-38 342 256
0.028389972 0.704 -0.019749546 1.1137583e-38 343 256
0.029624319 0.704 -0.019749546 1.1694763e-38 344 256
-0.048618179 0.71100003 -0.021192541 1.8255826e-38 281 257
-0.047371563 0.71100003 -0.021192541 1.8343668e-38 282 257
-0.046060063 0.70999998 -0.021162732 1.3918278e-38 283 257
-0.044688959 0.708 -0.021103119 1.3718705e-38 284 257
-0.043386232 0.70700002 -0.021073313 1.3811259e-38 285 257
-0.041967787 0.704 -0.020983893 1.4270032e-38 286 257
-0.040733438 0.704 -0.020983893 1.4085641e-38 287 257
-0.039330769 0.70099998 -0.020894472 1.3900523e-38 288 257
-0.038047329 0.69999999 -0.020864666 1.3716134e-38 289 257
-0.0367148 0.69800001 -0.020805053 1.3623222e-38 290 257
-0.035389278 0.69599998 -0.020745439 1.3531028e-38 291 257
-0.034168959 0.69599998 -0.020745439 1.3346639e-38 292 257
-0.032853961 0.69400001 -0.020685827 1.3346639e-38 293 257
-0.031591557 0.69300002 -0.020656019 1.3162968e-38 294 257
-0.030288832 0.69099998 -0.020596405 1.3255521e-38 295 257
-0.029077278 0.69099998 -0.020596405 1.3163686e-38 296 257
-0.027825398 0.69 -0.020566599 1.3163686e-38 297 257
-0.026538454 0.68800002 -0.020506985 1.3164044e-38 298 257
-0.02533216 0.68800002 -0.020506985 1.3256239e-38 299 257
-0.024125867 0.68800002 -0.020506985 1.3165121e-38 300 257
-0.022886258 0.68699998 -0.020477179 1.3349509e-38 301 257
-0.021650158 0.68599999 -0.020447372 1.3349509e-38 302 257
-0.020447372 0.68599999 -0.020447372 1.3441703e-38 303 257
-0.019244585 0.68599999 -0.020447372 1.3350227e-38 304 257
-0.018041799 0.68599999 -0.020447372 1.3350227e-38 305 257
-0.016839013 0.68599999 -0.020447372 1.3350589e-38 306 257
-0.015636226 0.68599999 -0.020447372 1.3258394e-38 307 257
-0.01443344 0.68599999 -0.020447372 1.3074726e-38 308 257
-0.013172794 0.68300003 -0.020357953 1.316728e-38 309 257
-0.011975267 0.68300003 -0.020357953 1.3167647e-38 310 257
-0.01077774 0.68300003 -0.020357953 1.307545e-38 311 257
-0.009566186 0.68199998 -0.020328145 1.2798867e-38 312 257
-0.0083704125 0.68199998 -0.020328145 1.2798867e-38 313 257
-0.00717464 0.68199998 -0.020328145 1.279742e-38 314 257
-0.005978866 0.68199998 -0.020328145 1.2705226e-38 315 257
-0.004783093 0.68199998 -0.020328145 1.2519761e-38 316 257
-0.0035925799 0.68300003 -0.020357953 1.2335373e-38 317 257
-0.0023950534 0.68300003 -0.020357953 1.2150627e-38 318 257
-0.00119928 0.68400002 -0.020387759 1.2058431e-38 319 257
0 0.68400002 -0.020387759 1.1966601e-38 320 257
0.00119928 0.68400002 -0.020387759 1.1966601e-38 321 257
0.0024055731 0.68599999 -0.020447372 1.1966601e-38 322 257
0.00360836 0.68599999 -0.020447372 1.2150994e-38 323 257
0.0048111463 0.68599999 -0.020447372 1.2152069e-38 324 257
0.0060139326 0.68599999 -0.020447372 1.2152069e-38 325 257
0.0072272392 0.68699998 -0.020477179 1.2244259e-38 326 257
0.0084317802 0.68699998 -0.020477179 1.2244259e-38 327 257
0.0096363192 0.68699998 -0.020477179 1.2336813e-38 328 257
0.010840859 0.68699998 -0.020477179 1.2429009e-38 329 257
0.012062933 0.68800002 -0.020506985 1.2336813e-38 330 257
0.0133078 0.69 -0.020566599 1.2336813e-38 331 257
0.014538639 0.69099998 -0.020596405 1.233646e-38 332 257
0.015750192 0.69099998 -0.020596405 1.233646e-38 333 257
0.016961746 0.69099998 -0.020596405 1.2335038e-38 334 257
0.018225901 0.69300002 -0.020656019 1.2335038e-38 335 257
0.01944096 0.69300002 -0.020656019 1.214994e-38 336 257
0.020685827 0.69400001 -0.020685827 1.214994e-38 337 257
0.021965759 0.69599998 -0.020745439 1.1966978e-38 338 257
0.023219392 0.69700003 -0.020775247 1.2151009e-38 339 257
0.024546666 0.69999999 -0.020864666 1.2243561e-38 340 257
0.025884461 0.70300001 -0.020954086 1.2427952e-38 341 257
0.027117053 0.70300001 -0.020954086 1.2152104e-38 342 257
0.028389972 0.704 -0.020983893 1.1691486e-38 343 257
0.029624319 0.704 -0.020983893 1.2341935e-38 344 257
-0.047304932 0.70999998 -0.022407599 1.8345469e-38 282 258
-0.046060063 0.70999998 -0.022407599 1.392008e-38 283 258
-0.044688959 0.708 -0.022344479 1.371979e-38 284 258
-0.043386232 0.70700002 -0.022312919 1.3903821e-38 285 258
-0.041967787 0.704 -0.022218239 1.4363319e-38 286 258
-0.040675577 0.70300001 -0.02218668 1.4086732e-38 287 258
-0.039330769 0.70099998 -0.022123558 1.3809777e-38 288 258
-0.038047329 0.69999999 -0.022091998 1.3625384e-38 289 258
-0.0367148 0.69800001 -0.02202888 1.3716134e-38 290 258
-0.035389278 0.69599998 -0.021965759 1.3347357e-38 291 258
-0.034168959 0.69599998 -0.021965759 1.3255521e-38 292 258
-0.032853961 0.69400001 -0.021902639 1.3162968e-38 293 258
-0.031591557 0.69300002 -0.021871079 1.3163686e-38 294 258
-0.030244999 0.69 -0.021776399 1.2979656e-38 295 258
-0.029035198 0.69 -0.021776399 1.2980015e-38 296 258
-0.027744746 0.68800002 -0.021713281 1.2980015e-38 297 258
-0.026538454 0.68800002 -0.021713281 1.2980732e-38 298 258
-0.02533216 0.68800002 -0.021713281 1.3072926e-38 299 258
-0.024125867 0.68800002 -0.021713281 1.3256239e-38 300 258
-0.022886258 0.68699998 -0.021681719 1.3348792e-38 301 258
-0.021650158 0.68599999 -0.021650158 1.3165838e-38 302 258
-0.020447372 0.68599999 -0.021650158 1.3258032e-38 303 258
-0.019244585 0.68599999 -0.021650158 1.3257678e-38 304 258
-0.018041799 0.68599999 -0.021650158 1.3349873e-38 305 258
-0.016789921 0.68400002 -0.02158704 1.3257688e-38 306 258
-0.01559064 0.68400002 -0.02158704 1.3350242e-38 307 258
-0.01439136 0.68400002 -0.02158704 1.3074741e-38 308 258
-0.013172794 0.68300003 -0.02155548 1.3167297e-38 309 258
-0.011957732 0.68199998 -0.021523919 1.2707768e-38 310 258
-0.010761959 0.68199998 -0.021523919 1.2707768e-38 311 258
-0.009566186 0.68199998 -0.021523919 1.2798161e-38 312 258
-0.0083704125 0.68199998 -0.021523919 1.2798161e-38 313 258
-0.00717464 0.68199998 -0.021523919 1.2613401e-38 314 258
-0.005978866 0.68199998 -0.021523919 1.2429009e-38 315 258
-0.0047901068 0.68300003 -0.02155548 1.2427211e-38 316 258
-0.0035925799 0.68300003 -0.02155548 1.2335015e-38 317 258
-0.0023950534 0.68300003 -0.02155548 1.1967679e-38 318 258
-0.00119928 0.68400002 -0.02158704 1.1875483e-38 319 258
0 0.68400002 -0.02158704 1.2058801e-38 320 258
0.00119928 0.68400002 -0.02158704 1.2058801e-38 321 258
0.0024055731 0.68599999 -0.021650158 1.2058798e-38 322 258
0.00360836 0.68599999 -0.021650158 1.2150994e-38 323 258
0.0048111463 0.68599999 -0.021650158 1.1968035e-38 324 258
0.0060139326 0.68599999 -0.021650158 1.1968035e-38 325 258
0.0072272392 0.68699998 -0.021681719 1.2152066e-38 326 258
0.0084317802 0.68699998 -0.021681719 1.2152066e-38 327 258
0.0096363192 0.68699998 -0.021681719 1.2244262e-38 328 258
0.010840859 0.68699998 -0.021681719 1.2336457e-38 329 258
0.012062933 0.68800002 -0.021713281 1.2337532e-38 330 258
0.0133078 0.69 -0.021776399 1.2337532e-38 331 258
0.014538639 0.69099998 -0.021807959 1.2153145e-38 332 258
0.015750192 0.69099998 -0.021807959 1.2060949e-38 333 258
0.01701084 0.69300002 -0.021871079 1.215136e-38 334 258
0.018225901 0.69300002 -0.021871079 1.1967329e-38 335 258
0.019469013 0.69400001 -0.021902639 1.2058092e-38 336 258
0.020685827 0.69400001 -0.021902639 1.2058092e-38 337 258
0.021965759 0.69599998 -0.021965759 1.2150646e-38 338 258
0.023252707 0.69800001 -0.02202888 1.2335038e-38 339 258
0.024546666 0.69999999 -0.022091998 1.2336478e-38 340 258
0.025810819 0.70099998 -0.022123558 1.2520871e-38 341 258
0.027117053 0.70300001 -0.02218668 1.2061344e-38 342 258
0.028349647 0.70300001 -0.02218668 1.1692202e-38 343 258
0.029582238 0.70300001 -0.02218668 1.3172412e-38 344 258
-0.047304932 0.70999998 -0.023652466 1.8530578e-38 282 259
-0.046060063 0.70999998 -0.023652466 1.4750915e-38 283 259
-0.044688959 0.708 -0.023585839 1.3905253e-38 284 259
-0.043386232 0.70700002 -0.023552528 1.3720862e-38 285 259
-0.041967787 0.704 -0.023452586 1.4365467e-38 286 259
-0.040675577 0.70300001 -0.023419274 1.3812293e-38 287 259
-0.039330769 0.70099998 -0.023352645 1.3993795e-38 288 259
-0.038047329 0.69999999 -0.023319334 1.3809045e-38 289 259
-0.0367148 0.69800001 -0.023252707 1.3716492e-38 290 259
-0.035389278 0.69599998 -0.023186078 1.3532104e-38 291 259
-0.034168959 0.69599998 -0.023186078 1.3255521e-38 292 259
-0.032853961 0.69400001 -0.023119451 1.3163327e-38 293 259
-0.031591557 0.69300002 -0.02308614 1.3346998e-38 294 259
-0.030244999 0.69 -0.022986198 1.3346998e-38 295 259
-0.029035198 0.69 -0.022986198 1.2980732e-38 296 259
-0.027744746 0.68800002 -0.022919573 1.2888538e-38 297 259
-0.026538454 0.68800002 -0.022919573 1.279742e-38 298 259
-0.02533216 0.68800002 -0.022919573 1.279742e-38 299 259
-0.024125867 0.68800002 -0.022919573 1.2980732e-38 300 259
-0.022886258 0.68699998 -0.022886258 1.2980732e-38 301 259
-0.021650158 0.68599999 -0.022852944 1.2889268e-38 302 259
-0.020447372 0.68599999 -0.022852944 1.2981464e-38 303 259
-0.019244585 0.68599999 -0.022852944 1.2889631e-38 304 259
-0.0179892 0.68400002 -0.022786319 1.3074022e-38 305 259
-0.016789921 0.68400002 -0.022786319 1.3074744e-38 306 259
-0.015567848 0.68300003 -0.022753006 1.3074744e-38 307 259
-0.01434928 0.68199998 -0.022719691 1.2707768e-38 308 259
-0.013153506 0.68199998 -0.022719691 1.2891799e-38 309 259
-0.011957732 0.68199998 -0.022719691 1.2707412e-38 310 259
-0.010761959 0.68199998 -0.022719691 1.2615215e-38 311 259
-0.009566186 0.68199998 -0.022719691 1.2615565e-38 312 259
-0.0083704125 0.68199998 -0.022719691 1.2338978e-38 313 259
-0.00717464 0.68199998 -0.022719691 1.2521204e-38 314 259
-0.005978866 0.68199998 -0.022719691 1.2336813e-38 315 259
-0.004783093 0.68199998 -0.022719691 1.2243899e-38 316 259
-0.0035925799 0.68300003 -0.022753006 1.2059149e-38 317 259
-0.0023950534 0.68300003 -0.022753006 1.2059507e-38 318 259
-0.0011975267 0.68300003 -0.022753006 1.2059507e-38 319 259
0 0.68400002 -0.022786319 1.1875483e-38 320 259
0.00119928 0.68400002 -0.022786319 1.1875483e-38 321 259
0.0024055731 0.68599999 -0.022852944 1.1967682e-38 322 259
0.00360836 0.68599999 -0.022852944 1.1967682e-38 323 259
0.0048111463 0.68599999 -0.022852944 1.2151347e-38 324 259
0.0060139326 0.68599999 -0.022852944 1.2151347e-38 325 259
0.0072272392 0.68699998 -0.022886258 1.2151713e-38 326 259
0.0084317802 0.68699998 -0.022886258 1.2243908e-38 327 259
0.0096363192 0.68699998 -0.022886258 1.2060952e-38 328 259
0.010840859 0.68699998 -0.022886258 1.2153148e-38 329 259
0.012062933 0.68800002 -0.022919573 1.2337532e-38 330 259
0.0133078 0.69 -0.022986198 1.2153142e-38 331 259
0.014538639 0.69099998 -0.023019511 1.2336091e-38 332 259
0.015750192 0.69099998 -0.023019511 1.2243896e-38 333 259
0.01701084 0.69300002 -0.02308614 1.2243543e-38 334 259
0.018225901 0.69300002 -0.02308614 1.2151347e-38 335 259
0.019469013 0.69400001 -0.023119451 1.2150278e-38 336 259
0.020745439 0.69599998 -0.023186078 1.2426505e-38 337 259
0.02199732 0.69700003 -0.023219392 1.2243558e-38 338 259
0.023252707 0.69800001 -0.023252707 1.2427949e-38 339 259
0.024546666 0.69999999 -0.023319334 1.224501e-38 340 259
0.025773998 0.69999999 -0.023319334 1.2613432e-38 341 259
0.027039904 0.70099998 -0.023352645 1.2244657e-38 342 259
0.028268991 0.70099998 -0.023352645 1.150709e-38 343 259
0.029498078 0.70099998 -0.023352645 1.3725583e-38 344 259
-0.04580057 0.70599997 -0.024757065 1.6409377e-38 283 260
-0.044562716 0.70599997 -0.024757065 1.4921945e-38 284 260
-0.043324865 0.70599997 -0.024757065 1.3446815e-38 285 260
-0.041788943 0.70099998 -0.024581732 1.4731398e-38 286 260
-0.040559858 0.70099998 -0.024581732 1.4639203e-38 287 260
-0.039330769 0.70099998 -0.024581732 1.3994902e-38 288 260
-0.038047329 0.69999999 -0.024546666 1.362648e-38 289 260
-0.0367148 0.69800001 -0.024476532 1.3442072e-38 290 260
-0.035389278 0.69599998 -0.0244064 1.3165126e-38 291 260
-0.034168959 0.69599998 -0.0244064 1.3165121e-38 292 260
-0.032853961 0.69400001 -0.024336265 1.2888179e-38 293 260
-0.031591557 0.69300002 -0.024301201 1.3164044e-38 294 260
-0.030288832 0.69099998 -0.024231065 1.2980015e-38 295 260
-0.029077278 0.69099998 -0.024231065 1.288782e-38 296 260
-0.027825398 0.69 -0.024195999 1.3164403e-38 297 260
-0.026538454 0.68800002 -0.024125867 1.2980015e-38 298 260
-0.02533216 0.68800002 -0.024125867 1.2980015e-38 299 260
-0.024125867 0.68800002 -0.024125867 1.2980373e-38 300 260
-0.022886258 0.68699998 -0.024090799 1.2888179e-38 301 260
-0.021681719 0.68699998 -0.024090799 1.2795993e-38 302 260
-0.020447372 0.68599999 -0.024055731 1.2980385e-38 303 260
-0.019244585 0.68599999 -0.024055731 1.2888915e-38 304 260
-0.0179892 0.68400002 -0.0239856 1.3165142e-38 305 260
-0.016789921 0.68400002 -0.0239856 1.2890362e-38 306 260
-0.015567848 0.68300003 -0.023950534 1.3166591e-38 307 260
-0.01434928 0.68199998 -0.023915464 1.2707783e-38 308 260
-0.013153506 0.68199998 -0.023915464 1.2799979e-38 309 260
-0.011957732 0.68199998 -0.023915464 1.2524468e-38 310 260
-0.010761959 0.68199998 -0.023915464 1.2524468e-38 311 260
-0.009566186 0.68199998 -0.023915464 1.2523741e-38 312 260
-0.0083704125 0.68199998 -0.023915464 1.2431545e-38 313 260
-0.00717464 0.68199998 -0.023915464 1.2429026e-38 314 260
-0.005978866 0.68199998 -0.023915464 1.2152797e-38 315 260
-0.004783093 0.68199998 -0.023915464 1.215135e-38 316 260
-0.00358732 0.68199998 -0.023915464 1.215135e-38 317 260
-0.0023915465 0.68199998 -0.023915464 1.2059507e-38 318 260
-0.0011957732 0.68199998 -0.023915464 1.2059507e-38 319 260
0 0.68400002 -0.0239856 1.1875836e-38 320 260
0.00119928 0.68400002 -0.0239856 1.1875836e-38 321 260
0.0024055731 0.68599999 -0.024055731 1.1875836e-38 322 260
0.00360836 0.68599999 -0.024055731 1.1875836e-38 323 260
0.0048111463 0.68599999 -0.024055731 1.215206e-38 324 260
0.0060139326 0.68599999 -0.024055731 1.215206e-38 325 260
0.0072272392 0.68699998 -0.024090799 1.2244972e-38 326 260
0.0084317802 0.68699998 -0.024090799 1.2244972e-38 327 260
0.0096363192 0.68699998 -0.024090799 1.2153142e-38 328 260
0.010840859 0.68699998 -0.024090799 1.2153142e-38 329 260
0.012062933 0.68800002 -0.024125867 1.2336813e-38 330 260
0.013269227 0.68800002 -0.024125867 1.2244259e-38 331 260
0.014538639 0.69099998 -0.024231065 1.2336091e-38 332 260
0.015750192 0.69099998 -0.024231065 1.2151702e-38 333 260
0.01701084 0.69300002 -0.024301201 1.2335014e-38 334 260
0.0182522 0.69400001 -0.024336265 1.2150984e-38 335 260
0.019469013 0.69400001 -0.024336265 1.2335015e-38 336 260
0.020745439 0.69599998 -0.0244064 1.2427211e-38 337 260
0.02199732 0.69700003 -0.024441468 1.2152797e-38 338 260
0.023252707 0.69800001 -0.024476532 1.2336828e-38 339 260
0.024476532 0.69800001 -0.024476532 1.2337924e-38 340 260
0.025773998 0.69999999 -0.024546666 1.243012e-38 341 260
0.027039904 0.70099998 -0.024581732 1.2061344e-38 342 260
0.028268991 0.70099998 -0.024581732 1.1415975e-38 343 260
0.029498078 0.70099998 -0.024581732 1.4464225e-38 344 260
-0.043324865 0.70599997 -0.025994917 1.3080922e-38 285 261
-0.041788943 0.70099998 -0.025810819 1.4549159e-38 286 261
-0.040502001 0.69999999 -0.025773998 1.4272212e-38 287 261
-0.039274666 0.69999999 -0.025773998 1.4087441e-38 288 261
-0.038047329 0.69999999 -0.025773998 1.3902691e-38 289 261
-0.0367148 0.69800001 -0.025700359 1.3809045e-38 290 261
-0.035440128 0.69700003 -0.025663542 1.3532821e-38 291 261
-0.034168959 0.69599998 -0.025626717 1.3348792e-38 292 261
-0.032853961 0.69400001 -0.025553079 1.3164044e-38 293 261
-0.031591557 0.69300002 -0.02551626 1.3346998e-38 294 261
-0.0303765 0.69300002 -0.02551626 1.3346998e-38 295 261
-0.029077278 0.69099998 -0.025442619 1.288782e-38 296 261
-0.027865725 0.69099998 -0.025442619 1.2980015e-38 297 261
-0.026538454 0.68800002 -0.02533216 1.2979656e-38 298 261
-0.02533216 0.68800002 -0.02533216 1.2979656e-38 299 261
-0.024125867 0.68800002 -0.02533216 1.2979297e-38 300 261
-0.022886258 0.68699998 -0.025295338 1.2979297e-38 301 261
-0.021650158 0.68599999 -0.025258519 1.2979308e-38 302 261
-0.020447372 0.68599999 -0.025258519 1.3071505e-38 303 261
-0.019244585 0.68599999 -0.025258519 1.2797082e-38 304 261
-0.018041799 0.68599999 -0.025258519 1.2981473e-38 305 261
-0.016789921 0.68400002 -0.025184879 1.261522e-38 306 261
-0.015567848 0.68300003 -0.02514806 1.2891448e-38 307 261
-0.01434928 0.68199998 -0.025111238 1.2524115e-38 308 261
-0.013153506 0.68199998 -0.025111238 1.2524115e-38 309 261
-0.011975267 0.68300003 -0.02514806 1.2524468e-38 310 261
-0.010761959 0.68199998 -0.025111238 1.2432272e-38 311 261
-0.009566186 0.68199998 -0.025111238 1.2615215e-38 312 261
-0.0083704125 0.68199998 -0.025111238 1.2338628e-38 313 261
-0.00717464 0.68199998 -0.025111238 1.2429023e-38 314 261
-0.005978866 0.68199998 -0.025111238 1.2060599e-38 315 261
-0.004783093 0.68199998 -0.025111238 1.2152419e-38 316 261
-0.00358732 0.68199998 -0.025111238 1.1968389e-38 317 261
-0.0023915465 0.68199998 -0.025111238 1.1969107e-38 318 261
-0.0011957732 0.68199998 -0.025111238 1.1876554e-38 319 261
0 0.68400002 -0.025184879 1.1876554e-38 320 261
0.0012027866 0.68599999 -0.025258519 1.1876554e-38 321 261
0.0024055731 0.68599999 -0.025258519 1.1967313e-38 322 261
0.00360836 0.68599999 -0.025258519 1.2059507e-38 323 261
0.0048111463 0.68599999 -0.025258519 1.215206e-38 324 261
0.0060139326 0.68599999 -0.025258519 1.215206e-38 325 261
0.0072272392 0.68699998 -0.025295338 1.1969107e-38 326 261
0.0084317802 0.68699998 -0.025295338 1.2061301e-38 327 261
0.0096363192 0.68699998 -0.025295338 1.2244259e-38 328 261
0.010840859 0.68699998 -0.025295338 1.2244259e-38 329 261
0.012062933 0.68800002 -0.02533216 1.2335738e-38 330 261
0.013269227 0.68800002 -0.02533216 1.2335738e-38 331 261
0.014538639 0.69099998 -0.025442619 1.2427211e-38 332 261
0.015750192 0.69099998 -0.025442619 1.2335015e-38 333 261
0.01701084 0.69300002 -0.02551626 1.2335014e-38 334 261
0.0182522 0.69400001 -0.025553079 1.2150984e-38 335 261
0.019525118 0.69599998 -0.025626717 1.2151344e-38 336 261
0.020745439 0.69599998 -0.025626717 1.2243899e-38 337 261
0.02199732 0.69700003 -0.025663542 1.2335756e-38 338 261
0.023252707 0.69800001 -0.025700359 1.2612345e-38 339 261
0.024476532 0.69800001 -0.025700359 1.2430123e-38 340 261
0.025773998 0.69999999 -0.025773998 1.2614514e-38 341 261
0.027039904 0.70099998 -0.025810819 1.2246457e-38 342 261
0.028268991 0.70099998 -0.025810819 1.1877315e-38 343 261
0.029498078 0.70099998 -0.025810819 1.5018845e-38 344 261
-0.042956665 0.69999999 -0.027001332 1.3268197e-38 285 262
-0.041729331 0.69999999 -0.027001332 1.4364778e-38 286 262
-0.040502001 0.69999999 -0.027001332 1.4364778e-38 287 262
-0.039274666 0.69999999 -0.027001332 1.4089253e-38 288 262
-0.038047329 0.69999999 -0.027001332 1.3536079e-38 289 262
-0.0367148 0.69800001 -0.026924185 1.3717581e-38 290 262
-0.035440128 0.69700003 -0.026885614 1.3440634e-38 291 262
-0.034168959 0.69599998 -0.026847038 1.3441345e-38 292 262
-0.032853961 0.69400001 -0.026769891 1.3072568e-38 293 262
-0.031591557 0.69300002 -0.02673132 1.3164044e-38 294 262
-0.0303765 0.69300002 -0.02673132 1.2980015e-38 295 262
-0.029161438 0.69300002 -0.02673132 1.288782e-38 296 262
-0.027946379 0.69300002 -0.02673132 1.288782e-38 297 262
-0.026615599 0.69 -0.026615599 1.3070774e-38 298 262
-0.025405798 0.69 -0.026615599 1.3070774e-38 299 262
-0.024125867 0.68800002 -0.026538454 1.2887103e-38 300 262
-0.022886258 0.68699998 -0.026499879 1.2887103e-38 301 262
-0.021650158 0.68599999 -0.026461305 1.2796702e-38 302 262
-0.020447372 0.68599999 -0.026461305 1.2980735e-38 303 262
-0.019244585 0.68599999 -0.026461305 1.2797067e-38 304 262
-0.018041799 0.68599999 -0.026461305 1.2981458e-38 305 262
-0.016789921 0.68400002 -0.02638416 1.2706331e-38 306 262
-0.01559064 0.68400002 -0.02638416 1.2891083e-38 307 262
-0.01439136 0.68400002 -0.02638416 1.2615231e-38 308 262
-0.01319208 0.68400002 -0.02638416 1.2707427e-38 309 262
-0.012027865 0.68599999 -0.026461305 1.2615231e-38 310 262
-0.010761959 0.68199998 -0.026307013 1.2523034e-38 311 262
-0.009566186 0.68199998 -0.026307013 1.2522671e-38 312 262
-0.0083704125 0.68199998 -0.026307013 1.2337922e-38 313 262
-0.00717464 0.68199998 -0.026307013 1.2427949e-38 314 262
-0.005978866 0.68199998 -0.026307013 1.2335754e-38 315 262
-0.0047901068 0.68300003 -0.026345588 1.2244259e-38 316 262
-0.0035925799 0.68300003 -0.026345588 1.2244259e-38 317 262
-0.0023950534 0.68300003 -0.026345588 1.1970183e-38 318 262
-0.0011975267 0.68300003 -0.026345588 1.1786153e-38 319 262
0 0.68400002 -0.02638416 1.1969107e-38 320 262
0.0012027866 0.68599999 -0.026461305 1.1784718e-38 321 262
0.0024055731 0.68599999 -0.026461305 1.1967313e-38 322 262
0.00360836 0.68599999 -0.026461305 1.2059507e-38 323 262
0.0048111463 0.68599999 -0.026461305 1.2151702e-38 324 262
0.0060139326 0.68599999 -0.026461305 1.2151702e-38 325 262
0.0072272392 0.68699998 -0.026499879 1.1968748e-38 326 262
0.0084317802 0.68699998 -0.026499879 1.1968748e-38 327 262
0.0096363192 0.68699998 -0.026499879 1.2335014e-38 328 262
0.010840859 0.68699998 -0.026499879 1.2335014e-38 329 262
0.012045399 0.68699998 -0.026499879 1.2335014e-38 330 262
0.013269227 0.68800002 -0.026538454 1.2335014e-38 331 262
0.014538639 0.69099998 -0.026654173 1.2426849e-38 332 262
0.015795778 0.69300002 -0.02673132 1.2426849e-38 333 262
0.01701084 0.69300002 -0.02673132 1.2335014e-38 334 262
0.0182522 0.69400001 -0.026769891 1.2335014e-38 335 262
0.019525118 0.69599998 -0.026847038 1.215135e-38 336 262
0.020745439 0.69599998 -0.026847038 1.2335741e-38 337 262
0.02199732 0.69700003 -0.026885614 1.2427952e-38 338 262
0.023252707 0.69800001 -0.026924185 1.2796735e-38 339 262
0.024546666 0.69999999 -0.027001332 1.2614511e-38 340 262
0.025810819 0.70099998 -0.027039904 1.2707067e-38 341 262
0.027039904 0.70099998 -0.027039904 1.2431937e-38 342 262
0.028268991 0.70099998 -0.027039904 1.2800721e-38 343 262
0.029498078 0.70099998 -0.027039904 1.6034812e-38 344 262
-0.041788943 0.70099998 -0.028268991 1.4273311e-38 286 263
-0.040559858 0.70099998 -0.028268991 1.4365506e-38 287 263
-0.039330769 0.70099998 -0.028268991 1.4365483e-38 288 263
-0.038047329 0.69999999 -0.028228667 1.3720113e-38 289 263
-0.0367148 0.69800001 -0.028148014 1.3993089e-38 290 263
-0.035440128 0.69700003 -0.028107686 1.3624665e-38 291 263
-0.034168959 0.69599998 -0.028067358 1.3441345e-38 292 263
-0.032853961 0.69400001 -0.027986705 1.3165121e-38 293 263
-0.031591557 0.69300002 -0.027946379 1.3164044e-38 294 263
-0.0303765 0.69300002 -0.027946379 1.2980015e-38 295 263
-0.029161438 0.69300002 -0.027946379 1.2980015e-38 296 263
-0.027946379 0.69300002 -0.027946379 1.288782e-38 297 263
-0.026654173 0.69099998 -0.027865725 1.2887103e-38 298 263
-0.025442619 0.69099998 -0.027865725 1.2887103e-38 299 263
-0.024231065 0.69099998 -0.027865725 1.288782e-38 300 263
-0.022919573 0.68800002 -0.027744746 1.288782e-38 301 263
-0.021681719 0.68699998 -0.027704418 1.2704508e-38 302 263
-0.020477179 0.68699998 -0.027704418 1.2796702e-38 303 263
-0.019272638 0.68699998 -0.027704418 1.2704867e-38 304 263
-0.018041799 0.68599999 -0.027664091 1.2889618e-38 305 263
-0.016839013 0.68599999 -0.027664091 1.2613417e-38 306 263
-0.01559064 0.68400002 -0.027583439 1.2798167e-38 307 263
-0.01439136 0.68400002 -0.027583439 1.2522316e-38 308 263
-0.01319208 0.68400002 -0.027583439 1.2614511e-38 309 263
-0.012027865 0.68599999 -0.027664091 1.2522316e-38 310 263
-0.01079352 0.68400002 -0.027583439 1.243012e-38 311 263
-0.0095942402 0.68400002 -0.027583439 1.2429751e-38 312 263
-0.0083949603 0.68400002 -0.027583439 1.224536e-38 313 263
-0.0071851597 0.68300003 -0.027543113 1.2428302e-38 314 263
-0.0059876335 0.68300003 -0.027543113 1.2243911e-38 315 263
-0.0047971201 0.68400002 -0.027583439 1.2152063e-38 316 263
-0.00359784 0.68400002 -0.027583439 1.2152063e-38 317 263
-0.0023985601 0.68400002 -0.027583439 1.1969107e-38 318 263
-0.00119928 0.68400002 -0.027583439 1.1784718e-38 319 263
0 0.68400002 -0.027583439 1.2059866e-38 320 263
0.0012027866 0.68599999 -0.027664091 1.1875478e-38 321 263
0.0024055731 0.68599999 -0.027664091 1.2150625e-38 322 263
0.00360836 0.68599999 -0.027664091 1.2150625e-38 323 263
0.0048111463 0.68599999 -0.027664091 1.2059507e-38 324 263
0.0060139326 0.68599999 -0.027664091 1.2059507e-38 325 263
0.0072272392 0.68699998 -0.027704418 1.2059149e-38 326 263
0.0084317802 0.68699998 -0.027704418 1.2059149e-38 327 263
0.0096363192 0.68699998 -0.027704418 1.2151343e-38 328 263
0.010840859 0.68699998 -0.027704418 1.205879e-38 329 263
0.012045399 0.68699998 -0.027704418 1.2242102e-38 330 263
0.013269227 0.68800002 -0.027744746 1.2334296e-38 331 263
0.014538639 0.69099998 -0.027865725 1.2517967e-38 332 263
0.015795778 0.69300002 -0.027946379 1.2610162e-38 333 263
0.01701084 0.69300002 -0.027946379 1.2427211e-38 334 263
0.0182522 0.69400001 -0.027986705 1.2427211e-38 335 263
0.019525118 0.69599998 -0.028067358 1.2243195e-38 336 263
0.020745439 0.69599998 -0.028067358 1.2519422e-38 337 263
0.02199732 0.69700003 -0.028107686 1.2428672e-38 338 263
0.023252707 0.69800001 -0.028148014 1.2705618e-38 339 263
0.024546666 0.69999999 -0.028228667 1.2890379e-38 340 263
0.025810819 0.70099998 -0.028268991 1.2705628e-38 341 263
0.027039904 0.70099998 -0.028268991 1.2708894e-38 342 263
0.028268991 0.70099998 -0.028268991 1.4552805e-38 343 263
-0.040502001 0.69999999 -0.029455997 1.4182931e-38 287 264
-0.038047329 0.69999999 -0.029455997 1.381231e-38 289 264
-0.0367148 0.69800001 -0.029371841 1.3993439e-38 290 264
-0.035440128 0.69700003 -0.02932976 1.3625016e-38 291 264
-0.034168959 0.69599998 -0.029287677 1.3440986e-38 292 264
-0.032853961 0.69400001 -0.029203519 1.3348792e-38 293 264
-0.031591557 0.69300002 -0.029161438 1.3256597e-38 294 264
-0.0303765 0.69300002 -0.029161438 1.3164403e-38 295 264
-0.029161438 0.69300002 -0.029161438 1.2980015e-38 296 264
-0.027946379 0.69300002 -0.029161438 1.2980015e-38 297 264
-0.026654173 0.69099998 -0.029077278 1.288782e-38 298 264
-0.025442619 0.69099998 -0.029077278 1.2795626e-38 299 264
-0.024231065 0.69099998 -0.029077278 1.2795267e-38 300 264
-0.022919573 0.68800002 -0.028951041 1.288782e-38 301 264
-0.021713281 0.68800002 -0.028951041 1.2612673e-38 302 264
-0.020477179 0.68699998 -0.028908957 1.2704867e-38 303 264
-0.019272638 0.68699998 -0.028908957 1.2521202e-38 304 264
-0.018068098 0.68699998 -0.028908957 1.2613757e-38 305 264
-0.016839013 0.68599999 -0.02886688 1.2521224e-38 306 264
-0.015636226 0.68599999 -0.02886688 1.261342e-38 307 264
-0.01443344 0.68599999 -0.02886688 1.2429401e-38 308 264
-0.013230653 0.68599999 -0.02886688 1.2613432e-38 309 264
-0.012027865 0.68599999 -0.02886688 1.2337922e-38 310 264
-0.010825079 0.68599999 -0.02886688 1.2337922e-38 311 264
-0.0095942402 0.68400002 -0.02878272 1.242867e-38 312 264
-0.0083949603 0.68400002 -0.02878272 1.2336473e-38 313 264
-0.0071956799 0.68400002 -0.02878272 1.2519775e-38 314 264
-0.0059964 0.68400002 -0.02878272 1.224319e-38 315 264
-0.0047971201 0.68400002 -0.02878272 1.2152066e-38 316 264
-0.00359784 0.68400002 -0.02878272 1.2152066e-38 317 264
-0.0023985601 0.68400002 -0.02878272 1.1968032e-38 318 264
-0.00119928 0.68400002 -0.02878272 1.1875836e-38 319 264
0 0.68400002 -0.02878272 1.2059149e-38 320 264
0.0012027866 0.68599999 -0.02886688 1.1966954e-38 321 264
0.0024055731 0.68599999 -0.02886688 1.2242102e-38 322 264
0.00360836 0.68599999 -0.02886688 1.2426132e-38 323 264
0.0048111463 0.68599999 -0.02886688 1.2242461e-38 324 264
0.0060139326 0.68599999 -0.02886688 1.2242461e-38 325 264
0.0072272392 0.68699998 -0.028908957 1.2059149e-38 326 264
0.0084317802 0.68699998 -0.028908957 1.1966954e-38 327 264
0.0096363192 0.68699998 -0.028908957 1.2150267e-38 328 264
0.010840859 0.68699998 -0.028908957 1.2150267e-38 329 264
0.012045399 0.68699998 -0.028908957 1.2426132e-38 330 264
0.013269227 0.68800002 -0.028951041 1.2518326e-38 331 264
0.014580719 0.69300002 -0.029161438 1.2426849e-38 332 264
0.015795778 0.69300002 -0.029161438 1.2519044e-38 333 264
0.017035386 0.69400001 -0.029203519 1.2702368e-38 334 264
0.018304799 0.69599998 -0.029287677 1.2702368e-38 335 264
0.019525118 0.69599998 -0.029287677 1.2519425e-38 336 264
0.020745439 0.69599998 -0.029287677 1.261162e-38 337 264
0.02199732 0.69700003 -0.02932976 1.2613064e-38 338 264
0.023252707 0.69800001 -0.029371841 1.2797814e-38 339 264
0.024546666 0.69999999 -0.029455997 1.2707067e-38 340 264
0.025810819 0.70099998 -0.029498078 1.2337924e-38 341 264
0.027039904 0.70099998 -0.029498078 1.2895103e-38 342 264
0.028349647 0.70300001 -0.029582238 1.6306341e-38 343 264
-0.038047329 0.69999999 -0.030683333 1.3904509e-38 289 265
-0.0367148 0.69800001 -0.030595668 1.4086713e-38 290 265
-0.035440128 0.69700003 -0.030551834 1.3625734e-38 291 265
-0.034168959 0.69599998 -0.030507999 1.3533539e-38 292 265
-0.032853961 0.69400001 -0.030420333 1.334915e-38 293 265
-0.031637147 0.69400001 -0.030420333 1.3165121e-38 294 265
-0.0303765 0.69300002 -0.0303765 1.3072926e-38 295 265
-0.029161438 0.69300002 -0.0303765 1.2980732e-38 296 265
-0.027946379 0.69300002 -0.0303765 1.2888538e-38 297 265
-0.02673132 0.69300002 -0.0303765 1.288782e-38 298 265
-0.02551626 0.69300002 -0.0303765 1.2795626e-38 299 265
-0.024231065 0.69099998 -0.030288832 1.2704154e-38 300 265
-0.022919573 0.68800002 -0.030157333 1.2704154e-38 301 265
-0.021713281 0.68800002 -0.030157333 1.2704873e-38 302 265
-0.020506985 0.68800002 -0.030157333 1.2704873e-38 303 265
-0.019272638 0.68699998 -0.030113498 1.2612318e-38 304 265
-0.018068098 0.68699998 -0.030113498 1.2704873e-38 305 265
-0.01686356 0.68699998 -0.030113498 1.2520851e-38 306 265
-0.015636226 0.68599999 -0.030069664 1.2613048e-38 307 265
-0.01443344 0.68599999 -0.030069664 1.2613051e-38 308 265
-0.013230653 0.68599999 -0.030069664 1.2613051e-38 309 265
-0.012027865 0.68599999 -0.030069664 1.2521218e-38 310 265
-0.010825079 0.68599999 -0.030069664 1.2429023e-38 311 265
-0.0096222926 0.68599999 -0.030069664 1.2336107e-38 312 265
-0.0083949603 0.68400002 -0.029982001 1.2428302e-38 313 265
-0.0071956799 0.68400002 -0.029982001 1.2243543e-38 314 265
-0.0059964 0.68400002 -0.029982001 1.2335738e-38 315 265
-0.0047971201 0.68400002 -0.029982001 1.2243896e-38 316 265
-0.00359784 0.68400002 -0.029982001 1.2151702e-38 317 265
-0.0023985601 0.68400002 -0.029982001 1.1968389e-38 318 265
-0.00119928 0.68400002 -0.029982001 1.1875836e-38 319 265
0 0.68400002 -0.029982001 1.2151343e-38 320 265
0.0012027866 0.68599999 -0.030069664 1.2059149e-38 321 265
0.0024055731 0.68599999 -0.030069664 1.2059507e-38 322 265
0.00360836 0.68599999 -0.030069664 1.2059507e-38 323 265
0.0048111463 0.68599999 -0.030069664 1.2151343e-38 324 265
0.0060139326 0.68599999 -0.030069664 1.2151343e-38 325 265
0.0072272392 0.68699998 -0.030113498 1.2059149e-38 326 265
0.0084440531 0.68800002 -0.030157333 1.2059149e-38 327 265
0.0096503468 0.68800002 -0.030157333 1.2425414e-38 328 265
0.010840859 0.68699998 -0.030113498 1.2425414e-38 329 265
0.012045399 0.68699998 -0.030113498 1.2335014e-38 330 265
0.0133078 0.69 -0.030244999 1.2335014e-38 331 265
0.014580719 0.69300002 -0.0303765 1.2334655e-38 332 265
0.015818574 0.69400001 -0.030420333 1.2519044e-38 333 265
0.017035386 0.69400001 -0.030420333 1.2517981e-38 334 265
0.018304799 0.69599998 -0.030507999 1.2794567e-38 335 265
0.019553173 0.69700003 -0.030551834 1.2611264e-38 336 265
0.020775247 0.69700003 -0.030551834 1.2796016e-38 337 265
0.02202888 0.69800001 -0.030595668 1.2705618e-38 338 265
0.023319334 0.69999999 -0.030683333 1.2890009e-38 339 265
0.024651866 0.70300001 -0.030814834 1.2799628e-38 340 265
0.025884461 0.70300001 -0.030814834 1.2062063e-38 341 265
0.027117053 0.70300001 -0.030814834 1.3634834e-38 342 265
0.028349647 0.70300001 -0.030814834 1.732266e-38 343 265
-0.038264744 0.704 -0.032093015 1.3998153e-38 289 266
-0.036819998 0.69999999 -0.031910665 1.4271471e-38 290 266
-0.035592664 0.69999999 -0.031910665 1.3810493e-38 291 266
-0.034218054 0.69700003 -0.03177391 1.362645e-38 292 266
-0.032948639 0.69599998 -0.031728316 1.3442062e-38 293 266
-0.031637147 0.69400001 -0.031637147 1.3166197e-38 294 266
-0.030420333 0.69400001 -0.031637147 1.3074003e-38 295 266
-0.029161438 0.69300002 -0.031591557 1.3073285e-38 296 266
-0.027946379 0.69300002 -0.031591557 1.2980732e-38 297 266
-0.02673132 0.69300002 -0.031591557 1.2888179e-38 298 266
-0.02551626 0.69300002 -0.031591557 1.2888179e-38 299 266
-0.024231065 0.69099998 -0.031500384 1.2704508e-38 300 266
-0.022986198 0.69 -0.031454802 1.2704508e-38 301 266
-0.021713281 0.68800002 -0.031363625 1.2796702e-38 302 266
-0.020506985 0.68800002 -0.031363625 1.2796702e-38 303 266
-0.019300694 0.68800002 -0.031363625 1.2612318e-38 304 266
-0.018068098 0.68699998 -0.031318039 1.2612318e-38 305 266
-0.01686356 0.68699998 -0.031318039 1.2612321e-38 306 266
-0.015636226 0.68599999 -0.031272452 1.2704517e-38 307 266
-0.01443344 0.68599999 -0.031272452 1.2428653e-38 308 266
-0.013230653 0.68599999 -0.031272452 1.2521207e-38 309 266
-0.012027865 0.68599999 -0.031272452 1.2429372e-38 310 266
-0.010825079 0.68599999 -0.031272452 1.2337176e-38 311 266
-0.0096222926 0.68599999 -0.031272452 1.2429006e-38 312 266
-0.0084195063 0.68599999 -0.031272452 1.2244615e-38 313 266
-0.0072167199 0.68599999 -0.031272452 1.2427567e-38 314 266
-0.0060139326 0.68599999 -0.031272452 1.2427567e-38 315 266
-0.0048111463 0.68599999 -0.031272452 1.2427926e-38 316 266
-0.00360836 0.68599999 -0.031272452 1.2335373e-38 317 266
-0.0024055731 0.68599999 -0.031272452 1.2335373e-38 318 266
-0.0012027866 0.68599999 -0.031272452 1.2335373e-38 319 266
0 0.68599999 -0.031272452 1.2335731e-38 320 266
0.0012027866 0.68599999 -0.031272452 1.2151702e-38 321 266
0.0024090798 0.68699998 -0.031318039 1.2335014e-38 322 266
0.00360836 0.68599999 -0.031272452 1.2335014e-38 323 266
0.0048111463 0.68599999 -0.031272452 1.2334655e-38 324 266
0.0060226996 0.68699998 -0.031318039 1.2426849e-38 325 266
0.0072272392 0.68699998 -0.031318039 1.2335373e-38 326 266
0.0084440531 0.68800002 -0.031363625 1.2335373e-38 327 266
0.0096503468 0.68800002 -0.031363625 1.2335014e-38 328 266
0.010888199 0.69 -0.031454802 1.2335014e-38 329 266
0.012097999 0.69 -0.031454802 1.2519761e-38 330 266
0.013327086 0.69099998 -0.031500384 1.2519761e-38 331 266
0.014580719 0.69300002 -0.031591557 1.2519402e-38 332 266
0.015818574 0.69400001 -0.031637147 1.2519402e-38 333 266
0.017084479 0.69599998 -0.031728316 1.2611249e-38 334 266
0.018331099 0.69700003 -0.03177391 1.2703445e-38 335 266
0.019553173 0.69700003 -0.03177391 1.2703817e-38 336 266
0.020775247 0.69700003 -0.03177391 1.2888209e-38 337 266
0.02202888 0.69800001 -0.031819493 1.2705631e-38 338 266
0.023419274 0.70300001 -0.032047424 1.2982219e-38 339 266
0.024651866 0.70300001 -0.032047424 1.2707448e-38 340 266
0.02592128 0.704 -0.032093015 1.3076232e-38 341 266
0.027117053 0.70300001 -0.032047424 1.4833027e-38 342 266
0.028349647 0.70300001 -0.032047424 1.7967679e-38 343 266
-0.038264744 0.704 -0.03332736 1.4091434e-38 289 267
-0.036977798 0.70300001 -0.033280019 1.3998855e-38 290 267
-0.035643511 0.70099998 -0.03318534 1.3537518e-38 291 267
-0.034267146 0.69800001 -0.033043321 1.3352389e-38 292 267
-0.03299598 0.69700003 -0.03299598 1.2891769e-38 293 267
-0.031728316 0.69599998 -0.032948639 1.2983243e-38 294 267
-0.030420333 0.69400001 -0.032853961 1.2798496e-38 295 267
-0.029203519 0.69400001 -0.032853961 1.3073644e-38 296 267
-0.027986705 0.69400001 -0.032853961 1.2797061e-38 297 267
-0.02673132 0.69300002 -0.03280662 1.2797061e-38 298 267
-0.02551626 0.69300002 -0.03280662 1.2797061e-38 299 267
-0.024301201 0.69300002 -0.03280662 1.2796702e-38 300 267
-0.022986198 0.69 -0.032664597 1.2796702e-38 301 267
-0.021776399 0.69 -0.032664597 1.2705226e-38 302 267
-0.020566599 0.69 -0.032664597 1.2705226e-38 303 267
-0.019300694 0.68800002 -0.032569919 1.2613031e-38 304 267
-0.018068098 0.68699998 -0.032522578 1.2613031e-38 305 267
-0.01686356 0.68699998 -0.032522578 1.2429719e-38 306 267
-0.015659019 0.68699998 -0.032522578 1.2429719e-38 307 267
-0.01443344 0.68599999 -0.032475237 1.2429719e-38 308 267
-0.013230653 0.68599999 -0.032475237 1.2429719e-38 309 267
-0.012027865 0.68599999 -0.032475237 1.242936e-38 310 267
-0.010825079 0.68599999 -0.032475237 1.242936e-38 311 267
-0.0096222926 0.68599999 -0.032475237 1.2520478e-38 312 267
-0.0084195063 0.68599999 -0.032475237 1.2336449e-38 313 267
-0.0072167199 0.68599999 -0.032475237 1.2244255e-38 314 267
-0.0060139326 0.68599999 -0.032475237 1.2336807e-38 315 267
-0.0048111463 0.68599999 -0.032475237 1.2427567e-38 316 267
-0.00360836 0.68599999 -0.032475237 1.2519761e-38 317 267
-0.0024055731 0.68599999 -0.032475237 1.2244972e-38 318 267
-0.0012027866 0.68599999 -0.032475237 1.2244972e-38 319 267
0 0.68599999 -0.032475237 1.2154213e-38 320 267
0.0012045399 0.68699998 -0.032522578 1.1969465e-38 321 267
0.0024090798 0.68699998 -0.032522578 1.2244972e-38 322 267
0.0036136196 0.68699998 -0.032522578 1.2244972e-38 323 267
0.0048181596 0.68699998 -0.032522578 1.2244255e-38 324 267
0.0060226996 0.68699998 -0.032522578 1.2336807e-38 325 267
0.0072272392 0.68699998 -0.032522578 1.2244613e-38 326 267
0.0084686 0.69 -0.032664597 1.2152419e-38 327 267
0.0096783992 0.69 -0.032664597 1.2427926e-38 328 267
0.010888199 0.69 -0.032664597 1.2427926e-38 329 267
0.012115533 0.69099998 -0.032711938 1.252012e-38 330 267
0.013327086 0.69099998 -0.032711938 1.2427926e-38 331 267
0.01460176 0.69400001 -0.032853961 1.2427567e-38 332 267
0.015864158 0.69599998 -0.032948639 1.2519761e-38 333 267
0.017109027 0.69700003 -0.03299598 1.2702366e-38 334 267
0.018331099 0.69700003 -0.03299598 1.2887116e-38 335 267
0.019581227 0.69800001 -0.033043321 1.261162e-38 336 267
0.020805053 0.69800001 -0.033043321 1.2796013e-38 337 267
0.022091998 0.69999999 -0.033137999 1.2890376e-38 338 267
0.023419274 0.70300001 -0.033280019 1.2705984e-38 339 267
0.024651866 0.70300001 -0.033280019 1.2890767e-38 340 267
0.02592128 0.704 -0.03332736 1.6025419e-38 341 267
0.027117053 0.70300001 -0.033280019 1.5391979e-38 342 267
0.028349647 0.70300001 -0.033280019 1.6314295e-38 343 267
-0.038373452 0.70599997 -0.034659892 1.3999613e-38 289 268
-0.037030395 0.704 -0.034561705 1.4274718e-38 290 268
-0.035745207 0.70300001 -0.034512613 1.3721544e-38 291 268
-0.034365334 0.69999999 -0.034365334 1.3812274e-38 292 268
-0.033043321 0.69800001 -0.034267146 1.3351303e-38 293 268
-0.03177391 0.69700003 -0.034218054 1.3259108e-38 294 268
-0.030507999 0.69599998 -0.034168959 1.2982885e-38 295 268
-0.029287677 0.69599998 -0.034168959 1.3165121e-38 296 268
-0.027986705 0.69400001 -0.034070771 1.3072926e-38 297 268
-0.026769891 0.69400001 -0.034070771 1.3072568e-38 298 268
-0.02551626 0.69300002 -0.034021679 1.3072568e-38 299 268
-0.024301201 0.69300002 -0.034021679 1.2796702e-38 300 268
-0.023019511 0.69099998 -0.033923492 1.2796702e-38 301 268
-0.021776399 0.69 -0.0338744 1.2796702e-38 302 268
-0.020566599 0.69 -0.0338744 1.2796702e-38 303 268
-0.019300694 0.68800002 -0.033776212 1.2704867e-38 304 268
-0.018068098 0.68699998 -0.033727121 1.2797061e-38 305 268
-0.01686356 0.68699998 -0.033727121 1.2704867e-38 306 268
-0.015659019 0.68699998 -0.033727121 1.2704867e-38 307 268
-0.014454478 0.68699998 -0.033727121 1.2613031e-38 308 268
-0.013230653 0.68599999 -0.033678025 1.2520837e-38 309 268
-0.012027865 0.68599999 -0.033678025 1.2520837e-38 310 268
-0.010825079 0.68599999 -0.033678025 1.2520837e-38 311 268
-0.0096222926 0.68599999 -0.033678025 1.2795985e-38 312 268
-0.0084317802 0.68699998 -0.033727121 1.2703432e-38 313 268
-0.0072272392 0.68699998 -0.033727121 1.2703432e-38 314 268
-0.0060226996 0.68699998 -0.033727121 1.2703432e-38 315 268
-0.0048181596 0.68699998 -0.033727121 1.252012e-38 316 268
-0.0036136196 0.68699998 -0.033727121 1.252012e-38 317 268
-0.0024090798 0.68699998 -0.033727121 1.2520837e-38 318 268
-0.0012045399 0.68699998 -0.033727121 1.2613031e-38 319 268
0 0.68699998 -0.033727121 1.261339e-38 320 268
0.0012045399 0.68699998 -0.033727121 1.2521196e-38 321 268
0.0024090798 0.68699998 -0.033727121 1.2613031e-38 322 268
0.0036136196 0.68699998 -0.033727121 1.2613031e-38 323 268
0.0048181596 0.68699998 -0.033727121 1.2703791e-38 324 268
0.0060226996 0.68699998 -0.033727121 1.2703791e-38 325 268
0.0072377604 0.68800002 -0.033776212 1.252012e-38 326 268
0.0084686 0.69 -0.0338744 1.2427926e-38 327 268
0.0096783992 0.69 -0.0338744 1.2427926e-38 328 268
0.01090398 0.69099998 -0.033923492 1.2520478e-38 329 268
0.012115533 0.69099998 -0.033923492 1.2703432e-38 330 268
0.01336566 0.69300002 -0.034021679 1.2519402e-38 331 268
0.014643839 0.69599998 -0.034168959 1.2427208e-38 332 268
0.015864158 0.69599998 -0.034168959 1.2427208e-38 333 268
0.017109027 0.69700003 -0.034218054 1.2611615e-38 334 268
0.0183574 0.69800001 -0.034267146 1.2611615e-38 335 268
0.019581227 0.69800001 -0.034267146 1.2794944e-38 336 268
0.020864666 0.69999999 -0.034365334 1.3163366e-38 337 268
0.022123558 0.70099998 -0.034414422 1.2890026e-38 338 268
0.023419274 0.70300001 -0.034512613 1.2982222e-38 339 268
0.024651866 0.70300001 -0.034512613 1.344431e-38 340 268
0.02592128 0.704 -0.034561705 1.7500917e-38 341 268
0.027155625 0.704 -0.034561705 1.5856554e-38 342 268
-0.038264744 0.704 -0.035796054 1.3356427e-38 289 269
-0.037030395 0.704 -0.035796054 1.4182535e-38 290 269
-0.035745207 0.70300001 -0.035745207 1.3814111e-38 291 269
-0.034365334 0.69999999 -0.035592664 1.3630055e-38 292 269
-0.033137999 0.69999999 -0.035592664 1.2984685e-38 293 269
-0.031819493 0.69800001 -0.035490975 1.3351303e-38 294 269
-0.030551834 0.69700003 -0.035440128 1.3166556e-38 295 269
-0.029287677 0.69599998 -0.035389278 1.3165838e-38 296 269
-0.028067358 0.69599998 -0.035389278 1.3073285e-38 297 269
-0.026769891 0.69400001 -0.035287585 1.3072928e-38 298 269
-0.02551626 0.69300002 -0.035236739 1.3072928e-38 299 269
-0.024301201 0.69300002 -0.035236739 1.2980735e-38 300 269
-0.023019511 0.69099998 -0.035135046 1.2980735e-38 301 269
-0.021776399 0.69 -0.035084199 1.2980732e-38 302 269
-0.020566599 0.69 -0.035084199 1.2980732e-38 303 269
-0.019300694 0.68800002 -0.03498251 1.2797061e-38 304 269
-0.018068098 0.68699998 -0.034931656 1.2797061e-38 305 269
-0.01686356 0.68699998 -0.034931656 1.2796702e-38 306 269
-0.015659019 0.68699998 -0.034931656 1.2796702e-38 307 269
-0.014454478 0.68699998 -0.034931656 1.2704867e-38 308 269
-0.013249939 0.68699998 -0.034931656 1.2612673e-38 309 269
-0.012045399 0.68699998 -0.034931656 1.2704867e-38 310 269
-0.010825079 0.68599999 -0.034880809 1.2612314e-38 311 269
-0.0096222926 0.68599999 -0.034880809 1.2612673e-38 312 269
-0.0084317802 0.68699998 -0.034931656 1.2612673e-38 313 269
-0.0072272392 0.68699998 -0.034931656 1.2795985e-38 314 269
-0.0060226996 0.68699998 -0.034931656 1.2703791e-38 315 269
-0.0048181596 0.68699998 -0.034931656 1.2703791e-38 316 269
-0.0036188802 0.68800002 -0.03498251 1.2795985e-38 317 269
-0.0024090798 0.68699998 -0.034931656 1.2612314e-38 318 269
-0.0012045399 0.68699998 -0.034931656 1.2796702e-38 319 269
0 0.68800002 -0.03498251 1.2705226e-38 320 269
0.0012062934 0.68800002 -0.03498251 1.2613031e-38 321 269
0.0024125867 0.68800002 -0.03498251 1.2704867e-38 322 269
0.0036188802 0.68800002 -0.03498251 1.2612314e-38 323 269
0.0048251734 0.68800002 -0.03498251 1.2612314e-38 324 269
0.0060314666 0.68800002 -0.03498251 1.2612314e-38 325 269
0.0072587994 0.69 -0.035084199 1.2519761e-38 326 269
0.0084686 0.69 -0.035084199 1.2612314e-38 327 269
0.0096783992 0.69 -0.035084199 1.2519761e-38 328 269
0.01090398 0.69099998 -0.035135046 1.2519761e-38 329 269
0.012150601 0.69300002 -0.035236739 1.2611955e-38 330 269
0.01336566 0.69300002 -0.035236739 1.2519761e-38 331 269
0.014643839 0.69599998 -0.035389278 1.2519406e-38 332 269
0.015886955 0.69700003 -0.035440128 1.2519406e-38 333 269
0.017109027 0.69700003 -0.035440128 1.2519419e-38 334 269
0.0183574 0.69800001 -0.035490975 1.2611615e-38 335 269
0.019637333 0.69999999 -0.035592664 1.2795663e-38 336 269
0.020864666 0.69999999 -0.035592664 1.3164085e-38 337 269
0.022123558 0.70099998 -0.035643511 1.298259e-38 338 269
0.023419274 0.70300001 -0.035745207 1.3997102e-38 339 269
0.024651866 0.70300001 -0.035745207 1.3818877e-38 340 269
0.025884461 0.70300001 -0.035745207 1.7598898e-38 341 269
-0.036977798 0.70300001 -0.036977798 1.409072e-38 290 270
-0.035745207 0.70300001 -0.036977798 1.3629742e-38 291 270
-0.034414422 0.70099998 -0.036872596 1.3905212e-38 292 270
-0.033137999 0.69999999 -0.036819998 1.3259843e-38 293 270
-0.031819493 0.69800001 -0.0367148 1.3443138e-38 294 270
-0.030551834 0.69700003 -0.036662199 1.325875e-38 295 270
-0.02932976 0.69700003 -0.036662199 1.3257674e-38 296 270
-0.028067358 0.69599998 -0.036609598 1.3165479e-38 297 270
-0.026769891 0.69400001 -0.036504399 1.3072928e-38 298 270
-0.02551626 0.69300002 -0.036451802 1.3165123e-38 299 270
-0.024301201 0.69300002 -0.036451802 1.2980735e-38 300 270
