# .PCD v.7 - Point Cloud Data file format
FIELDS x y z rgb imX imY
SIZE 4 4 4 4 4 4
TYPE F F F F F F
COUNT 1 1 1 1 1 1
WIDTH 835
HEIGHT 1
VIEWPOINT 0 0 0 1 0 0 0
POINTS 835
DATA ascii
0.0035925799 0.68300003 -0.011975267 1.3528517e-38 323 250
0.0047901068 0.68300003 -0.011975267 1.3531037e-38 324 250
0.0059876335 0.68300003 -0.011975267 1.3715429e-38 325 250
0.0071851597 0.68300003 -0.011975267 1.371795e-38 326 250
0.0083949603 0.68400002 -0.0119928 1.3810145e-38 327 250
0.0095942402 0.68400002 -0.0119928 1.3810511e-38 328 250
0.010825079 0.68599999 -0.012027865 1.3994902e-38 329 250
0.012027865 0.68599999 -0.012027865 1.3903084e-38 330 250
0.013230653 0.68599999 -0.012027865 1.4087473e-38 331 250
0.014475521 0.68800002 -0.012062933 1.4088199e-38 332 250
0.015681813 0.68800002 -0.012062933 1.4088199e-38 333 250
0.016888106 0.68800002 -0.012062933 1.3997423e-38 334 250
0.0180944 0.68800002 -0.012062933 1.3075827e-38 335 250
0.019300694 0.68800002 -0.012062933 1.2514779e-38 336 250
0.020506985 0.68800002 -0.012062933 1.6294799e-38 337 250
-0.053076904 0.704 -0.013577812 1.8163633e-38 277 251
-0.051768921 0.70300001 -0.013558527 1.3276897e-38 278 251
-0.050536323 0.70300001 -0.013558527 8.8515063e-39 279 251
-0.049303733 0.70300001 -0.013558527 8.1917022e-39 280 251
-0.047934376 0.70099998 -0.013519952 9.482441e-39 281 251
-0.046505414 0.69800001 -0.013462093 1.1411319e-38 282 251
-0.045022093 0.69400001 -0.013384946 1.1503514e-38 283 251
-0.043805279 0.69400001 -0.013384946 1.1595713e-38 284 251
-0.042527102 0.69300002 -0.01336566 1.1411321e-38 285 251
-0.041192811 0.69099998 -0.013327086 1.1502071e-38 286 251
-0.039981257 0.69099998 -0.013327086 1.1502071e-38 287 251
-0.038601387 0.68800002 -0.013269227 1.1411306e-38 288 251
-0.037395094 0.68800002 -0.013269227 1.1503502e-38 289 251
-0.036136195 0.68699998 -0.013249939 1.1687886e-38 290 251
-0.03477912 0.68400002 -0.01319208 1.1503855e-38 291 251
-0.033530746 0.68300003 -0.013172794 1.1593895e-38 292 251
-0.032333218 0.68300003 -0.013172794 1.1501699e-38 293 251
-0.031135695 0.68300003 -0.013172794 1.1685017e-38 294 251
-0.029894331 0.68199998 -0.013153506 1.1961606e-38 295 251
-0.02869856 0.68199998 -0.013153506 1.2513681e-38 296 251
-0.027502786 0.68199998 -0.013153506 1.2605876e-38 297 251
-0.026229866 0.68000001 -0.013114933 1.315687e-38 298 251
-0.025037598 0.68000001 -0.013114933 1.3064676e-38 299 251
-0.023845334 0.68000001 -0.013114933 1.3155794e-38 300 251
-0.022653066 0.68000001 -0.013114933 1.3155794e-38 301 251
-0.0214608 0.68000001 -0.013114933 1.3248347e-38 302 251
-0.020238725 0.67900002 -0.013095647 1.3248347e-38 303 251
-0.019020159 0.67799997 -0.013076359 1.3065393e-38 304 251
-0.0178314 0.67799997 -0.013076359 1.3157587e-38 305 251
-0.016642639 0.67799997 -0.013076359 1.306611e-38 306 251
-0.015453878 0.67799997 -0.013076359 1.3158663e-38 307 251
-0.014265119 0.67799997 -0.013076359 1.3157587e-38 308 251
-0.013076359 0.67799997 -0.013076359 1.3341617e-38 309 251
-0.011887599 0.67799997 -0.013076359 1.325014e-38 310 251
-0.010698839 0.67799997 -0.013076359 1.325014e-38 311 251
-0.0095100794 0.67799997 -0.013076359 1.3251216e-38 312 251
-0.0083213197 0.67799997 -0.013076359 1.3067187e-38 313 251
-0.0071325595 0.67799997 -0.013076359 1.3341976e-38 314 251
-0.0059437994 0.67799997 -0.013076359 1.343417e-38 315 251
-0.0047550397 0.67799997 -0.013076359 1.3067187e-38 316 251
-0.0035662798 0.67799997 -0.013076359 1.2974992e-38 317 251
-0.0023810267 0.67900002 -0.013095647 1.2974992e-38 318 251
-0.0011905134 0.67900002 -0.013095647 1.2882798e-38 319 251
0 0.68000001 -0.013114933 1.2882439e-38 320 251
0.0011957732 0.68199998 -0.013153506 1.2882439e-38 321 251
0.0023915465 0.68199998 -0.013153506 1.3250858e-38 322 251
0.00358732 0.68199998 -0.013153506 1.3527799e-38 323 251
0.0047901068 0.68300003 -0.013172794 1.3345923e-38 324 251
0.0059876335 0.68300003 -0.013172794 1.3622511e-38 325 251
0.0071851597 0.68300003 -0.013172794 1.3441366e-38 326 251
0.0083826864 0.68300003 -0.013172794 1.3625398e-38 327 251
0.0095942402 0.68400002 -0.01319208 1.3626127e-38 328 251
0.01079352 0.68400002 -0.01319208 1.3810158e-38 329 251
0.0119928 0.68400002 -0.01319208 1.3810888e-38 330 251
0.013230653 0.68599999 -0.013230653 1.3903084e-38 331 251
0.014454478 0.68699998 -0.013249939 1.3996001e-38 332 251
0.015659019 0.68699998 -0.013249939 1.3996001e-38 333 251
0.016888106 0.68800002 -0.013269227 1.390523e-38 334 251
0.0180944 0.68800002 -0.013269227 1.289108e-38 335 251
0.019300694 0.68800002 -0.013269227 1.2606975e-38 336 251
0.020506985 0.68800002 -0.013269227 1.5741625e-38 337 251
-0.053076904 0.704 -0.014812159 1.8346227e-38 277 252
-0.051842559 0.704 -0.014812159 1.1616647e-38 278 252
-0.050608214 0.704 -0.014812159 6.4536913e-39 279 252
-0.049303733 0.70300001 -0.014791119 8.7430725e-39 280 252
-0.047729239 0.69800001 -0.01468592 9.7575831e-39 281 252
-0.046372157 0.69599998 -0.014643839 1.0859592e-38 282 252
-0.045022093 0.69400001 -0.01460176 1.1043625e-38 283 252
-0.043742158 0.69300002 -0.014580719 1.1319123e-38 284 252
-0.042527102 0.69300002 -0.014580719 1.1226926e-38 285 252
-0.041192811 0.69099998 -0.014538639 1.1226204e-38 286 252
-0.0399234 0.69 -0.014517599 1.1134009e-38 287 252
-0.038601387 0.68800002 -0.014475521 1.1042892e-38 288 252
-0.037395094 0.68800002 -0.014475521 1.1226923e-38 289 252
-0.035978399 0.68400002 -0.01439136 1.1226923e-38 290 252
-0.034728274 0.68300003 -0.014370319 1.1042892e-38 291 252
-0.033530746 0.68300003 -0.014370319 1.1409153e-38 292 252
-0.032333218 0.68300003 -0.014370319 1.1316958e-38 293 252
-0.031090107 0.68199998 -0.01434928 1.1591747e-38 294 252
-0.029894331 0.68199998 -0.01434928 1.1776138e-38 295 252
-0.028614398 0.68000001 -0.014307199 1.1869763e-38 296 252
-0.027422134 0.68000001 -0.014307199 1.1961959e-38 297 252
-0.026229866 0.68000001 -0.014307199 1.2695908e-38 298 252
-0.025037598 0.68000001 -0.014307199 1.2695908e-38 299 252
-0.023845334 0.68000001 -0.014307199 1.2972123e-38 300 252
-0.022619752 0.67900002 -0.01428616 1.2879928e-38 301 252
-0.021429239 0.67900002 -0.01428616 1.2789528e-38 302 252
-0.020238725 0.67900002 -0.01428616 1.2789528e-38 303 252
-0.019020159 0.67799997 -0.014265119 1.2973199e-38 304 252
-0.0178314 0.67799997 -0.014265119 1.3065393e-38 305 252
-0.016593546 0.676 -0.014223038 1.3065034e-38 306 252
-0.015408293 0.676 -0.014223038 1.3157228e-38 307 252
-0.014265119 0.67799997 -0.014265119 1.2973199e-38 308 252
-0.013076359 0.67799997 -0.014265119 1.3065393e-38 309 252
-0.011852534 0.676 -0.014223038 1.279168e-38 310 252
-0.01066728 0.676 -0.014223038 1.279168e-38 311 252
-0.0095100794 0.67799997 -0.014265119 1.2792398e-38 312 252
-0.0083213197 0.67799997 -0.014265119 1.2792398e-38 313 252
-0.0071325595 0.67799997 -0.014265119 1.3067545e-38 314 252
-0.0059437994 0.67799997 -0.014265119 1.3067545e-38 315 252
-0.0047550397 0.67799997 -0.014265119 1.2974992e-38 316 252
-0.0035662798 0.67799997 -0.014265119 1.2882798e-38 317 252
-0.0023810267 0.67900002 -0.01428616 1.2790963e-38 318 252
-0.0011905134 0.67900002 -0.01428616 1.2606933e-38 319 252
0 0.67900002 -0.01428616 1.2606574e-38 320 252
0.0011922666 0.68000001 -0.014307199 1.2790604e-38 321 252
0.0023915465 0.68199998 -0.01434928 1.2792045e-38 322 252
0.00358732 0.68199998 -0.01434928 1.306899e-38 323 252
0.004783093 0.68199998 -0.01434928 1.3069356e-38 324 252
0.005978866 0.68199998 -0.01434928 1.3346303e-38 325 252
0.0071851597 0.68300003 -0.014370319 1.3256271e-38 326 252
0.0083826864 0.68300003 -0.014370319 1.3624695e-38 327 252
0.0095802136 0.68300003 -0.014370319 1.35343e-38 328 252
0.01079352 0.68400002 -0.01439136 1.3626495e-38 329 252
0.0119928 0.68400002 -0.01439136 1.3810535e-38 330 252
0.013230653 0.68599999 -0.01443344 1.3903089e-38 331 252
0.014454478 0.68699998 -0.014454478 1.3627944e-38 332 252
0.015659019 0.68699998 -0.014454478 1.372014e-38 333 252
0.016888106 0.68800002 -0.014475521 1.3352431e-38 334 252
0.0180944 0.68800002 -0.014475521 1.2707061e-38 335 252
0.019300694 0.68800002 -0.014475521 1.2607694e-38 336 252
0.020506985 0.68800002 -0.014475521 1.4820748e-38 337 252
-0.054311249 0.704 -0.016046507 1.8439141e-38 276 253
-0.053076904 0.704 -0.016046507 1.7885969e-38 277 253
-0.051768921 0.70300001 -0.016023712 9.6801726e-39 278 253
-0.050536323 0.70300001 -0.016023712 5.5313678e-39 279 253
-0.049163464 0.70099998 -0.015978126 9.3869985e-39 280 253
-0.047660861 0.69700003 -0.015886955 9.9405324e-39 281 253
-0.046372157 0.69599998 -0.015864158 1.0858513e-38 282 253
-0.045022093 0.69400001 -0.015818574 1.0950709e-38 283 253
-0.043742158 0.69300002 -0.015795778 1.1226207e-38 284 253
-0.042404365 0.69099998 -0.015750192 1.1134011e-38 285 253
-0.041133199 0.69 -0.015727401 1.1042166e-38 286 253
-0.0399234 0.69 -0.015727401 1.1042166e-38 287 253
-0.038601387 0.68800002 -0.015681813 1.0765581e-38 288 253
-0.037395094 0.68800002 -0.015681813 1.094997e-38 289 253
-0.035978399 0.68400002 -0.01559064 1.1041447e-38 290 253
-0.034728274 0.68300003 -0.015567848 1.1133643e-38 291 253
-0.033530746 0.68300003 -0.015567848 1.1499902e-38 292 253
-0.032285877 0.68199998 -0.015545053 1.1592097e-38 293 253
-0.031090107 0.68199998 -0.015545053 1.1592803e-38 294 253
-0.029806666 0.68000001 -0.015499466 1.1592803e-38 295 253
-0.028614398 0.68000001 -0.015499466 1.2144527e-38 296 253
-0.027381808 0.67900002 -0.015476674 1.2144527e-38 297 253
-0.026191294 0.67900002 -0.015476674 1.269554e-38 298 253
-0.025000781 0.67900002 -0.015476674 1.2788093e-38 299 253
-0.023810266 0.67900002 -0.015476674 1.2788452e-38 300 253
-0.022619752 0.67900002 -0.015476674 1.2880646e-38 301 253
-0.021429239 0.67900002 -0.015476674 1.2881005e-38 302 253
-0.020238725 0.67900002 -0.015476674 1.2973199e-38 303 253
-0.018964052 0.676 -0.015408293 1.2880646e-38 304 253
-0.017778801 0.676 -0.015408293 1.297284e-38 305 253
-0.016593546 0.676 -0.015408293 1.2972123e-38 306 253
-0.015408293 0.676 -0.015408293 1.3156511e-38 307 253
-0.014223038 0.676 -0.015408293 1.297284e-38 308 253
-0.013076359 0.67799997 -0.015453878 1.2880287e-38 309 253
-0.011852534 0.676 -0.015408293 1.2697692e-38 310 253
-0.01066728 0.676 -0.015408293 1.2789887e-38 311 253
-0.0095100794 0.67799997 -0.015453878 1.2974992e-38 312 253
-0.0083213197 0.67799997 -0.015453878 1.2882439e-38 313 253
-0.0071325595 0.67799997 -0.015453878 1.2975351e-38 314 253
-0.0059437994 0.67799997 -0.015453878 1.2975351e-38 315 253
-0.0047550397 0.67799997 -0.015453878 1.2976069e-38 316 253
-0.0035662798 0.67799997 -0.015453878 1.2791321e-38 317 253
-0.0023775198 0.67799997 -0.015453878 1.2791321e-38 318 253
-0.0011905134 0.67900002 -0.015476674 1.2514739e-38 319 253
0 0.67900002 -0.015476674 1.2606933e-38 320 253
0.0011922666 0.68000001 -0.015499466 1.2606933e-38 321 253
0.0023845332 0.68000001 -0.015499466 1.2699486e-38 322 253
0.00358732 0.68199998 -0.015545053 1.2883874e-38 323 253
0.004783093 0.68199998 -0.015545053 1.3252653e-38 324 253
0.005978866 0.68199998 -0.015545053 1.3344848e-38 325 253
0.00717464 0.68199998 -0.015545053 1.3348085e-38 326 253
0.0083826864 0.68300003 -0.015567848 1.3532835e-38 327 253
0.0095802136 0.68300003 -0.015567848 1.3442452e-38 328 253
0.01077774 0.68300003 -0.015567848 1.3534647e-38 329 253
0.0119928 0.68400002 -0.01559064 1.3626493e-38 330 253
0.013230653 0.68599999 -0.015636226 1.3718688e-38 331 253
0.014454478 0.68699998 -0.015659019 1.3718688e-38 332 253
0.015659019 0.68699998 -0.015659019 1.3718688e-38 333 253
0.016888106 0.68800002 -0.015681813 1.3443177e-38 334 253
0.0180944 0.68800002 -0.015681813 1.3074395e-38 335 253
0.019300694 0.68800002 -0.015681813 1.279424e-38 336 253
0.020566599 0.69 -0.015727401 1.4084979e-38 337 253
0.021776399 0.69 -0.015727401 1.4376735e-38 338 253
-0.055545598 0.704 -0.017280852 1.7978518e-38 275 254
-0.054311249 0.704 -0.017280852 1.8163268e-38 276 254
-0.053076904 0.704 -0.017280852 1.7148756e-38 277 254
-0.051768921 0.70300001 -0.017256306 8.9422376e-39 278 254
-0.050320663 0.69999999 -0.017182667 5.2540523e-39 279 254
-0.048953064 0.69800001 -0.017133573 9.8476025e-39 280 254
-0.047660861 0.69700003 -0.017109027 1.0308939e-38 281 254
-0.046372157 0.69599998 -0.017084479 1.0307858e-38 282 254
-0.045022093 0.69400001 -0.017035386 1.0307858e-38 283 254
-0.043742158 0.69300002 -0.01701084 1.0583358e-38 284 254
-0.042404365 0.69099998 -0.016961746 1.0583358e-38 285 254
-0.041133199 0.69 -0.0169372 1.0582637e-38 286 254
-0.0399234 0.69 -0.0169372 1.0398244e-38 287 254
-0.038601387 0.68800002 -0.016888106 9.5710213e-39 288 254
-0.037340738 0.68699998 -0.01686356 9.5710213e-39 289 254
-0.035978399 0.68400002 -0.016789921 9.7543363e-39 290 254
-0.034728274 0.68300003 -0.016765373 9.8465319e-39 291 254
-0.03348165 0.68199998 -0.016740825 1.1041094e-38 292 254
-0.032285877 0.68199998 -0.016740825 1.113329e-38 293 254
-0.031090107 0.68199998 -0.016740825 1.1592082e-38 294 254
-0.029806666 0.68000001 -0.016691733 1.1868667e-38 295 254
-0.028614398 0.68000001 -0.016691733 1.1868664e-38 296 254
-0.027381808 0.67900002 -0.016667187 1.196086e-38 297 254
-0.026191294 0.67900002 -0.016667187 1.2053768e-38 298 254
-0.025000781 0.67900002 -0.016667187 1.2145962e-38 299 254
-0.023810266 0.67900002 -0.016667187 1.2513304e-38 300 254
-0.022619752 0.67900002 -0.016667187 1.2513304e-38 301 254
-0.021429239 0.67900002 -0.016667187 1.2697334e-38 302 254
-0.020238725 0.67900002 -0.016667187 1.2789528e-38 303 254
-0.018964052 0.676 -0.016593546 1.2605498e-38 304 254
-0.017778801 0.676 -0.016593546 1.2697692e-38 305 254
-0.016593546 0.676 -0.016593546 1.2605139e-38 306 254
-0.015408293 0.676 -0.016593546 1.2697334e-38 307 254
-0.014223038 0.676 -0.016593546 1.2514021e-38 308 254
-0.013037786 0.676 -0.016593546 1.2514021e-38 309 254
-0.011852534 0.676 -0.016593546 1.2514021e-38 310 254
-0.01066728 0.676 -0.016593546 1.2514021e-38 311 254
-0.0095100794 0.67799997 -0.016642639 1.2790604e-38 312 254
-0.0083213197 0.67799997 -0.016642639 1.2790604e-38 313 254
-0.0071325595 0.67799997 -0.016642639 1.2791321e-38 314 254
-0.0059437994 0.67799997 -0.016642639 1.2883516e-38 315 254
-0.0047550397 0.67799997 -0.016642639 1.2791321e-38 316 254
-0.0035662798 0.67799997 -0.016642639 1.2607292e-38 317 254
-0.0023775198 0.67799997 -0.016642639 1.269841e-38 318 254
-0.0011905134 0.67900002 -0.016667187 1.269841e-38 319 254
0 0.67900002 -0.016667187 1.2606933e-38 320 254
0.0011922666 0.68000001 -0.016691733 1.2790963e-38 321 254
0.0023845332 0.68000001 -0.016691733 1.2699486e-38 322 254
0.0035767998 0.68000001 -0.016691733 1.2883876e-38 323 254
0.004783093 0.68199998 -0.016740825 1.2793842e-38 324 254
0.005978866 0.68199998 -0.016740825 1.3162623e-38 325 254
0.00717464 0.68199998 -0.016740825 1.3165142e-38 326 254
0.0083704125 0.68199998 -0.016740825 1.3257337e-38 327 254
0.0095802136 0.68300003 -0.016765373 1.3166591e-38 328 254
0.01077774 0.68300003 -0.016765373 1.3350982e-38 329 254
0.0119928 0.68400002 -0.016789921 1.3443183e-38 330 254
0.01319208 0.68400002 -0.016789921 1.3443183e-38 331 254
0.014454478 0.68699998 -0.01686356 1.3443183e-38 332 254
0.015659019 0.68699998 -0.01686356 1.3443183e-38 333 254
0.016888106 0.68800002 -0.016888106 1.3259861e-38 334 254
0.018146999 0.69 -0.0169372 1.289108e-38 335 254
0.019356798 0.69 -0.0169372 1.279531e-38 336 254
0.020566599 0.69 -0.0169372 1.3440679e-38 337 254
0.021807959 0.69099998 -0.016961746 1.3731716e-38 338 254
0.02308614 0.69300002 -0.01701084 1.8802476e-38 339 254
-0.055545598 0.704 -0.018515198 1.7888126e-38 275 255
-0.054311249 0.704 -0.018515198 1.7979242e-38 276 255
-0.053076904 0.704 -0.018515198 1.613533e-38 277 255
-0.051768921 0.70300001 -0.018488899 8.847877e-39 278 255
-0.050320663 0.69999999 -0.018409999 6.0816493e-39 279 255
-0.048953064 0.69800001 -0.0183574 1.0216018e-38 280 255
-0.047660861 0.69700003 -0.018331099 1.0216018e-38 281 255
-0.046372157 0.69599998 -0.018304799 1.0307492e-38 282 255
-0.045022093 0.69400001 -0.0182522 1.0307492e-38 283 255
-0.043615919 0.69099998 -0.0181733 1.0490085e-38 284 255
-0.042342998 0.69 -0.018146999 1.0490085e-38 285 255
-0.041013971 0.68800002 -0.0180944 1.0122378e-38 286 255
-0.039807681 0.68800002 -0.0180944 9.9379863e-39 287 255
-0.038545277 0.68699998 -0.018068098 9.5674213e-39 288 255
-0.037340738 0.68699998 -0.018068098 9.5674213e-39 289 255
-0.035978399 0.68400002 -0.0179892 9.6589009e-39 290 255
-0.034728274 0.68300003 -0.017962901 1.0027683e-38 291 255
-0.03348165 0.68199998 -0.017936599 1.0947094e-38 292 255
-0.032285877 0.68199998 -0.017936599 1.1592463e-38 293 255
-0.030998932 0.68000001 -0.017883999 1.1500961e-38 294 255
-0.029806666 0.68000001 -0.017883999 1.1408767e-38 295 255
-0.028572321 0.67900002 -0.017857701 1.1408049e-38 296 255
-0.027381808 0.67900002 -0.017857701 1.1500602e-38 297 255
-0.026152719 0.67799997 -0.0178314 1.1960856e-38 298 255
-0.024963958 0.67799997 -0.0178314 1.2144886e-38 299 255
-0.023810266 0.67900002 -0.017857701 1.2237797e-38 300 255
-0.022586439 0.67799997 -0.0178314 1.2237797e-38 301 255
-0.021397678 0.67799997 -0.0178314 1.2513304e-38 302 255
-0.020208918 0.67799997 -0.0178314 1.2605498e-38 303 255
-0.018964052 0.676 -0.017778801 1.2512945e-38 304 255
-0.017778801 0.676 -0.017778801 1.2605139e-38 305 255
-0.016593546 0.676 -0.017778801 1.2605139e-38 306 255
-0.015408293 0.676 -0.017778801 1.2605139e-38 307 255
-0.014223038 0.676 -0.017778801 1.2329633e-38 308 255
-0.013037786 0.676 -0.017778801 1.2421827e-38 309 255
-0.011852534 0.676 -0.017778801 1.2422186e-38 310 255
-0.01066728 0.676 -0.017778801 1.251438e-38 311 255
-0.0094820261 0.676 -0.017778801 1.2514739e-38 312 255
-0.0082967728 0.676 -0.017778801 1.2514739e-38 313 255
-0.0071325595 0.67799997 -0.0178314 1.2515815e-38 314 255
-0.0059262668 0.676 -0.017778801 1.2515815e-38 315 255
-0.0047410131 0.676 -0.017778801 1.2882798e-38 316 255
-0.0035662798 0.67799997 -0.0178314 1.269841e-38 317 255
-0.0023775198 0.67799997 -0.0178314 1.2698051e-38 318 255
-0.0011905134 0.67900002 -0.017857701 1.2698051e-38 319 255
0 0.67900002 -0.017857701 1.2606574e-38 320 255
0.0011922666 0.68000001 -0.017883999 1.2790604e-38 321 255
0.0023845332 0.68000001 -0.017883999 1.2607652e-38 322 255
0.0035767998 0.68000001 -0.017883999 1.2884599e-38 323 255
0.0047690663 0.68000001 -0.017883999 1.279455e-38 324 255
0.0059613334 0.68000001 -0.017883999 1.2886744e-38 325 255
0.00717464 0.68199998 -0.017936599 1.2889618e-38 326 255
0.0083704125 0.68199998 -0.017936599 1.2981814e-38 327 255
0.009566186 0.68199998 -0.017936599 1.3074025e-38 328 255
0.010761959 0.68199998 -0.017936599 1.3258418e-38 329 255
0.011975267 0.68300003 -0.017962901 1.3442098e-38 330 255
0.01319208 0.68400002 -0.0179892 1.3534653e-38 331 255
0.014454478 0.68699998 -0.018068098 1.3351338e-38 332 255
0.015659019 0.68699998 -0.018068098 1.3351338e-38 333 255
0.016888106 0.68800002 -0.0180944 1.3351332e-38 334 255
0.018146999 0.69 -0.018146999 1.3166941e-38 335 255
0.019356798 0.69 -0.018146999 1.2888577e-38 336 255
0.020566599 0.69 -0.018146999 1.2796382e-38 337 255
0.021807959 0.69099998 -0.0181733 1.3269293e-38 338 255
0.02308614 0.69300002 -0.018225901 1.8709194e-38 339 255
0.024301201 0.69300002 -0.018225901 1.7885958e-38 340 255
-0.0554667 0.70300001 -0.019721493 1.8163636e-38 275 256
-0.054234106 0.70300001 -0.019721493 1.7793772e-38 276 256
-0.053001512 0.70300001 -0.019721493 1.5673272e-38 277 256
-0.051547997 0.69999999 -0.019637333 9.5811204e-39 278 256
-0.050176892 0.69800001 -0.019581227 6.9074471e-39 279 256
-0.048882935 0.69700003 -0.019553173 1.0125252e-38 280 256
-0.047592476 0.69599998 -0.019525118 1.0125252e-38 281 256
-0.046238903 0.69400001 -0.019469013 1.0216368e-38 282 256
-0.044957221 0.69300002 -0.01944096 1.0216368e-38 283 256
-0.043552797 0.69 -0.019356798 1.0398964e-38 284 256
-0.042342998 0.69 -0.019356798 1.0122378e-38 285 256
-0.041013971 0.68800002 -0.019300694 1.030533e-38 286 256
-0.039749816 0.68699998 -0.019272638 1.012058e-38 287 256
-0.038545277 0.68699998 -0.019272638 9.3848279e-39 288 256
-0.037340738 0.68699998 -0.019272638 9.0164055e-39 289 256
-0.035925802 0.68300003 -0.019160427 9.1993675e-39 290 256
-0.034728274 0.68300003 -0.019160427 9.4759544e-39 291 256
-0.03348165 0.68199998 -0.019132372 1.0304974e-38 292 256
-0.032285877 0.68199998 -0.019132372 1.0765952e-38 293 256
-0.030998932 0.68000001 -0.019076265 1.1315856e-38 294 256
-0.029762832 0.67900002 -0.019048214 1.1039631e-38 295 256
-0.028572321 0.67900002 -0.019048214 1.0395348e-38 296 256
-0.027341479 0.67799997 -0.019020159 1.0764125e-38 297 256
-0.026152719 0.67799997 -0.019020159 1.1318366e-38 298 256
-0.024963958 0.67799997 -0.019020159 1.1318366e-38 299 256
-0.023775198 0.67799997 -0.019020159 1.196265e-38 300 256
-0.022586439 0.67799997 -0.019020159 1.196265e-38 301 256
-0.021397678 0.67799997 -0.019020159 1.2421827e-38 302 256
-0.020208918 0.67799997 -0.019020159 1.2329633e-38 303 256
-0.018964052 0.676 -0.018964052 1.242147e-38 304 256
-0.017778801 0.676 -0.018964052 1.242147e-38 305 256
-0.016593546 0.676 -0.018964052 1.242147e-38 306 256
-0.015408293 0.676 -0.018964052 1.242147e-38 307 256
-0.014223038 0.676 -0.018964052 1.2146679e-38 308 256
-0.013037786 0.676 -0.018964052 1.2238874e-38 309 256
-0.011852534 0.676 -0.018964052 1.2238515e-38 310 256
-0.01066728 0.676 -0.018964052 1.2238515e-38 311 256
-0.0094820261 0.676 -0.018964052 1.2422903e-38 312 256
-0.0082967728 0.676 -0.018964052 1.2422903e-38 313 256
-0.0071115191 0.676 -0.018964052 1.2332144e-38 314 256
-0.0059262668 0.676 -0.018964052 1.2332144e-38 315 256
-0.0047410131 0.676 -0.018964052 1.2790604e-38 316 256
-0.0035662798 0.67799997 -0.019020159 1.269841e-38 317 256
-0.0023810267 0.67900002 -0.019048214 1.2789887e-38 318 256
-0.0011905134 0.67900002 -0.019048214 1.2789887e-38 319 256
0 0.67900002 -0.019048214 1.2606574e-38 320 256
0.0011922666 0.68000001 -0.019076265 1.2790604e-38 321 256
0.0023845332 0.68000001 -0.019076265 1.2424338e-38 322 256
0.0035767998 0.68000001 -0.019076265 1.2701284e-38 323 256
0.0047690663 0.68000001 -0.019076265 1.2702719e-38 324 256
0.0059613334 0.68000001 -0.019076265 1.2794914e-38 325 256
0.00717464 0.68199998 -0.019132372 1.2613048e-38 326 256
0.0083704125 0.68199998 -0.019132372 1.2797438e-38 327 256
0.009566186 0.68199998 -0.019132372 1.2798164e-38 328 256
0.010761959 0.68199998 -0.019132372 1.289036e-38 329 256
0.011975267 0.68300003 -0.019160427 1.3166593e-38 330 256
0.01319208 0.68400002 -0.01918848 1.3258789e-38 331 256
0.014454478 0.68699998 -0.019272638 1.3166593e-38 332 256
0.015659019 0.68699998 -0.019272638 1.3166593e-38 333 256
0.0169372 0.69 -0.019356798 1.3166588e-38 334 256
0.0181733 0.69099998 -0.019384852 1.3074392e-38 335 256
0.019356798 0.69 -0.019356798 1.3163719e-38 336 256
0.020566599 0.69 -0.019356798 1.3163719e-38 337 256
0.021776399 0.69 -0.019356798 1.3174932e-38 338 256
0.022986198 0.69 -0.019356798 1.8983257e-38 339 256
0.024195999 0.69 -0.019356798 1.806999e-38 340 256
-0.0554667 0.70300001 -0.020954086 1.8346593e-38 275 257
-0.054234106 0.70300001 -0.020954086 1.7794128e-38 276 257
-0.052775331 0.69999999 -0.020864666 1.567327e-38 277 257
-0.051400717 0.69800001 -0.020805053 9.947382e-39 278 257
-0.050176892 0.69800001 -0.020805053 7.2737087e-39 279 257
-0.048882935 0.69700003 -0.020775247 1.0309646e-38 280 257
-0.047592476 0.69599998 -0.020745439 1.0124896e-38 281 257
-0.046238903 0.69400001 -0.020685827 1.0032337e-38 282 257
-0.044957221 0.69300002 -0.020656019 1.0032337e-38 283 257
-0.043552797 0.69 -0.020566599 1.0398239e-38 284 257
-0.042220265 0.68800002 -0.020506985 1.0306043e-38 285 257
-0.040954359 0.68699998 -0.020477179 1.0488989e-38 286 257
-0.039749816 0.68699998 -0.020477179 1.0304598e-38 287 257
-0.03848917 0.68599999 -0.020447372 9.6606791e-39 288 257
-0.037177678 0.68400002 -0.020387759 9.5681248e-39 289 257
-0.035925802 0.68300003 -0.020357953 9.1086012e-39 290 257
-0.034677424 0.68199998 -0.020328145 9.3848279e-39 291 257
-0.03348165 0.68199998 -0.020328145 9.8454375e-39 292 257
-0.032191198 0.68000001 -0.020268533 1.0122383e-38 293 257
-0.030953348 0.67900002 -0.020238725 1.0947449e-38 294 257
-0.029762832 0.67900002 -0.020238725 1.0671223e-38 295 257
-0.028572321 0.67900002 -0.020238725 9.9354527e-39 296 257
-0.027341479 0.67799997 -0.020208918 1.0303877e-38 297 257
-0.026152719 0.67799997 -0.020208918 1.0582607e-38 298 257
-0.024963958 0.67799997 -0.020208918 1.0859554e-38 299 257
-0.023775198 0.67799997 -0.020208918 1.1595666e-38 300 257
-0.022586439 0.67799997 -0.020208918 1.1779696e-38 301 257
-0.021397678 0.67799997 -0.020208918 1.2146679e-38 302 257
-0.020208918 0.67799997 -0.020208918 1.2146679e-38 303 257
-0.018964052 0.676 -0.020149305 1.2146325e-38 304 257
-0.017778801 0.676 -0.020149305 1.2146325e-38 305 257
-0.016593546 0.676 -0.020149305 1.2146328e-38 306 257
-0.015408293 0.676 -0.020149305 1.2146328e-38 307 257
-0.014223038 0.676 -0.020149305 1.1963015e-38 308 257
-0.013037786 0.676 -0.020149305 1.187046e-38 309 257
-0.011852534 0.676 -0.020149305 1.2054126e-38 310 257
-0.01066728 0.676 -0.020149305 1.2054126e-38 311 257
-0.0094820261 0.676 -0.020149305 1.2147397e-38 312 257
-0.0082967728 0.676 -0.020149305 1.2147397e-38 313 257
-0.0071115191 0.676 -0.020149305 1.2147397e-38 314 257
-0.0059262668 0.676 -0.020149305 1.2147397e-38 315 257
-0.0047620535 0.67900002 -0.020238725 1.2422545e-38 316 257
-0.0035715401 0.67900002 -0.020238725 1.2422545e-38 317 257
-0.0023810267 0.67900002 -0.020238725 1.2605857e-38 318 257
-0.0011905134 0.67900002 -0.020238725 1.2698051e-38 319 257
0 0.67900002 -0.020238725 1.2422903e-38 320 257
0.0011922666 0.68000001 -0.020268533 1.2607292e-38 321 257
0.0023845332 0.68000001 -0.020268533 1.242434e-38 322 257
0.0035767998 0.68000001 -0.020268533 1.2608732e-38 323 257
0.0047690663 0.68000001 -0.020268533 1.2334662e-38 324 257
0.0059613334 0.68000001 -0.020268533 1.2611249e-38 325 257
0.00717464 0.68199998 -0.020328145 1.2521204e-38 326 257
0.0083704125 0.68199998 -0.020328145 1.2521204e-38 327 257
0.009566186 0.68199998 -0.020328145 1.2797082e-38 328 257
0.01077774 0.68300003 -0.020357953 1.2889278e-38 329 257
0.011975267 0.68300003 -0.020357953 1.2890009e-38 330 257
0.013230653 0.68599999 -0.020447372 1.3074042e-38 331 257
0.014454478 0.68699998 -0.020477179 1.3074039e-38 332 257
0.015659019 0.68699998 -0.020477179 1.3074039e-38 333 257
0.0169372 0.69 -0.020566599 1.3074025e-38 334 257
0.018146999 0.69 -0.020566599 1.3074025e-38 335 257
0.019356798 0.69 -0.020566599 1.3072227e-38 336 257
0.020566599 0.69 -0.020566599 1.3256618e-38 337 257
0.021776399 0.69 -0.020566599 1.344791e-38 338 257
0.022986198 0.69 -0.020566599 1.934843e-38 339 257
0.024195999 0.69 -0.020566599 1.7885958e-38 340 257
-0.054002665 0.69999999 -0.022091998 1.7978521e-38 276 258
-0.052775331 0.69999999 -0.022091998 1.567327e-38 277 258
-0.051400717 0.69800001 -0.02202888 1.0315088e-38 278 258
-0.050176892 0.69800001 -0.02202888 7.6414151e-39 279 258
-0.048882935 0.69700003 -0.02199732 1.0124545e-38 280 258
-0.047592476 0.69599998 -0.021965759 1.003235e-38 281 258
-0.046238903 0.69400001 -0.021902639 1.0307492e-38 282 258
-0.044957221 0.69300002 -0.021871079 1.0215296e-38 283 258
-0.043552797 0.69 -0.021776399 1.058191e-38 284 258
-0.042220265 0.68800002 -0.021713281 1.039752e-38 285 258
-0.040954359 0.68699998 -0.021681719 1.0489345e-38 286 258
-0.039749816 0.68699998 -0.021681719 1.039715e-38 287 258
-0.038376961 0.68400002 -0.02158704 9.6606763e-39 288 258
-0.037177678 0.68400002 -0.02158704 9.4762851e-39 289 258
-0.035925802 0.68300003 -0.02155548 9.1089543e-39 290 258
-0.034677424 0.68199998 -0.021523919 9.4773781e-39 291 258
-0.033383466 0.68000001 -0.0214608 9.9372646e-39 292 258
-0.032191198 0.68000001 -0.0214608 1.021385e-38 293 258
-0.030953348 0.67900002 -0.021429239 1.0763416e-38 294 258
-0.029762832 0.67900002 -0.021429239 1.0579024e-38 295 258
-0.028572321 0.67900002 -0.021429239 9.843976e-39 296 258
-0.027341479 0.67799997 -0.021397678 1.0120564e-38 297 258
-0.026152719 0.67799997 -0.021397678 1.0582965e-38 298 258
-0.024963958 0.67799997 -0.021397678 1.0859552e-38 299 258
-0.023775198 0.67799997 -0.021397678 1.1595308e-38 300 258
-0.022586439 0.67799997 -0.021397678 1.1779337e-38 301 258
-0.021397678 0.67799997 -0.021397678 1.1963734e-38 302 258
-0.020208918 0.67799997 -0.021397678 1.187118e-38 303 258
-0.018964052 0.676 -0.021334561 1.1962662e-38 304 258
-0.017778801 0.676 -0.021334561 1.1962662e-38 305 258
-0.016593546 0.676 -0.021334561 1.2053777e-38 306 258
-0.015408293 0.676 -0.021334561 1.2145974e-38 307 258
-0.014223038 0.676 -0.021334561 1.1870109e-38 308 258
-0.013037786 0.676 -0.021334561 1.1870109e-38 309 258
-0.011852534 0.676 -0.021334561 1.1870465e-38 310 258
-0.01066728 0.676 -0.021334561 1.1870465e-38 311 258
-0.0094820261 0.676 -0.021334561 1.1871173e-38 312 258
-0.0082967728 0.676 -0.021334561 1.1871173e-38 313 258
-0.0071325595 0.67799997 -0.021397678 1.2146679e-38 314 258
-0.0059437994 0.67799997 -0.021397678 1.2146679e-38 315 258
-0.0047620535 0.67900002 -0.021429239 1.233035e-38 316 258
-0.0035715401 0.67900002 -0.021429239 1.2422545e-38 317 258
-0.0023810267 0.67900002 -0.021429239 1.2514739e-38 318 258
-0.0011905134 0.67900002 -0.021429239 1.2514739e-38 319 258
0 0.67900002 -0.021429239 1.2422903e-38 320 258
0.0011922666 0.68000001 -0.0214608 1.2515097e-38 321 258
0.0023845332 0.68000001 -0.0214608 1.2423621e-38 322 258
0.0035767998 0.68000001 -0.0214608 1.260765e-38 323 258
0.0047690663 0.68000001 -0.0214608 1.2335014e-38 324 258
0.0059613334 0.68000001 -0.0214608 1.2519404e-38 325 258
0.0071535995 0.68000001 -0.0214608 1.242936e-38 326 258
0.0083458666 0.68000001 -0.0214608 1.2521913e-38 327 258
0.009566186 0.68199998 -0.021523919 1.2613752e-38 328 258
0.010761959 0.68199998 -0.021523919 1.2797783e-38 329 258
0.011975267 0.68300003 -0.02155548 1.2889631e-38 330 258
0.01319208 0.68400002 -0.02158704 1.2981827e-38 331 258
0.014454478 0.68699998 -0.021681719 1.2981827e-38 332 258
0.015659019 0.68699998 -0.021681719 1.3074022e-38 333 258
0.0169372 0.69 -0.021776399 1.3165495e-38 334 258
0.018146999 0.69 -0.021776399 1.3165495e-38 335 258
0.019356798 0.69 -0.021776399 1.3165144e-38 336 258
0.020566599 0.69 -0.021776399 1.3533928e-38 337 258
0.021776399 0.69 -0.021776399 1.3816336e-38 338 258
0.023019511 0.69099998 -0.021807959 1.9532464e-38 339 258
0.024231065 0.69099998 -0.021807959 1.7794478e-38 340 258
-0.054002665 0.69999999 -0.023319334 1.7978874e-38 276 259
-0.052775331 0.69999999 -0.023319334 1.5673623e-38 277 259
-0.051400717 0.69800001 -0.023252707 1.1052658e-38 278 259
-0.050105009 0.69700003 -0.023219392 8.3789843e-39 279 259
-0.048882935 0.69700003 -0.023219392 1.0122394e-38 280 259
-0.047660861 0.69700003 -0.023219392 1.0030197e-38 281 259
-0.046238903 0.69400001 -0.023119451 1.0214579e-38 282 259
-0.044957221 0.69300002 -0.02308614 1.0214579e-38 283 259
-0.043552797 0.69 -0.022986198 1.0398592e-38 284 259
-0.042220265 0.68800002 -0.022919573 1.02142e-38 285 259
-0.040954359 0.68699998 -0.022886258 1.0580822e-38 286 259
-0.039749816 0.68699998 -0.022886258 1.0303877e-38 287 259
-0.038376961 0.68400002 -0.022786319 9.7518e-39 288 259
-0.037177678 0.68400002 -0.022786319 9.5674087e-39 289 259
-0.035925802 0.68300003 -0.022753006 9.200794e-39 290 259
-0.034677424 0.68199998 -0.022719691 9.3851839e-39 291 259
-0.033383466 0.68000001 -0.022653066 1.012058e-38 292 259
-0.032191198 0.68000001 -0.022653066 1.012058e-38 293 259
-0.030953348 0.67900002 -0.022619752 1.0120211e-38 294 259
-0.029762832 0.67900002 -0.022619752 9.9358185e-39 295 259
-0.028530238 0.67799997 -0.022586439 9.7535782e-39 296 259
-0.027341479 0.67799997 -0.022586439 1.0030167e-38 297 259
-0.026152719 0.67799997 -0.022586439 1.0491494e-38 298 259
-0.024963958 0.67799997 -0.022586439 1.0952472e-38 299 259
-0.023775198 0.67799997 -0.022586439 1.131981e-38 300 259
-0.022586439 0.67799997 -0.022586439 1.1504202e-38 301 259
-0.021397678 0.67799997 -0.022586439 1.1687514e-38 302 259
-0.020208918 0.67799997 -0.022586439 1.1687514e-38 303 259
-0.018964052 0.676 -0.022519812 1.168752e-38 304 259
-0.017778801 0.676 -0.022519812 1.168752e-38 305 259
-0.016593546 0.676 -0.022519812 1.1962309e-38 306 259
-0.015408293 0.676 -0.022519812 1.1962309e-38 307 259
-0.014223038 0.676 -0.022519812 1.1778632e-38 308 259
-0.013037786 0.676 -0.022519812 1.1778632e-38 309 259
-0.011852534 0.676 -0.022519812 1.1778986e-38 310 259
-0.01066728 0.676 -0.022519812 1.1778986e-38 311 259
-0.0094820261 0.676 -0.022519812 1.1871173e-38 312 259
-0.0082967728 0.676 -0.022519812 1.177862e-38 313 259
-0.0071115191 0.676 -0.022519812 1.1962291e-38 314 259
-0.0059437994 0.67799997 -0.022586439 1.1962291e-38 315 259
-0.0047620535 0.67900002 -0.022619752 1.187189e-38 316 259
-0.0035715401 0.67900002 -0.022619752 1.1964085e-38 317 259
-0.0023810267 0.67900002 -0.022619752 1.2239232e-38 318 259
-0.0011905134 0.67900002 -0.022619752 1.2239232e-38 319 259
0 0.67900002 -0.022619752 1.1963726e-38 320 259
0.0011922666 0.68000001 -0.022653066 1.223995e-38 321 259
0.0023845332 0.68000001 -0.022653066 1.2056999e-38 322 259
0.0035767998 0.68000001 -0.022653066 1.224139e-38 323 259
0.0047690663 0.68000001 -0.022653066 1.1876555e-38 324 259
0.0059613334 0.68000001 -0.022653066 1.2153142e-38 325 259
0.0071535995 0.68000001 -0.022653066 1.2246766e-38 326 259
0.0083458666 0.68000001 -0.022653066 1.2154571e-38 327 259
0.009566186 0.68199998 -0.022719691 1.2521557e-38 328 259
0.010761959 0.68199998 -0.022719691 1.2521557e-38 329 259
0.011975267 0.68300003 -0.022753006 1.2613051e-38 330 259
0.01319208 0.68400002 -0.022786319 1.2797082e-38 331 259
0.014475521 0.68800002 -0.022919573 1.2705966e-38 332 259
0.015681813 0.68800002 -0.022919573 1.2705966e-38 333 259
0.016961746 0.69099998 -0.023019511 1.2798167e-38 334 259
0.0181733 0.69099998 -0.023019511 1.3074395e-38 335 259
0.019356798 0.69 -0.022986198 1.307477e-38 336 259
0.020566599 0.69 -0.022986198 1.3535749e-38 337 259
0.021807959 0.69099998 -0.023019511 1.39107e-38 338 259
0.023019511 0.69099998 -0.023019511 1.9350242e-38 339 259
0.0244064 0.69599998 -0.023186078 1.8162183e-38 340 259
-0.054002665 0.69999999 -0.024546666 1.7978518e-38 276 260
-0.052775331 0.69999999 -0.024546666 1.5858017e-38 277 260
-0.051400717 0.69800001 -0.024476532 1.1883137e-38 278 260
-0.050105009 0.69700003 -0.024441468 9.670442e-39 279 260
-0.048812799 0.69599998 -0.0244064 1.0304989e-38 280 260
-0.047455717 0.69400001 -0.024336265 1.0304989e-38 281 260
-0.046238903 0.69400001 -0.024336265 1.0398611e-38 282 260
-0.044957221 0.69300002 -0.024301201 1.0398611e-38 283 260
-0.043552797 0.69 -0.024195999 1.0581907e-38 284 260
-0.042220265 0.68800002 -0.024125867 1.0397876e-38 285 260
-0.040954359 0.68699998 -0.024090799 1.0303529e-38 286 260
-0.039749816 0.68699998 -0.024090799 1.0211332e-38 287 260
-0.038376961 0.68400002 -0.0239856 9.2919134e-39 288 260
-0.037123326 0.68300003 -0.023950534 9.2919134e-39 289 260
-0.035925802 0.68300003 -0.023950534 9.2919134e-39 290 260
-0.034677424 0.68199998 -0.023915464 9.7528916e-39 291 260
-0.033383466 0.68000001 -0.023845334 1.0120936e-38 292 260
-0.032191198 0.68000001 -0.023845334 1.0028381e-38 293 260
-0.030998932 0.68000001 -0.023845334 1.0028367e-38 294 260
-0.029762832 0.67900002 -0.023810266 9.9361716e-39 295 260
-0.028530238 0.67799997 -0.023775198 9.9390429e-39 296 260
-0.027341479 0.67799997 -0.023775198 1.021563e-38 297 260
-0.026152719 0.67799997 -0.023775198 1.0950671e-38 298 260
-0.024963958 0.67799997 -0.023775198 1.1042867e-38 299 260
-0.023775198 0.67799997 -0.023775198 1.1411652e-38 300 260
-0.022586439 0.67799997 -0.023775198 1.1503849e-38 301 260
-0.021397678 0.67799997 -0.023775198 1.1779728e-38 302 260
-0.020208918 0.67799997 -0.023775198 1.1779728e-38 303 260
-0.018964052 0.676 -0.023705067 1.1779009e-38 304 260
-0.017778801 0.676 -0.023705067 1.1779009e-38 305 260
-0.016593546 0.676 -0.023705067 1.177936e-38 306 260
-0.015408293 0.676 -0.023705067 1.1687164e-38 307 260
-0.014223038 0.676 -0.023705067 1.1687517e-38 308 260
-0.013037786 0.676 -0.023705067 1.159532e-38 309 260
-0.011852534 0.676 -0.023705067 1.1870832e-38 310 260
-0.01066728 0.676 -0.023705067 1.1870832e-38 311 260
-0.0094820261 0.676 -0.023705067 1.1962659e-38 312 260
-0.0082967728 0.676 -0.023705067 1.1870462e-38 313 260
-0.0071115191 0.676 -0.023705067 1.1961573e-38 314 260
-0.0059437994 0.67799997 -0.023775198 1.2054126e-38 315 260
-0.0047620535 0.67900002 -0.023810266 1.1963008e-38 316 260
-0.0035715401 0.67900002 -0.023810266 1.2147397e-38 317 260
-0.0023810267 0.67900002 -0.023810266 1.2238515e-38 318 260
-0.0011905134 0.67900002 -0.023810266 1.2146321e-38 319 260
0 0.67900002 -0.023810266 1.2054844e-38 320 260
0.0011922666 0.68000001 -0.023845334 1.2147038e-38 321 260
0.0023845332 0.68000001 -0.023845334 1.1964443e-38 322 260
0.0035767998 0.68000001 -0.023845334 1.214919e-38 323 260
0.0047690663 0.68000001 -0.023845334 1.2059507e-38 324 260
0.0059613334 0.68000001 -0.023845334 1.2244255e-38 325 260
0.0071535995 0.68000001 -0.023845334 1.2520478e-38 326 260
0.0083704125 0.68199998 -0.023915464 1.2520478e-38 327 260
0.009566186 0.68199998 -0.023915464 1.2519761e-38 328 260
0.010761959 0.68199998 -0.023915464 1.2611955e-38 329 260
0.011975267 0.68300003 -0.023950534 1.2704154e-38 330 260
0.013230653 0.68599999 -0.024055731 1.2796349e-38 331 260
0.014475521 0.68800002 -0.024125867 1.2796714e-38 332 260
0.015681813 0.68800002 -0.024125867 1.2889268e-38 333 260
0.0169372 0.69 -0.024195999 1.3165142e-38 334 260
0.0181733 0.69099998 -0.024231065 1.3257337e-38 335 260
0.019384852 0.69099998 -0.024231065 1.2889659e-38 336 260
0.020596405 0.69099998 -0.024231065 1.3811257e-38 337 260
0.021807959 0.69099998 -0.024231065 1.4004696e-38 338 260
0.02308614 0.69300002 -0.024301201 1.9443879e-38 339 260
0.0244064 0.69599998 -0.0244064 1.8162536e-38 340 260
-0.054002665 0.69999999 -0.025773998 1.8438773e-38 276 261
-0.052775331 0.69999999 -0.025773998 1.6502665e-38 277 261
-0.051400717 0.69800001 -0.025700359 1.2070049e-38 278 261
-0.050105009 0.69700003 -0.025663542 9.7651585e-39 279 261
-0.048812799 0.69599998 -0.025626717 9.9394478e-39 280 261
-0.047455717 0.69400001 -0.025553079 9.4788284e-39 281 261
-0.046238903 0.69400001 -0.025553079 1.0307492e-38 282 261
-0.044957221 0.69300002 -0.02551626 1.0215296e-38 283 261
-0.043552797 0.69 -0.025405798 1.0673386e-38 284 261
-0.042220265 0.68800002 -0.02533216 1.0396441e-38 285 261
-0.041013971 0.68800002 -0.02533216 1.0303529e-38 286 261
-0.039749816 0.68699998 -0.025295338 1.0118778e-38 287 261
-0.038376961 0.68400002 -0.025184879 9.3844622e-39 288 261
-0.037123326 0.68300003 -0.02514806 9.2922666e-39 289 261
-0.035873197 0.68199998 -0.025111238 9.3851811e-39 290 261
-0.034677424 0.68199998 -0.025111238 9.5695737e-39 291 261
-0.033383466 0.68000001 -0.025037598 1.0304601e-38 292 261
-0.032191198 0.68000001 -0.025037598 1.0120211e-38 293 261
-0.030953348 0.67900002 -0.025000781 1.0028723e-38 294 261
-0.029718997 0.67799997 -0.024963958 1.0120917e-38 295 261
-0.028530238 0.67799997 -0.024963958 1.0306749e-38 296 261
-0.027341479 0.67799997 -0.024963958 1.0583337e-38 297 261
-0.026152719 0.67799997 -0.024963958 1.104216e-38 298 261
-0.024963958 0.67799997 -0.024963958 1.1319106e-38 299 261
-0.023775198 0.67799997 -0.024963958 1.1228357e-38 300 261
-0.022586439 0.67799997 -0.024963958 1.1320552e-38 301 261
-0.021397678 0.67799997 -0.024963958 1.150387e-38 302 261
-0.020208918 0.67799997 -0.024963958 1.1596066e-38 303 261
-0.018964052 0.676 -0.024890319 1.1687535e-38 304 261
-0.017778801 0.676 -0.024890319 1.1687535e-38 305 261
-0.016593546 0.676 -0.024890319 1.1779363e-38 306 261
-0.015408293 0.676 -0.024890319 1.1687167e-38 307 261
-0.014223038 0.676 -0.024890319 1.1687164e-38 308 261
-0.013037786 0.676 -0.024890319 1.1594967e-38 309 261
-0.011852534 0.676 -0.024890319 1.1687164e-38 310 261
-0.01066728 0.676 -0.024890319 1.1687164e-38 311 261
-0.0094820261 0.676 -0.024890319 1.1687868e-38 312 261
-0.0082967728 0.676 -0.024890319 1.1503475e-38 313 261
-0.0071325595 0.67799997 -0.024963958 1.1686784e-38 314 261
-0.0059437994 0.67799997 -0.024963958 1.1778979e-38 315 261
-0.0047620535 0.67900002 -0.025000781 1.1779696e-38 316 261
-0.0035715401 0.67900002 -0.025000781 1.187189e-38 317 261
-0.0023810267 0.67900002 -0.025000781 1.1871173e-38 318 261
-0.0011905134 0.67900002 -0.025000781 1.1871173e-38 319 261
0 0.67900002 -0.025000781 1.1779337e-38 320 261
0.0011922666 0.68000001 -0.025037598 1.187189e-38 321 261
0.0023845332 0.68000001 -0.025037598 1.1689295e-38 322 261
0.0035767998 0.68000001 -0.025037598 1.1873684e-38 323 261
0.0047690663 0.68000001 -0.025037598 1.1784002e-38 324 261
0.0059613334 0.68000001 -0.025037598 1.1968754e-38 325 261
0.00717464 0.68199998 -0.025111238 1.1969472e-38 326 261
0.0083704125 0.68199998 -0.025111238 1.1969472e-38 327 261
0.009566186 0.68199998 -0.025111238 1.2153498e-38 328 261
0.01077774 0.68300003 -0.02514806 1.2337529e-38 329 261
0.011975267 0.68300003 -0.02514806 1.2521557e-38 330 261
0.013230653 0.68599999 -0.025258519 1.2613754e-38 331 261
0.014475521 0.68800002 -0.02533216 1.2613404e-38 332 261
0.015681813 0.68800002 -0.02533216 1.2797435e-38 333 261
0.0169372 0.69 -0.025405798 1.2798883e-38 334 261
0.0181733 0.69099998 -0.025442619 1.2983275e-38 335 261
0.019384852 0.69099998 -0.025442619 1.3074773e-38 336 261
0.020596405 0.69099998 -0.025442619 1.3904174e-38 337 261
0.021871079 0.69300002 -0.02551626 1.4464955e-38 338 261
0.02308614 0.69300002 -0.02551626 1.9443159e-38 339 261
0.0244064 0.69599998 -0.025626717 1.8162539e-38 340 261
-0.054002665 0.69999999 -0.027001332 1.8531694e-38 276 262
-0.052775331 0.69999999 -0.027001332 1.7148758e-38 277 262
-0.051400717 0.69800001 -0.026924185 1.2348434e-38 278 262
-0.050105009 0.69700003 -0.026885614 9.6747608e-39 279 262
-0.048812799 0.69599998 -0.026847038 9.9416016e-39 280 262
-0.047455717 0.69400001 -0.026769891 9.664656e-39 281 262
-0.046238903 0.69400001 -0.026769891 1.0492242e-38 282 262
-0.044957221 0.69300002 -0.02673132 1.0307492e-38 283 262
-0.043552797 0.69 -0.026615599 1.067446e-38 284 262
-0.042342998 0.69 -0.026615599 1.0305677e-38 285 262
-0.041013971 0.68800002 -0.026538454 1.0121286e-38 286 262
-0.039749816 0.68699998 -0.026499879 1.002909e-38 287 262
-0.038376961 0.68400002 -0.02638416 9.4770109e-39 288 262
-0.037123326 0.68300003 -0.026345588 9.4770109e-39 289 262
-0.035873197 0.68199998 -0.026307013 9.4777298e-39 290 262
-0.034677424 0.68199998 -0.026307013 9.7543181e-39 291 262
-0.033383466 0.68000001 -0.026229866 1.0305677e-38 292 262
-0.032191198 0.68000001 -0.026229866 1.0213482e-38 293 262
-0.030953348 0.67900002 -0.026191294 1.03975e-38 294 262
-0.029718997 0.67799997 -0.026152719 1.0489696e-38 295 262
-0.028530238 0.67799997 -0.026152719 1.0674454e-38 296 262
-0.027341479 0.67799997 -0.026152719 1.0767008e-38 297 262
-0.026152719 0.67799997 -0.026152719 1.0951049e-38 298 262
-0.024963958 0.67799997 -0.026152719 1.1319473e-38 299 262
-0.023775198 0.67799997 -0.026152719 1.1228725e-38 300 262
-0.022586439 0.67799997 -0.026152719 1.1320921e-38 301 262
-0.021397678 0.67799997 -0.026152719 1.1504239e-38 302 262
-0.020208918 0.67799997 -0.026152719 1.168863e-38 303 262
-0.018964052 0.676 -0.026075572 1.1596068e-38 304 262
-0.017778801 0.676 -0.026075572 1.1596068e-38 305 262
-0.016593546 0.676 -0.026075572 1.1779731e-38 306 262
-0.015408293 0.676 -0.026075572 1.1503504e-38 307 262
-0.014223038 0.676 -0.026075572 1.1686814e-38 308 262
-0.013037786 0.676 -0.026075572 1.1594618e-38 309 262
-0.011852534 0.676 -0.026075572 1.1411303e-38 310 262
-0.01066728 0.676 -0.026075572 1.1503499e-38 311 262
-0.0094820261 0.676 -0.026075572 1.1595317e-38 312 262
-0.0082967728 0.676 -0.026075572 1.1503122e-38 313 262
-0.0071115191 0.676 -0.026075572 1.1594231e-38 314 262
-0.0059437994 0.67799997 -0.026152719 1.1594231e-38 315 262
-0.0047620535 0.67900002 -0.026191294 1.1686426e-38 316 262
-0.0035715401 0.67900002 -0.026191294 1.177862e-38 317 262
-0.0023810267 0.67900002 -0.026191294 1.1779339e-38 318 262
-0.0011922666 0.68000001 -0.026229866 1.1594949e-38 319 262
0 0.68000001 -0.026229866 1.1503831e-38 320 262
0.0011922666 0.68000001 -0.026229866 1.1503831e-38 321 262
0.0023845332 0.68000001 -0.026229866 1.1596384e-38 322 262
0.0035767998 0.68000001 -0.026229866 1.1688937e-38 323 262
0.0047690663 0.68000001 -0.026229866 1.169073e-38 324 262
0.005978866 0.68199998 -0.026307013 1.1966954e-38 325 262
0.00717464 0.68199998 -0.026307013 1.1785439e-38 326 262
0.0083704125 0.68199998 -0.026307013 1.1785439e-38 327 262
0.009566186 0.68199998 -0.026307013 1.2429362e-38 328 262
0.01077774 0.68300003 -0.026345588 1.2429362e-38 329 262
0.011975267 0.68300003 -0.026345588 1.270487e-38 330 262
0.013230653 0.68599999 -0.026461305 1.270487e-38 331 262
0.014475521 0.68800002 -0.026538454 1.2704163e-38 332 262
0.015681813 0.68800002 -0.026538454 1.298111e-38 333 262
0.016961746 0.69099998 -0.026654173 1.2798527e-38 334 262
0.0181733 0.69099998 -0.026654173 1.3075474e-38 335 262
0.01944096 0.69300002 -0.02673132 1.3259158e-38 336 262
0.020656019 0.69300002 -0.02673132 1.4273311e-38 337 262
0.021871079 0.69300002 -0.02673132 1.4927728e-38 338 262
0.023186078 0.69599998 -0.026847038 1.935276e-38 339 262
0.0244064 0.69599998 -0.026847038 1.8162186e-38 340 262
-0.054002665 0.69999999 -0.028228667 1.8531692e-38 276 263
-0.052775331 0.69999999 -0.028228667 1.7978518e-38 277 263
-0.051400717 0.69800001 -0.028148014 1.4191625e-38 278 263
-0.050105009 0.69700003 -0.028107686 1.0319409e-38 279 263
-0.048812799 0.69599998 -0.028067358 1.0586605e-38 280 263
-0.047455717 0.69400001 -0.027986705 1.0217463e-38 281 263
-0.046238903 0.69400001 -0.027986705 1.0951415e-38 282 263
-0.044957221 0.69300002 -0.027946379 1.085922e-38 283 263
-0.043552797 0.69 -0.027825398 1.0766653e-38 284 263
-0.042342998 0.69 -0.027825398 1.058226e-38 285 263
-0.041013971 0.68800002 -0.027744746 1.030603e-38 286 263
-0.039749816 0.68699998 -0.027704418 1.0121639e-38 287 263
-0.038376961 0.68400002 -0.027583439 9.7525062e-39 288 263
-0.037123326 0.68300003 -0.027543113 9.6603106e-39 289 263
-0.035873197 0.68199998 -0.027502786 9.4770081e-39 290 263
-0.034677424 0.68199998 -0.027502786 9.8457907e-39 291 263
-0.033383466 0.68000001 -0.027422134 1.0580822e-38 292 263
-0.032191198 0.68000001 -0.027422134 1.0764853e-38 293 263
-0.030953348 0.67900002 -0.027381808 1.0857754e-38 294 263
-0.029718997 0.67799997 -0.027341479 1.0857754e-38 295 263
-0.028530238 0.67799997 -0.027341479 1.0950318e-38 296 263
-0.027341479 0.67799997 -0.027341479 1.0950318e-38 297 263
-0.026152719 0.67799997 -0.027341479 1.0951412e-38 298 263
-0.024963958 0.67799997 -0.027341479 1.1136164e-38 299 263
-0.023775198 0.67799997 -0.027341479 1.104506e-38 300 263
-0.022586439 0.67799997 -0.027341479 1.1137255e-38 301 263
-0.021397678 0.67799997 -0.027341479 1.1321286e-38 302 263
-0.020208918 0.67799997 -0.027341479 1.1413482e-38 303 263
-0.018964052 0.676 -0.027260827 1.1596429e-38 304 263
-0.017778801 0.676 -0.027260827 1.1504233e-38 305 263
-0.016593546 0.676 -0.027260827 1.1596419e-38 306 263
-0.015408293 0.676 -0.027260827 1.1411669e-38 307 263
-0.014223038 0.676 -0.027260827 1.1411659e-38 308 263
-0.013037786 0.676 -0.027260827 1.1319103e-38 309 263
-0.011887599 0.67799997 -0.027341479 1.1319459e-38 310 263
-0.010698839 0.67799997 -0.027341479 1.1319459e-38 311 263
-0.0094820261 0.676 -0.027260827 1.1410929e-38 312 263
-0.0082967728 0.676 -0.027260827 1.1226539e-38 313 263
-0.0071115191 0.676 -0.027260827 1.141056e-38 314 263
-0.0059437994 0.67799997 -0.027341479 1.141056e-38 315 263
-0.0047620535 0.67900002 -0.027381808 1.141056e-38 316 263
-0.0035715401 0.67900002 -0.027381808 1.1594952e-38 317 263
-0.0023845332 0.68000001 -0.027422134 1.1594952e-38 318 263
-0.0011922666 0.68000001 -0.027422134 1.1594952e-38 319 263
0 0.68000001 -0.027422134 1.1503831e-38 320 263
0.0011922666 0.68000001 -0.027422134 1.1411637e-38 321 263
0.0023915465 0.68199998 -0.027502786 1.1503113e-38 322 263
