# .PCD v.7 - Point Cloud Data file format
FIELDS x y z rgb imX imY
SIZE 4 4 4 4 4 4
TYPE F F F F F F
COUNT 1 1 1 1 1 1
WIDTH 836
HEIGHT 1
VIEWPOINT 0 0 0 1 0 0 0
POINTS 836
DATA ascii
0.00133078 0.759 -0.0079846792 1.2049482e-38 321 246
0.0026685731 0.76099998 -0.0080057196 1.1867245e-38 322 246
0.0040028598 0.76099998 -0.0080057196 1.1774691e-38 323 246
0.0053441599 0.76200002 -0.0080162399 1.1499902e-38 324 246
0.0066801999 0.76200002 -0.0080162399 1.1499902e-38 325 246
0.0080162399 0.76200002 -0.0080162399 1.1316239e-38 326 246
0.0093522798 0.76200002 -0.0080162399 1.1316239e-38 327 246
0.01068832 0.76200002 -0.0080162399 1.1316239e-38 328 246
0.01205592 0.764 -0.0080372803 1.1316239e-38 329 246
0.013395466 0.764 -0.0080372803 1.1316236e-38 330 246
0.014773586 0.76599997 -0.0080583189 1.1408432e-38 331 246
0.01613768 0.76700002 -0.00806884 1.1316608e-38 332 246
0.017482487 0.76700002 -0.00806884 1.1593194e-38 333 246
0.018876385 0.76899999 -0.0080898795 1.0952158e-38 334 246
0.0202247 0.76899999 -0.0080898795 1.1413136e-38 335 246
0.021685226 0.773 -0.0081319595 1.0956848e-38 336 246
0.02307036 0.77399999 -0.0081424797 1.2800402e-38 337 246
0.02442744 0.77399999 -0.0081424797 1.336224e-38 338 246
-0.052168678 0.78299999 -0.0096100196 1.8347283e-38 282 247
-0.050666075 0.78100002 -0.0095854728 1.548886e-38 283 247
-0.049233593 0.77999997 -0.0095731998 1.2713607e-38 284 247
-0.047620531 0.77600002 -0.009524107 1.0316162e-38 285 247
-0.046259947 0.77600002 -0.009524107 1.077353e-38 286 247
-0.044783637 0.77399999 -0.0094995592 9.8515738e-39 287 247
-0.043370452 0.773 -0.0094872871 1.0399709e-38 288 247
-0.04190642 0.77100003 -0.0094627403 1.0307154e-38 289 247
-0.0404494 0.76899999 -0.0094381925 1.0582652e-38 290 247
-0.038999394 0.76700002 -0.0094136465 1.0674848e-38 291 247
-0.037654586 0.76700002 -0.0094136465 1.0858866e-38 292 247
-0.036262438 0.76599997 -0.0094013726 1.0858866e-38 293 247
-0.034919381 0.76599997 -0.0094013726 1.0675198e-38 294 247
-0.033576332 0.76599997 -0.0094013726 1.0675198e-38 295 247
-0.032233275 0.76599997 -0.0094013726 1.0858516e-38 296 247
-0.030809574 0.764 -0.0093768267 1.0858516e-38 297 247
-0.029470026 0.764 -0.0093768267 1.0674482e-38 298 247
-0.028056841 0.76200002 -0.0093522798 1.0582287e-38 299 247
-0.026685731 0.76099998 -0.0093400059 1.0398261e-38 300 247
-0.025351444 0.76099998 -0.0093400059 1.0121674e-38 301 247
-0.024017159 0.76099998 -0.0093400059 1.0029128e-38 302 247
-0.022682872 0.76099998 -0.0093400059 9.9369325e-39 303 247
-0.021348584 0.76099998 -0.0093400059 1.0487583e-38 304 247
-0.020014299 0.76099998 -0.0093400059 1.0487583e-38 305 247
-0.018680012 0.76099998 -0.0093400059 1.039539e-38 306 247
-0.017345725 0.76099998 -0.0093400059 1.039539e-38 307 247
-0.015969358 0.759 -0.00931546 1.0211722e-38 308 247
-0.014638579 0.759 -0.00931546 1.0211722e-38 309 247
-0.0133078 0.759 -0.00931546 1.030427e-38 310 247
-0.01197702 0.759 -0.00931546 1.0396466e-38 311 247
-0.01064624 0.759 -0.00931546 1.1131504e-38 312 247
-0.00931546 0.759 -0.00931546 1.1316254e-38 313 247
-0.0079636406 0.75700003 -0.0092909131 1.1683943e-38 314 247
-0.0066363667 0.75700003 -0.0092909131 1.1776138e-38 315 247
-0.0053090933 0.75700003 -0.0092909131 1.223567e-38 316 247
-0.0039923396 0.759 -0.00931546 1.2143475e-38 317 247
-0.00266156 0.759 -0.00931546 1.2325715e-38 318 247
-0.00133078 0.759 -0.00931546 1.2141684e-38 319 247
0 0.759 -0.00931546 1.1591031e-38 320 247
0.00133078 0.759 -0.00931546 1.1591031e-38 321 247
0.0026685731 0.76099998 -0.0093400059 1.1407356e-38 322 247
0.0040028598 0.76099998 -0.0093400059 1.1499551e-38 323 247
0.0053441599 0.76200002 -0.0093522798 1.1407356e-38 324 247
0.0066801999 0.76200002 -0.0093522798 1.1315159e-38 325 247
0.0080162399 0.76200002 -0.0093522798 1.0947825e-38 326 247
0.0093522798 0.76200002 -0.0093522798 1.0947825e-38 327 247
0.01068832 0.76200002 -0.0093522798 1.0948178e-38 328 247
0.01205592 0.764 -0.0093768267 1.1132211e-38 329 247
0.013430533 0.76599997 -0.0094013726 1.0949261e-38 330 247
0.014773586 0.76599997 -0.0094013726 1.1041816e-38 331 247
0.01613768 0.76700002 -0.0094136465 1.0949993e-38 332 247
0.017528072 0.76899999 -0.0094381925 1.1226221e-38 333 247
0.018876385 0.76899999 -0.0094381925 1.0769211e-38 334 247
0.0202247 0.76899999 -0.0094381925 1.1137994e-38 335 247
0.021685226 0.773 -0.0094872871 1.1048688e-38 336 247
0.02307036 0.77399999 -0.0094995592 1.3445774e-38 337 247
-0.052035429 0.78100002 -0.010954826 1.7887394e-38 282 248
-0.050601196 0.77999997 -0.010940799 1.6135677e-38 283 248
-0.049233593 0.77999997 -0.010940799 1.4744078e-38 284 248
-0.047620531 0.77600002 -0.010884693 1.0779666e-38 285 248
-0.046259947 0.77600002 -0.010884693 1.0497666e-38 286 248
-0.044783637 0.77399999 -0.01085664 9.6679056e-39 287 248
-0.043370452 0.773 -0.010842613 1.0491904e-38 288 248
-0.04190642 0.77100003 -0.01081456 1.0399709e-38 289 248
-0.040554602 0.77100003 -0.01081456 1.0399337e-38 290 248
-0.039101087 0.76899999 -0.010786506 1.0399337e-38 291 248
-0.037654586 0.76700002 -0.010758453 1.0582284e-38 292 248
-0.036309779 0.76700002 -0.010758453 1.0582284e-38 293 248
-0.034919381 0.76599997 -0.010744425 1.0581933e-38 294 248
-0.033576332 0.76599997 -0.010744425 1.0581933e-38 295 248
-0.032233275 0.76599997 -0.010744425 1.0764176e-38 296 248
-0.030809574 0.764 -0.010716373 1.0948208e-38 297 248
-0.029470026 0.764 -0.010716373 1.0490103e-38 298 248
-0.028020019 0.76099998 -0.010674292 1.0213877e-38 299 248
-0.026685731 0.76099998 -0.010674292 9.8468879e-39 300 248
-0.025351444 0.76099998 -0.010674292 9.7543335e-39 301 248
-0.024017159 0.76099998 -0.010674292 1.0028762e-38 302 248
-0.022682872 0.76099998 -0.010674292 1.0028762e-38 303 248
-0.021348584 0.76099998 -0.010674292 1.039574e-38 304 248
-0.020014299 0.76099998 -0.010674292 1.0303544e-38 305 248
-0.018680012 0.76099998 -0.010674292 1.0120232e-38 306 248
-0.017345725 0.76099998 -0.010674292 9.9354822e-39 307 248
-0.015969358 0.759 -0.01064624 1.0026962e-38 308 248
-0.014638579 0.759 -0.01064624 1.0119157e-38 309 248
-0.0133078 0.759 -0.01064624 1.0120229e-38 310 248
-0.01197702 0.759 -0.01064624 1.0120229e-38 311 248
-0.01064624 0.759 -0.01064624 1.0763434e-38 312 248
-0.00931546 0.759 -0.01064624 1.0947825e-38 313 248
-0.0079636406 0.75700003 -0.010618187 1.1408788e-38 314 248
-0.0066363667 0.75700003 -0.010618187 1.1592819e-38 315 248
-0.0053090933 0.75700003 -0.010618187 1.1959438e-38 316 248
-0.0039923396 0.759 -0.01064624 1.1867242e-38 317 248
-0.00266156 0.759 -0.01064624 1.1958008e-38 318 248
-0.00133078 0.759 -0.01064624 1.1958008e-38 319 248
0 0.76099998 -0.010674292 1.1681794e-38 320 248
0.0013342865 0.76099998 -0.010674292 1.1681794e-38 321 248
0.0026685731 0.76099998 -0.010674292 1.122369e-38 322 248
0.0040028598 0.76099998 -0.010674292 1.122369e-38 323 248
0.0053371461 0.76099998 -0.010674292 1.1131488e-38 324 248
0.0066714329 0.76099998 -0.010674292 1.1039292e-38 325 248
0.0080162399 0.76200002 -0.01068832 1.0855627e-38 326 248
0.0093522798 0.76200002 -0.01068832 1.0855627e-38 327 248
0.01068832 0.76200002 -0.01068832 1.0856345e-38 328 248
0.012087479 0.76599997 -0.010744425 1.0948542e-38 329 248
0.013430533 0.76599997 -0.010744425 1.0948542e-38 330 248
0.014792874 0.76700002 -0.010758453 1.1041097e-38 331 248
0.01613768 0.76700002 -0.010758453 1.1133661e-38 332 248
0.017528072 0.76899999 -0.010786506 1.1410249e-38 333 248
0.018876385 0.76899999 -0.010786506 1.0861407e-38 334 248
0.0202247 0.76899999 -0.010786506 1.1230189e-38 335 248
0.021685226 0.773 -0.010842613 1.1047974e-38 336 248
-0.052035429 0.78100002 -0.01232418 1.7794122e-38 282 249
-0.050601196 0.77999997 -0.012308398 1.6780331e-38 283 249
-0.049233593 0.77999997 -0.012308398 1.5944065e-38 284 249
-0.047620531 0.77600002 -0.01224528 1.1334282e-38 285 249
-0.046140719 0.77399999 -0.01221372 1.1049041e-38 286 249
-0.044783637 0.77399999 -0.01221372 1.0495868e-38 287 249
-0.043370452 0.773 -0.012197939 1.0677016e-38 288 249
-0.042015124 0.773 -0.012197939 1.0308592e-38 289 249
-0.040554602 0.77100003 -0.01216638 1.0215309e-38 290 249
-0.039101087 0.76899999 -0.012134819 1.0031278e-38 291 249
-0.03775277 0.76899999 -0.012134819 1.0121677e-38 292 249
-0.036309779 0.76700002 -0.01210326 1.0121677e-38 293 249
-0.034919381 0.76599997 -0.012087479 1.0121324e-38 294 249
-0.033576332 0.76599997 -0.012087479 1.0029128e-38 295 249
-0.032233275 0.76599997 -0.012087479 1.0212443e-38 296 249
-0.030809574 0.764 -0.01205592 1.0212443e-38 297 249
-0.029354304 0.76099998 -0.012008579 9.8465347e-39 298 249
-0.028020019 0.76099998 -0.012008579 9.8465347e-39 299 249
-0.026685731 0.76099998 -0.012008579 9.8458131e-39 300 249
-0.025351444 0.76099998 -0.012008579 9.7536174e-39 301 249
-0.024017159 0.76099998 -0.012008579 9.9362108e-39 302 249
-0.022682872 0.76099998 -0.012008579 9.9362108e-39 303 249
-0.021348584 0.76099998 -0.012008579 1.0119876e-38 304 249
-0.020014299 0.76099998 -0.012008579 1.0119876e-38 305 249
-0.018680012 0.76099998 -0.012008579 9.935485e-39 306 249
-0.017345725 0.76099998 -0.012008579 9.7514524e-39 307 249
-0.016011439 0.76099998 -0.012008579 9.3841119e-39 308 249
-0.014638579 0.759 -0.01197702 9.4763075e-39 309 249
-0.0133078 0.759 -0.01197702 9.3844748e-39 310 249
-0.01197702 0.759 -0.01197702 9.4770306e-39 311 249
-0.01064624 0.759 -0.01197702 9.8450872e-39 312 249
-0.00931546 0.759 -0.01197702 1.0029478e-38 313 249
-0.0079846792 0.759 -0.01197702 1.0765586e-38 314 249
-0.0066538998 0.759 -0.01197702 1.0765586e-38 315 249
-0.0053231199 0.759 -0.01197702 1.1591381e-38 316 249
-0.0039923396 0.759 -0.01197702 1.1499186e-38 317 249
-0.00266156 0.759 -0.01197702 1.1406635e-38 318 249
-0.00133078 0.759 -0.01197702 1.1498832e-38 319 249
0 0.76099998 -0.012008579 1.1407003e-38 320 249
0.0013342865 0.76099998 -0.012008579 1.1314805e-38 321 249
0.0026685731 0.76099998 -0.012008579 1.0948542e-38 322 249
0.0040028598 0.76099998 -0.012008579 1.076415e-38 323 249
0.0053371461 0.76099998 -0.012008579 1.0855627e-38 324 249
0.0066714329 0.76099998 -0.012008579 1.0763431e-38 325 249
0.0080162399 0.76200002 -0.01202436 1.0580484e-38 326 249
0.0093522798 0.76200002 -0.01202436 1.0580484e-38 327 249
0.010716373 0.764 -0.01205592 1.0580487e-38 328 249
0.012087479 0.76599997 -0.012087479 1.0580487e-38 329 249
0.013430533 0.76599997 -0.012087479 1.0765602e-38 330 249
0.014792874 0.76700002 -0.01210326 1.0765602e-38 331 249
0.01613768 0.76700002 -0.01210326 1.067557e-38 332 249
0.017528072 0.76899999 -0.012134819 1.0952158e-38 333 249
0.018876385 0.76899999 -0.012134819 1.0586984e-38 334 249
0.0202247 0.76899999 -0.012134819 1.1232353e-38 335 249
-0.050601196 0.77999997 -0.013675999 1.6872892e-38 283 250
-0.049107358 0.778 -0.013640933 1.6500124e-38 284 250
-0.047620531 0.77600002 -0.013605867 1.2074734e-38 285 250
-0.046140719 0.77399999 -0.013570799 1.1694057e-38 286 250
-0.044783637 0.77399999 -0.013570799 1.0680265e-38 287 250
-0.043370452 0.773 -0.013553266 1.0403306e-38 288 250
-0.042015124 0.773 -0.013553266 1.0034164e-38 289 250
-0.0406598 0.773 -0.013553266 9.8486871e-39 290 250
-0.03920278 0.77100003 -0.013518199 9.6639372e-39 291 250
-0.03775277 0.76899999 -0.013483133 9.7536174e-39 292 250
-0.036309779 0.76700002 -0.013448066 9.6614218e-39 293 250
-0.034964975 0.76700002 -0.013448066 9.5688731e-39 294 250
-0.033576332 0.76599997 -0.013430533 9.4766774e-39 295 250
-0.032233275 0.76599997 -0.013430533 9.568157e-39 296 250
-0.030809574 0.764 -0.013395466 9.7521881e-39 297 250
-0.029354304 0.76099998 -0.013342866 9.3862797e-39 298 250
-0.028020019 0.76099998 -0.013342866 9.4784753e-39 299 250
-0.026685731 0.76099998 -0.013342866 9.5699451e-39 300 250
-0.025351444 0.76099998 -0.013342866 9.5699451e-39 301 250
-0.024017159 0.76099998 -0.013342866 9.8440152e-39 302 250
-0.022682872 0.76099998 -0.013342866 9.6596226e-39 303 250
-0.021348584 0.76099998 -0.013342866 9.7510993e-39 304 250
-0.020014299 0.76099998 -0.013342866 9.7510993e-39 305 250
-0.018680012 0.76099998 -0.013342866 9.6589009e-39 306 250
-0.017345725 0.76099998 -0.013342866 9.6589009e-39 307 250
-0.016011439 0.76099998 -0.013342866 9.3841119e-39 308 250
-0.014677152 0.76099998 -0.013342866 9.3841119e-39 309 250
-0.013342866 0.76099998 -0.013342866 9.4748726e-39 310 250
-0.01197702 0.759 -0.0133078 9.4748726e-39 311 250
-0.01064624 0.759 -0.0133078 9.4763047e-39 312 250
-0.00931546 0.759 -0.0133078 9.7528916e-39 313 250
-0.0079846792 0.759 -0.0133078 1.0212778e-38 314 250
-0.0066538998 0.759 -0.0133078 1.0304974e-38 315 250
-0.0053231199 0.759 -0.0133078 1.1038576e-38 316 250
-0.0039923396 0.759 -0.0133078 1.1038576e-38 317 250
-0.0026685731 0.76099998 -0.013342866 1.1130772e-38 318 250
-0.0013342865 0.76099998 -0.013342866 1.1314803e-38 319 250
0 0.76099998 -0.013342866 1.1314803e-38 320 250
0.0013342865 0.76099998 -0.013342866 1.1314803e-38 321 250
0.0026685731 0.76099998 -0.013342866 1.076415e-38 322 250
0.0040028598 0.76099998 -0.013342866 1.0580119e-38 323 250
0.0053441599 0.76200002 -0.0133604 1.0396446e-38 324 250
0.0066801999 0.76200002 -0.0133604 1.0396446e-38 325 250
0.0080162399 0.76200002 -0.0133604 1.0396093e-38 326 250
0.0093522798 0.76200002 -0.0133604 1.0488289e-38 327 250
0.010716373 0.764 -0.013395466 1.0487936e-38 328 250
0.012087479 0.76599997 -0.013430533 1.0672328e-38 329 250
0.013448066 0.76700002 -0.013448066 1.0581936e-38 330 250
0.014792874 0.76700002 -0.013448066 1.0674132e-38 331 250
0.01613768 0.76700002 -0.013448066 1.0584104e-38 332 250
0.017528072 0.76899999 -0.013483133 1.0952526e-38 333 250
0.018876385 0.76899999 -0.013483133 1.0588786e-38 334 250
0.020277301 0.77100003 -0.013518199 1.1418546e-38 335 250
-0.049107358 0.778 -0.015005025 1.6409021e-38 284 251
-0.047497798 0.77399999 -0.014927879 1.345912e-38 285 251
-0.046140719 0.77399999 -0.014927879 1.2894046e-38 286 251
-0.044783637 0.77399999 -0.014927879 1.0405123e-38 287 251
-0.043426558 0.77399999 -0.014927879 1.0128882e-38 288 251
-0.042015124 0.773 -0.014908593 9.6679056e-39 289 251
-0.0406598 0.773 -0.014908593 9.5731919e-39 290 251
-0.03920278 0.77100003 -0.01487002 9.1122137e-39 291 251
-0.03775277 0.76899999 -0.014831445 9.294084e-39 292 251
-0.036309779 0.76700002 -0.014792874 9.294084e-39 293 251
-0.034964975 0.76700002 -0.014792874 9.2008094e-39 294 251
-0.033576332 0.76599997 -0.014773586 9.1086138e-39 295 251
-0.032233275 0.76599997 -0.014773586 9.1078949e-39 296 251
-0.030809574 0.764 -0.014735013 9.1078949e-39 297 251
-0.029354304 0.76099998 -0.014677152 9.2018856e-39 298 251
-0.028020019 0.76099998 -0.014677152 9.2940812e-39 299 251
-0.026685731 0.76099998 -0.014677152 9.3859139e-39 300 251
-0.025351444 0.76099998 -0.014677152 9.2933596e-39 301 251
-0.024017159 0.76099998 -0.014677152 9.6585478e-39 302 251
-0.022682872 0.76099998 -0.014677152 9.4741565e-39 303 251
-0.021348584 0.76099998 -0.014677152 9.6571058e-39 304 251
-0.020014299 0.76099998 -0.014677152 9.8414971e-39 305 251
-0.018680012 0.76099998 -0.014677152 9.5667025e-39 306 251
-0.017345725 0.76099998 -0.014677152 9.6592568e-39 307 251
-0.016011439 0.76099998 -0.014677152 9.4752257e-39 308 251
-0.014677152 0.76099998 -0.014677152 9.4752257e-39 309 251
-0.013342866 0.76099998 -0.014677152 9.4741537e-39 310 251
-0.01197702 0.759 -0.014638579 9.4741537e-39 311 251
-0.01064624 0.759 -0.014638579 9.1082452e-39 312 251
-0.0093400059 0.76099998 -0.014677152 9.1082452e-39 313 251
-0.0079846792 0.759 -0.014638579 9.934399e-39 314 251
-0.0066538998 0.759 -0.014638579 1.0210627e-38 315 251
-0.0053231199 0.759 -0.014638579 1.0670516e-38 316 251
-0.0040028598 0.76099998 -0.014677152 1.0762712e-38 317 251
-0.0026685731 0.76099998 -0.014677152 1.0947096e-38 318 251
-0.0013342865 0.76099998 -0.014677152 1.0947096e-38 319 251
0 0.76099998 -0.014677152 1.0947099e-38 320 251
0.0013342865 0.76099998 -0.014677152 1.0947099e-38 321 251
0.0026685731 0.76099998 -0.014677152 1.0487923e-38 322 251
0.0040028598 0.76099998 -0.014677152 1.0487923e-38 323 251
0.0053441599 0.76200002 -0.01469644 1.0303898e-38 324 251
0.0066801999 0.76200002 -0.01469644 1.0303898e-38 325 251
0.0080162399 0.76200002 -0.01469644 1.0395737e-38 326 251
0.0093522798 0.76200002 -0.01469644 1.0395737e-38 327 251
0.010716373 0.764 -0.014735013 1.0305342e-38 328 251
0.01210326 0.76700002 -0.014792874 1.0397539e-38 329 251
0.013448066 0.76700002 -0.014792874 1.0490101e-38 330 251
0.014831445 0.76899999 -0.014831445 1.0674851e-38 331 251
0.016179759 0.76899999 -0.014831445 1.0492268e-38 332 251
0.017528072 0.76899999 -0.014831445 1.0953605e-38 333 251
0.018925481 0.77100003 -0.01487002 1.0681347e-38 334 251
0.020277301 0.77100003 -0.01487002 1.1695859e-38 335 251
-0.047497798 0.77399999 -0.016284959 1.4104858e-38 285 252
-0.046140719 0.77399999 -0.016284959 1.391216e-38 286 252
-0.044783637 0.77399999 -0.016284959 1.031689e-38 287 252
-0.043370452 0.773 -0.016263919 1.0404745e-38 288 252
-0.042015124 0.773 -0.016263919 1.0035962e-38 289 252
-0.0406598 0.773 -0.016263919 9.9405268e-39 290 252
-0.039304473 0.773 -0.016263919 9.4795473e-39 291 252
-0.037850961 0.77100003 -0.016221842 9.0192894e-39 292 252
-0.036404461 0.76899999 -0.016179759 8.7430613e-39 293 252
-0.034964975 0.76700002 -0.01613768 8.7412732e-39 294 252
-0.033620168 0.76700002 -0.01613768 8.5572421e-39 295 252
-0.032233275 0.76599997 -0.016116638 8.5561659e-39 296 252
-0.030809574 0.764 -0.016074561 8.6483615e-39 297 252
-0.029392879 0.76200002 -0.01603248 8.741276e-39 298 252
-0.028020019 0.76099998 -0.016011439 8.8334716e-39 299 252
-0.026685731 0.76099998 -0.016011439 9.0175e-39 300 252
-0.025351444 0.76099998 -0.016011439 8.8331087e-39 301 252
-0.024017159 0.76099998 -0.016011439 9.4741565e-39 302 252
-0.022682872 0.76099998 -0.016011439 9.2897652e-39 303 252
-0.021348584 0.76099998 -0.016011439 9.106097e-39 304 252
-0.0200406 0.76200002 -0.01603248 9.1982927e-39 305 252
-0.01870456 0.76200002 -0.01603248 9.0157021e-39 306 252
-0.017345725 0.76099998 -0.016011439 9.0157021e-39 307 252
-0.016011439 0.76099998 -0.016011439 9.0157021e-39 308 252
-0.014677152 0.76099998 -0.016011439 9.0157021e-39 309 252
-0.013342866 0.76099998 -0.016011439 9.107169e-39 310 252
-0.012008579 0.76099998 -0.016011439 9.1993647e-39 311 252
-0.010674292 0.76099998 -0.016011439 9.0164055e-39 312 252
-0.0093400059 0.76099998 -0.016011439 9.0164055e-39 313 252
-0.0080057196 0.76099998 -0.016011439 9.5667025e-39 314 252
-0.0066714329 0.76099998 -0.016011439 9.7514524e-39 315 252
-0.0053371461 0.76099998 -0.016011439 9.9354822e-39 316 252
-0.0040028598 0.76099998 -0.016011439 9.9354822e-39 317 252
-0.0026685731 0.76099998 -0.016011439 1.011951e-38 318 252
-0.0013342865 0.76099998 -0.016011439 1.0395737e-38 319 252
0 0.76099998 -0.016011439 1.0395374e-38 320 252
0.0013342865 0.76099998 -0.016011439 1.0395374e-38 321 252
0.0026685731 0.76099998 -0.016011439 1.0303895e-38 322 252
0.0040081199 0.76200002 -0.01603248 1.0303895e-38 323 252
0.0053441599 0.76200002 -0.01603248 1.0120227e-38 324 252
0.0066801999 0.76200002 -0.01603248 1.0120227e-38 325 252
0.0080162399 0.76200002 -0.01603248 1.0120229e-38 326 252
0.0093522798 0.76200002 -0.01603248 1.0304621e-38 327 252
0.010744425 0.76599997 -0.016116638 1.0304989e-38 328 252
0.01210326 0.76700002 -0.01613768 1.0397186e-38 329 252
0.013483133 0.76899999 -0.016179759 1.0307154e-38 330 252
0.014831445 0.76899999 -0.016179759 1.0491904e-38 331 252
0.016179759 0.76899999 -0.016179759 1.0401874e-38 332 252
0.01757366 0.77100003 -0.016221842 1.0771016e-38 333 252
0.018925481 0.77100003 -0.016221842 1.0499481e-38 334 252
-0.047497798 0.77399999 -0.01764204 1.4014825e-38 285 253
-0.046140719 0.77399999 -0.01764204 1.4191272e-38 286 253
-0.044725779 0.773 -0.017619247 1.0964425e-38 287 253
-0.043370452 0.773 -0.017619247 1.0865729e-38 288 253
-0.042015124 0.773 -0.017619247 1.0035968e-38 289 253
-0.0406598 0.773 -0.017619247 9.483157e-39 290 253
-0.03920278 0.77100003 -0.01757366 8.8377876e-39 291 253
-0.037850961 0.77100003 -0.01757366 8.4693652e-39 292 253
-0.036404461 0.76899999 -0.017528072 8.008027e-39 293 253
-0.034964975 0.76700002 -0.017482487 8.4654122e-39 294 253
-0.033620168 0.76700002 -0.017482487 8.0969898e-39 295 253
-0.03227536 0.76700002 -0.017482487 8.462894e-39 296 253
-0.030809574 0.764 -0.017414106 8.5550911e-39 297 253
-0.029470026 0.764 -0.017414106 8.6479958e-39 298 253
-0.028020019 0.76099998 -0.017345725 8.6479958e-39 299 253
-0.026685731 0.76099998 -0.017345725 8.9238568e-39 300 253
-0.025351444 0.76099998 -0.017345725 8.9238568e-39 301 253
-0.024017159 0.76099998 -0.017345725 9.2897652e-39 302 253
-0.022682872 0.76099998 -0.017345725 9.1057327e-39 303 253
-0.021348584 0.76099998 -0.017345725 8.9227876e-39 304 253
-0.0200406 0.76200002 -0.01736852 8.7380362e-39 305 253
-0.01870456 0.76200002 -0.01736852 9.0139028e-39 306 253
-0.01736852 0.76200002 -0.01736852 9.0139028e-39 307 253
-0.016011439 0.76099998 -0.017345725 9.0131811e-39 308 253
-0.014677152 0.76099998 -0.017345725 9.1053768e-39 309 253
-0.013342866 0.76099998 -0.017345725 8.8316612e-39 310 253
-0.012008579 0.76099998 -0.017345725 8.8316612e-39 311 253
-0.010674292 0.76099998 -0.017345725 9.0164027e-39 312 253
-0.0093400059 0.76099998 -0.017345725 9.0164027e-39 313 253
-0.0080057196 0.76099998 -0.017345725 9.4748571e-39 314 253
-0.0066714329 0.76099998 -0.017345725 9.5674115e-39 315 253
-0.0053371461 0.76099998 -0.017345725 9.6581722e-39 316 253
-0.0040028598 0.76099998 -0.017345725 9.7503678e-39 317 253
-0.0026685731 0.76099998 -0.017345725 1.0301026e-38 318 253
-0.0013342865 0.76099998 -0.017345725 1.0577615e-38 319 253
0 0.76099998 -0.017345725 1.0486488e-38 320 253
0.0013342865 0.76099998 -0.017345725 1.0578684e-38 321 253
0.00267208 0.76200002 -0.01736852 1.0395374e-38 322 253
0.0040081199 0.76200002 -0.01736852 1.0303179e-38 323 253
0.0053441599 0.76200002 -0.01736852 1.011951e-38 324 253
0.0066801999 0.76200002 -0.01736852 1.0303542e-38 325 253
0.0080162399 0.76200002 -0.01736852 1.0029113e-38 326 253
0.0093768267 0.764 -0.017414106 1.0029113e-38 327 253
0.010758453 0.76700002 -0.017482487 1.0305339e-38 328 253
0.012134819 0.76899999 -0.017528072 1.0490091e-38 329 253
0.013483133 0.76899999 -0.017528072 1.0124195e-38 330 253
0.014831445 0.76899999 -0.017528072 1.0492978e-38 331 253
0.016179759 0.76899999 -0.017528072 1.0401871e-38 332 253
0.01757366 0.77100003 -0.01757366 1.1139436e-38 333 253
-0.046140719 0.77399999 -0.018999118 1.3827527e-38 286 254
-0.044725779 0.773 -0.018974574 1.1522636e-38 287 254
-0.043370452 0.773 -0.018974574 1.1971357e-38 288 254
-0.042015124 0.773 -0.018974574 1.0495868e-38 289 254
-0.0406598 0.773 -0.018974574 9.8512053e-39 290 254
-0.03920278 0.77100003 -0.018925481 9.4820626e-39 291 254
-0.037850961 0.77100003 -0.018925481 9.0207215e-39 292 254
-0.036404461 0.76899999 -0.018876385 8.7437759e-39 293 254
-0.034964975 0.76700002 -0.018827293 8.3750018e-39 294 254
-0.033620168 0.76700002 -0.018827293 8.0980562e-39 295 254
-0.03227536 0.76700002 -0.018827293 8.2799321e-39 296 254
-0.030890226 0.76599997 -0.018802745 8.3721277e-39 297 254
-0.029470026 0.764 -0.018753653 8.280651e-39 298 254
-0.028020019 0.76099998 -0.018680012 8.372848e-39 299 254
-0.026685731 0.76099998 -0.018680012 8.6479958e-39 300 254
-0.025351444 0.76099998 -0.018680012 8.6479958e-39 301 254
-0.024017159 0.76099998 -0.018680012 8.831308e-39 302 254
-0.022682872 0.76099998 -0.018680012 8.739111e-39 303 254
-0.021348584 0.76099998 -0.018680012 8.4632472e-39 304 254
-0.0200406 0.76200002 -0.01870456 8.3710515e-39 305 254
-0.01870456 0.76200002 -0.01870456 7.9115251e-39 306 254
-0.01736852 0.76200002 -0.01870456 7.8189708e-39 307 254
-0.01603248 0.76200002 -0.01870456 7.451633e-39 308 254
-0.014677152 0.76099998 -0.018680012 7.451633e-39 309 254
-0.013342866 0.76099998 -0.018680012 7.2693927e-39 310 254
-0.012008579 0.76099998 -0.018680012 7.453784e-39 311 254
-0.010674292 0.76099998 -0.018680012 8.280651e-39 312 254
-0.0093400059 0.76099998 -0.018680012 8.372848e-39 313 254
-0.0080057196 0.76099998 -0.018680012 8.923854e-39 314 254
-0.0066714329 0.76099998 -0.018680012 9.0160496e-39 315 254
-0.0053441599 0.76200002 -0.01870456 8.831308e-39 316 254
-0.0040081199 0.76200002 -0.01870456 8.739111e-39 317 254
-0.00267208 0.76200002 -0.01870456 8.9231505e-39 318 254
-0.00133604 0.76200002 -0.01870456 9.1079005e-39 319 254
0 0.76200002 -0.01870456 9.4763103e-39 320 254
0.00133604 0.76200002 -0.01870456 9.5685073e-39 321 254
0.00267208 0.76200002 -0.01870456 9.5688605e-39 322 254
0.0040081199 0.76200002 -0.01870456 9.5688605e-39 323 254
0.0053441599 0.76200002 -0.01870456 9.8443683e-39 324 254
0.006697733 0.764 -0.018753653 1.002876e-38 325 254
0.0080372803 0.764 -0.018753653 1.0029113e-38 326 254
0.0094013726 0.76599997 -0.018802745 1.0213144e-38 327 254
0.010758453 0.76700002 -0.018827293 9.939438e-39 328 254
0.012134819 0.76899999 -0.018876385 1.0215665e-38 329 254
0.013518199 0.77100003 -0.018925481 9.9412457e-39 330 254
0.01487002 0.77100003 -0.018925481 1.0402224e-38 331 254
0.016221842 0.77100003 -0.018925481 1.0221079e-38 332 254
-0.043370452 0.773 -0.0203299 1.2894765e-38 288 255
-0.042015124 0.773 -0.0203299 1.1051211e-38 289 255
-0.0406598 0.773 -0.0203299 1.0037762e-38 290 255
-0.039304473 0.773 -0.0203299 9.3923921e-39 291 255
-0.037850961 0.77100003 -0.020277301 9.1150822e-39 292 255
-0.036499143 0.77100003 -0.020277301 8.3775171e-39 293 255
-0.035056144 0.76899999 -0.0202247 8.4679163e-39 294 255
-0.033707831 0.76899999 -0.0202247 8.283525e-39 295 255
-0.03227536 0.76700002 -0.020172099 8.3735669e-39 296 255
-0.030890226 0.76599997 -0.020145798 8.1895357e-39 297 255
-0.029470026 0.764 -0.020093199 8.2806482e-39 298 255
-0.028056841 0.76200002 -0.0200406 8.2806482e-39 299 255
-0.0267208 0.76200002 -0.0200406 8.7383893e-39 300 255
-0.025351444 0.76099998 -0.020014299 8.6461937e-39 301 255
-0.024017159 0.76099998 -0.020014299 8.4632444e-39 302 255
-0.022682872 0.76099998 -0.020014299 8.4632444e-39 303 255
-0.021348584 0.76099998 -0.020014299 8.3710515e-39 304 255
-0.0200406 0.76200002 -0.0200406 8.2788559e-39 305 255
-0.01870456 0.76200002 -0.0200406 8.002639e-39 306 255
-0.01736852 0.76200002 -0.0200406 7.7264122e-39 307 255
-0.01603248 0.76200002 -0.0200406 7.5423825e-39 308 255
-0.01469644 0.76200002 -0.0200406 7.4501869e-39 309 255
-0.0133604 0.76200002 -0.0200406 7.0832036e-39 310 255
-0.012008579 0.76099998 -0.020014299 7.3597905e-39 311 255
-0.010674292 0.76099998 -0.020014299 7.9118755e-39 312 255
-0.0093522798 0.76200002 -0.0200406 8.1881022e-39 313 255
-0.0080162399 0.76200002 -0.0200406 8.5565162e-39 314 255
-0.0066801999 0.76200002 -0.0200406 8.280288e-39 315 255
-0.0053441599 0.76200002 -0.0200406 8.4625255e-39 316 255
-0.0040081199 0.76200002 -0.0200406 8.3703299e-39 317 255
-0.00267208 0.76200002 -0.0200406 8.9209855e-39 318 255
-0.00133604 0.76200002 -0.0200406 9.3819637e-39 319 255
0 0.76200002 -0.0200406 9.2911946e-39 320 255
0.00133604 0.76200002 -0.0200406 9.6599757e-39 321 255
0.00267208 0.76200002 -0.0200406 9.4766606e-39 322 255
0.0040081199 0.76200002 -0.0200406 9.7528888e-39 323 255
0.0053441599 0.76200002 -0.0200406 9.8450844e-39 324 255
0.006697733 0.764 -0.020093199 9.93728e-39 325 255
0.0080583189 0.76599997 -0.020145798 9.8461634e-39 326 255
0.0094136465 0.76700002 -0.020172099 1.0030553e-38 327 255
0.010786506 0.76899999 -0.0202247 9.9401569e-39 328 255
0.01216638 0.77100003 -0.020277301 1.0124548e-38 329 255
0.013518199 0.77100003 -0.020277301 1.0126716e-38 330 255
0.01487002 0.77100003 -0.020277301 1.0403303e-38 331 255
0.016221842 0.77100003 -0.020277301 1.0130326e-38 332 255
-0.042015124 0.773 -0.021685226 1.1515802e-38 289 256
-0.0406598 0.773 -0.021685226 1.0592736e-38 290 256
-0.03920278 0.77100003 -0.021629119 9.7629753e-39 291 256
-0.037850961 0.77100003 -0.021629119 9.5764134e-39 292 256
-0.036499143 0.77100003 -0.021629119 8.838847e-39 293 256
-0.035056144 0.76899999 -0.021573013 8.6533838e-39 294 256
-0.033707831 0.76899999 -0.021573013 8.2846012e-39 295 256
-0.032359518 0.76899999 -0.021573013 8.4672002e-39 296 256
-0.030890226 0.76599997 -0.021488851 8.2824502e-39 297 256
-0.029470026 0.764 -0.021432746 8.5561631e-39 298 256
-0.028130481 0.764 -0.021432746 8.2799349e-39 299 256
-0.0267208 0.76200002 -0.02137664 8.4625283e-39 300 256
-0.02538476 0.76200002 -0.02137664 8.4625283e-39 301 256
-0.024017159 0.76099998 -0.021348584 8.2799349e-39 302 256
-0.022682872 0.76099998 -0.021348584 8.1877393e-39 303 256
-0.021348584 0.76099998 -0.021348584 8.2785028e-39 304 256
-0.0200406 0.76200002 -0.02137664 8.2785028e-39 305 256
-0.01870456 0.76200002 -0.02137664 7.7271283e-39 306 256
-0.01736852 0.76200002 -0.02137664 7.7271283e-39 307 256
-0.01603248 0.76200002 -0.02137664 6.9009633e-39 308 256
-0.01469644 0.76200002 -0.02137664 6.7165721e-39 309 256
-0.0133604 0.76200002 -0.02137664 6.5329067e-39 310 256
-0.012008579 0.76099998 -0.021348584 6.8091334e-39 311 256
-0.010674292 0.76099998 -0.021348584 7.0860777e-39 312 256
-0.0093522798 0.76200002 -0.02137664 7.3623044e-39 313 256
-0.0080162399 0.76200002 -0.02137664 8.0047872e-39 314 256
-0.0066801999 0.76200002 -0.02137664 7.9125915e-39 315 256
-0.0053441599 0.76200002 -0.02137664 8.2785e-39 316 256
-0.0040081199 0.76200002 -0.02137664 8.2785e-39 317 256
-0.00267208 0.76200002 -0.02137664 8.5547239e-39 318 256
-0.00133604 0.76200002 -0.02137664 8.9235065e-39 319 256
0 0.76200002 -0.02137664 9.2919162e-39 320 256
0.00133604 0.76200002 -0.02137664 9.3841119e-39 321 256
0.00267208 0.76200002 -0.02137664 9.477025e-39 322 256
0.0040081199 0.76200002 -0.02137664 9.6617749e-39 323 256
0.0053581866 0.764 -0.021432746 9.7539706e-39 324 256
0.0067152665 0.76599997 -0.021488851 9.8461662e-39 325 256
0.00806884 0.76700002 -0.021516906 9.8468851e-39 326 256
0.0094381925 0.76899999 -0.021573013 9.9390821e-39 327 256
0.01081456 0.77100003 -0.021629119 9.8486871e-39 328 256
0.012197939 0.773 -0.021685226 1.0124914e-38 329 256
0.013553266 0.773 -0.021685226 1.0035962e-38 330 256
0.014908593 0.773 -0.021685226 1.0404745e-38 331 256
0.016263919 0.773 -0.021685226 1.0223599e-38 332 256
-0.042069476 0.77399999 -0.02307036 1.1611963e-38 289 257
-0.040712398 0.77399999 -0.02307036 1.1238133e-38 290 257
-0.03920278 0.77100003 -0.02298094 1.0132146e-38 291 257
-0.037850961 0.77100003 -0.02298094 9.8537402e-39 292 257
-0.036499143 0.77100003 -0.02298094 8.9317853e-39 293 257
-0.035056144 0.76899999 -0.022921326 8.9303378e-39 294 257
-0.033707831 0.76899999 -0.022921326 8.4697184e-39 295 257
-0.032359518 0.76899999 -0.022921326 8.7434284e-39 296 257
-0.030890226 0.76599997 -0.022831906 8.3746459e-39 297 257
-0.029547172 0.76599997 -0.022831906 8.4650492e-39 298 257
-0.028130481 0.764 -0.022772292 8.2802978e-39 299 257
-0.026790932 0.764 -0.022772292 8.1881022e-39 300 257
-0.025451386 0.764 -0.022772292 8.1881022e-39 301 257
-0.02404872 0.76200002 -0.02271268 7.9125915e-39 302 257
-0.02271268 0.76200002 -0.02271268 7.9125915e-39 303 257
-0.02137664 0.76200002 -0.02271268 7.9118727e-39 304 257
-0.0200406 0.76200002 -0.02271268 7.9118727e-39 305 257
-0.018753653 0.764 -0.022772292 7.8203931e-39 306 257
-0.017414106 0.764 -0.022772292 7.8203931e-39 307 257
-0.016074561 0.764 -0.022772292 7.1768244e-39 308 257
-0.01469644 0.76200002 -0.02271268 6.9924331e-39 309 257
-0.0133604 0.76200002 -0.02271268 6.4414271e-39 310 257
-0.01202436 0.76200002 -0.02271268 6.6258184e-39 311 257
-0.01068832 0.76200002 -0.02271268 7.1771915e-39 312 257
-0.0093522798 0.76200002 -0.02271268 7.3619415e-39 313 257
-0.0080162399 0.76200002 -0.02271268 8.0951877e-39 314 257
-0.0066801999 0.76200002 -0.02271268 8.0029921e-39 315 257
-0.0053441599 0.76200002 -0.02271268 8.0944689e-39 316 257
-0.0040081199 0.76200002 -0.02271268 8.2785e-39 317 257
-0.00267208 0.76200002 -0.02271268 8.7391082e-39 318 257
-0.00133604 0.76200002 -0.02271268 8.9235009e-39 319 257
0 0.76200002 -0.02271268 9.2919106e-39 320 257
0.00133604 0.76200002 -0.02271268 9.4766606e-39 321 257
0.0026790933 0.764 -0.022772292 9.3862643e-39 322 257
0.0040186401 0.764 -0.022772292 9.662491e-39 323 257
0.0053722127 0.76599997 -0.022831906 9.7543335e-39 324 257
0.006724033 0.76700002 -0.022861714 9.8468879e-39 325 257
0.0080898795 0.76899999 -0.022921326 9.8472522e-39 326 257
0.0094381925 0.76899999 -0.022921326 9.9394478e-39 327 257
0.010842613 0.773 -0.023040552 9.8486998e-39 328 257
0.012197939 0.773 -0.023040552 1.0033091e-38 329 257
0.013570799 0.77399999 -0.02307036 9.8523025e-39 330 257
0.014927879 0.77399999 -0.02307036 1.0405118e-38 331 257
0.016284959 0.77399999 -0.02307036 9.8551864e-39 332 257
-0.0406598 0.773 -0.024395877 1.15176e-38 290 258
-0.039304473 0.773 -0.024395877 1.0411254e-38 291 258
-0.037949149 0.773 -0.024395877 1.0223246e-38 292 258
-0.036641158 0.77399999 -0.02442744 9.4856808e-39 293 258
-0.03514732 0.77100003 -0.02433276 9.025776e-39 294 258
-0.033707831 0.76899999 -0.024269639 8.3804066e-39 295 258
-0.032359518 0.76899999 -0.024269639 8.6526775e-39 296 258
-0.030930554 0.76700002 -0.024206521 8.2842537e-39 297 258
-0.029547172 0.76599997 -0.024174958 8.2828188e-39 298 258
-0.028204117 0.76599997 -0.024174958 8.006592e-39 299 258
-0.026861066 0.76599997 -0.024174958 8.0047928e-39 300 258
-0.025451386 0.764 -0.024111839 8.0047928e-39 301 258
-0.024111839 0.764 -0.024111839 7.9122384e-39 302 258
-0.02271268 0.76200002 -0.02404872 7.9122384e-39 303 258
-0.02137664 0.76200002 -0.02404872 7.9125943e-39 304 258
-0.0200406 0.76200002 -0.02404872 7.9125943e-39 305 258
-0.018753653 0.764 -0.024111839 7.9125915e-39 306 258
-0.017414106 0.764 -0.024111839 7.8203959e-39 307 258
-0.016074561 0.764 -0.024111839 7.4516176e-39 308 258
-0.014735013 0.764 -0.024111839 7.2672249e-39 309 258
-0.013395466 0.764 -0.024111839 6.5329067e-39 310 258
-0.01202436 0.76200002 -0.02404872 6.7169378e-39 311 258
-0.01068832 0.76200002 -0.02404872 7.1764726e-39 312 258
-0.0093768267 0.764 -0.024111839 7.5452537e-39 313 258
-0.0080372803 0.764 -0.024111839 7.9118727e-39 314 258
-0.006697733 0.764 -0.024111839 7.9118727e-39 315 258
-0.0053581866 0.764 -0.024111839 8.2788559e-39 316 258
-0.0040081199 0.76200002 -0.02404872 8.3710515e-39 317 258
-0.00267208 0.76200002 -0.02404872 8.7405417e-39 318 258
-0.0013395466 0.764 -0.024111839 9.0167685e-39 319 258
0 0.764 -0.024111839 9.200794e-39 320 258
0.0013395466 0.764 -0.024111839 9.4773809e-39 321 258
0.0026790933 0.764 -0.024111839 9.3866272e-39 322 258
0.0040291594 0.76599997 -0.024174958 9.5713772e-39 323 258
0.0053792265 0.76700002 -0.024206521 9.6639372e-39 324 258
0.0067415666 0.76899999 -0.024269639 9.7564915e-39 325 258
0.0081109209 0.77100003 -0.02433276 9.6646616e-39 326 258
0.0094872871 0.773 -0.024395877 9.7568573e-39 327 258
0.01085664 0.77399999 -0.02442744 9.7565069e-39 328 258
0.01221372 0.77399999 -0.02442744 1.0033094e-38 329 258
0.013605867 0.77600002 -0.024490559 9.8519466e-39 330 258
0.014927879 0.77399999 -0.02442744 1.0220729e-38 331 258
0.016284959 0.77399999 -0.02442744 9.9445121e-39 332 258
-0.03920278 0.77100003 -0.02568458 1.0964428e-38 291 259
-0.037850961 0.77100003 -0.02568458 1.1144126e-38 292 259
-0.036593821 0.773 -0.025751207 1.0129975e-38 293 259
-0.03528408 0.77399999 -0.025784519 9.85265e-39 294 259
-0.033883166 0.773 -0.025751207 9.3913117e-39 295 259
-0.032527838 0.773 -0.025751207 9.3895013e-39 296 259
-0.030930554 0.76700002 -0.025551327 9.0207187e-39 297 259
-0.029585747 0.76700002 -0.025551327 8.7437815e-39 298 259
-0.028204117 0.76599997 -0.025518013 8.2828034e-39 299 259
-0.026861066 0.76599997 -0.025518013 8.1891826e-39 300 259
-0.025518013 0.76599997 -0.025518013 8.00479e-39 301 259
-0.024111839 0.764 -0.025451386 8.00479e-39 302 259
-0.022772292 0.764 -0.025451386 8.0969856e-39 303 259
-0.021432746 0.764 -0.025451386 8.1884553e-39 304 259
-0.020145798 0.76599997 -0.025518013 8.1884553e-39 305 259
-0.018802745 0.76599997 -0.025518013 7.8203959e-39 306 259
-0.017482487 0.76700002 -0.025551327 7.7282003e-39 307 259
-0.01613768 0.76700002 -0.025551327 7.4519721e-39 308 259
-0.014792874 0.76700002 -0.025551327 7.2672221e-39 309 259
-0.013448066 0.76700002 -0.025551327 6.99208e-39 310 259
-0.012087479 0.76599997 -0.025518013 7.1764726e-39 311 259
-0.010716373 0.764 -0.025451386 6.9942324e-39 312 259
-0.0093768267 0.764 -0.025451386 7.4552091e-39 313 259
-0.0080372803 0.764 -0.025451386 8.0966072e-39 314 259
-0.006697733 0.764 -0.025451386 8.2813572e-39 315 259
-0.0053581866 0.764 -0.025451386 8.372834e-39 316 259
-0.0040186401 0.764 -0.025451386 8.6490622e-39 317 259
-0.0026790933 0.764 -0.025451386 8.8338065e-39 318 259
-0.0013395466 0.764 -0.025451386 8.9260022e-39 319 259
0 0.764 -0.025451386 9.2940658e-39 320 259
0.0013430532 0.76599997 -0.025518013 9.5702926e-39 321 259
0.0026896133 0.76700002 -0.025551327 9.4788228e-39 322 259
0.00403442 0.76700002 -0.025551327 9.6635728e-39 323 259
0.0053792265 0.76700002 -0.025551327 9.6650119e-39 324 259
0.0067415666 0.76899999 -0.025617953 9.8494032e-39 325 259
0.0081319595 0.773 -0.025751207 9.8490501e-39 326 259
0.0094872871 0.773 -0.025751207 9.7568544e-39 327 259
0.01085664 0.77399999 -0.025784519 9.75723e-39 328 259
0.01224528 0.77600002 -0.025851147 1.0033817e-38 329 259
0.013605867 0.77600002 -0.025851147 9.5757282e-39 330 259
0.014966453 0.77600002 -0.025851147 9.6679238e-39 331 259
-0.037850961 0.77100003 -0.027036399 1.1698396e-38 292 260
-0.036593821 0.773 -0.027106533 1.0776441e-38 293 260
-0.03528408 0.77399999 -0.027141599 9.9455841e-39 294 260
-0.033883166 0.773 -0.027106533 9.484606e-39 295 260
-0.032527838 0.773 -0.027106533 9.0239838e-39 296 260
-0.030930554 0.76700002 -0.026896132 8.6548425e-39 297 260
-0.029585747 0.76700002 -0.026896132 8.3775354e-39 298 260
-0.02824094 0.76700002 -0.026896132 8.0087542e-39 299 260
-0.026861066 0.76599997 -0.026861066 8.3728634e-39 300 260
-0.025518013 0.76599997 -0.026861066 8.3728634e-39 301 260
-0.024174958 0.76599997 -0.026861066 7.9140405e-39 302 260
-0.022831906 0.76599997 -0.026861066 7.9140405e-39 303 260
-0.021488851 0.76599997 -0.026861066 7.9147467e-39 304 260
-0.020145798 0.76599997 -0.026861066 7.7299953e-39 305 260
-0.018827293 0.76700002 -0.026896132 7.7299981e-39 306 260
-0.017482487 0.76700002 -0.026896132 7.5456069e-39 307 260
-0.01613768 0.76700002 -0.026896132 7.2690242e-39 308 260
-0.014792874 0.76700002 -0.026896132 7.1768286e-39 309 260
-0.013448066 0.76700002 -0.026896132 7.0842756e-39 310 260
-0.01210326 0.76700002 -0.026896132 7.1764726e-39 311 260
-0.010758453 0.76700002 -0.026896132 7.6367277e-39 312 260
-0.0094013726 0.76599997 -0.026861066 7.9133132e-39 313 260
-0.0080583189 0.76599997 -0.026861066 8.2828062e-39 314 260
-0.0067152665 0.76599997 -0.026861066 8.3750018e-39 315 260
-0.0053722127 0.76599997 -0.026861066 8.4671946e-39 316 260
-0.0040291594 0.76599997 -0.026861066 8.6512258e-39 317 260
-0.0026861064 0.76599997 -0.026861066 8.9263707e-39 318 260
-0.0013430532 0.76599997 -0.026861066 9.1111221e-39 319 260
0 0.76599997 -0.026861066 9.2933596e-39 320 260
0.0013448066 0.76700002 -0.026896132 9.6621407e-39 321 260
0.0026896133 0.76700002 -0.026896132 9.5713898e-39 322 260
0.00403442 0.76700002 -0.026896132 9.6635868e-39 323 260
0.0053792265 0.76700002 -0.026896132 9.7568573e-39 324 260
0.0067415666 0.76899999 -0.026966266 9.9412485e-39 325 260
0.0081319595 0.773 -0.027106533 9.6664567e-39 326 260
0.0094872871 0.773 -0.027106533 9.6664567e-39 327 260
0.010884693 0.77600002 -0.027211733 9.7590251e-39 328 260
0.012276839 0.778 -0.027281865 9.8512207e-39 329 260
0.013640933 0.778 -0.027281865 9.3924132e-39 330 260
-0.036735836 0.77600002 -0.028572321 1.0964791e-38 293 261
-0.035375252 0.77600002 -0.028572321 1.0776064e-38 294 261
-0.034189999 0.77999997 -0.028719598 9.7622719e-39 295 261
-0.032738242 0.778 -0.028645959 9.9426975e-39 296 261
-0.031212838 0.77399999 -0.028498679 9.6661092e-39 297 261
-0.029740039 0.77100003 -0.028388219 8.9296203e-39 298 261
-0.028314579 0.76899999 -0.028314579 8.6526747e-39 299 261
-0.026896132 0.76700002 -0.02824094 8.559763e-39 300 261
-0.025551327 0.76700002 -0.02824094 8.467566e-39 301 261
-0.024174958 0.76599997 -0.028204117 8.3757207e-39 302 261
-0.022831906 0.76599997 -0.028204117 8.283525e-39 303 261
-0.021488851 0.76599997 -0.028204117 8.5590203e-39 304 261
-0.020145798 0.76599997 -0.028204117 8.466466e-39 305 261
-0.018827293 0.76700002 -0.02824094 8.1909609e-39 306 261
-0.017482487 0.76700002 -0.02824094 8.0984065e-39 307 261
-0.01613768 0.76700002 -0.02824094 8.097689e-39 308 261
-0.014792874 0.76700002 -0.02824094 8.0054934e-39 309 261
-0.013448066 0.76700002 -0.02824094 7.9129475e-39 310 261
-0.01210326 0.76700002 -0.02824094 7.8203931e-39 311 261
-0.010758453 0.76700002 -0.02824094 7.6378025e-39 312 261
-0.0094136465 0.76700002 -0.02824094 8.0065864e-39 313 261
-0.00806884 0.76700002 -0.02824094 8.2835222e-39 314 261
-0.006724033 0.76700002 -0.02824094 8.4679135e-39 315 261
-0.0053792265 0.76700002 -0.02824094 8.8356114e-39 316 261
-0.00403442 0.76700002 -0.02824094 8.8356114e-39 317 261
-0.0026896133 0.76700002 -0.02824094 9.2944344e-39 318 261
-0.0013448066 0.76700002 -0.02824094 9.38663e-39 319 261
0 0.76700002 -0.02824094 9.7543335e-39 320 261
0.0013448066 0.76700002 -0.02824094 9.8468879e-39 321 261
0.0026896133 0.76700002 -0.02824094 9.9398038e-39 322 261
0.00403442 0.76700002 -0.02824094 1.0124195e-38 323 261
0.0053792265 0.76700002 -0.02824094 9.9419646e-39 324 261
0.0067415666 0.76899999 -0.028314579 9.9419646e-39 325 261
0.0081424797 0.77399999 -0.028498679 9.9419702e-39 326 261
0.0094995592 0.77399999 -0.028498679 1.0034167e-38 327 261
0.010884693 0.77600002 -0.028572321 9.3916915e-39 328 261
-0.035557598 0.77999997 -0.030087199 1.1423604e-38 294 262
-0.034189999 0.77999997 -0.030087199 1.0409452e-38 295 262
-0.032822397 0.77999997 -0.030087199 9.6697189e-39 296 262
-0.031374145 0.778 -0.03001005 9.2091009e-39 297 262
-0.029817186 0.773 -0.029817186 8.656646e-39 298 262
-0.028314579 0.76899999 -0.02966289 8.5644503e-39 299 262
-0.026896132 0.76700002 -0.029585747 8.746678e-39 300 262
-0.025551327 0.76700002 -0.029585747 8.5619266e-39 301 262
-0.024174958 0.76599997 -0.029547172 8.4697184e-39 302 262
-0.022831906 0.76599997 -0.029547172 8.377164e-39 303 262
-0.021488851 0.76599997 -0.029547172 8.5604637e-39 304 262
-0.020145798 0.76599997 -0.029547172 8.5604637e-39 305 262
-0.018827293 0.76700002 -0.029585747 8.2849544e-39 306 262
-0.017482487 0.76700002 -0.029585747 8.1927587e-39 307 262
-0.01613768 0.76700002 -0.029585747 8.3760738e-39 308 262
-0.014792874 0.76700002 -0.029585747 8.1913238e-39 309 262
-0.013448066 0.76700002 -0.029585747 7.9147439e-39 310 262
-0.01210326 0.76700002 -0.029585747 7.9147439e-39 311 262
-0.010758453 0.76700002 -0.029585747 8.1909735e-39 312 262
-0.0094136465 0.76700002 -0.029585747 8.3753647e-39 313 262
-0.00806884 0.76700002 -0.029585747 8.4686366e-39 314 262
-0.006724033 0.76700002 -0.029585747 8.6530278e-39 315 262
-0.0053792265 0.76700002 -0.029585747 8.9281756e-39 316 262
-0.0040449398 0.76899999 -0.02966289 9.0203712e-39 317 262
-0.0026966266 0.76899999 -0.02966289 9.2958763e-39 318 262
-0.0013483133 0.76899999 -0.02966289 9.3884307e-39 319 262
0 0.76899999 -0.02966289 9.6642931e-39 320 262
0.0013483133 0.76899999 -0.02966289 9.7564887e-39 321 262
0.0026966266 0.76899999 -0.02966289 9.9408828e-39 322 262
0.0040449398 0.76899999 -0.02966289 1.021711e-38 323 262
0.0053932532 0.76899999 -0.02966289 1.0034167e-38 324 262
0.0067853997 0.77399999 -0.029855758 9.9419702e-39 325 262
0.0081424797 0.77399999 -0.029855758 9.7583048e-39 326 262
0.0094995592 0.77399999 -0.029855758 9.6661092e-39 327 262
-0.034233831 0.78100002 -0.031495128 1.0964793e-38 295 263
-0.032822397 0.77999997 -0.031454798 1.0685313e-38 296 263
-0.031454798 0.77999997 -0.031454798 9.7637166e-39 297 263
-0.029855758 0.77399999 -0.031212838 9.5778764e-39 298 263
-0.028314579 0.76899999 -0.031011207 9.3931264e-39 299 263
-0.026966266 0.76899999 -0.031011207 9.483513e-39 300 263
-0.025551327 0.76700002 -0.030930554 9.2069275e-39 301 263
-0.024206521 0.76700002 -0.030930554 9.2980343e-39 302 263
-0.022831906 0.76599997 -0.030890226 9.1132829e-39 303 263
-0.021488851 0.76599997 -0.030890226 9.1129172e-39 304 263
-0.020172099 0.76700002 -0.030930554 9.1129172e-39 305 263
-0.018876385 0.76899999 -0.031011207 9.2043869e-39 306 263
-0.017528072 0.76899999 -0.031011207 9.2043869e-39 307 263
-0.016179759 0.76899999 -0.031011207 8.8363275e-39 308 263
-0.014831445 0.76899999 -0.031011207 8.8363275e-39 309 263
-0.013483133 0.76899999 -0.031011207 8.7437759e-39 310 263
-0.012134819 0.76899999 -0.031011207 8.6515789e-39 311 263
-0.010786506 0.76899999 -0.031011207 8.5604637e-39 312 263
-0.0094381925 0.76899999 -0.031011207 8.6526593e-39 313 263
-0.0080898795 0.76899999 -0.031011207 8.92817e-39 314 263
-0.0067415666 0.76899999 -0.031011207 9.0207243e-39 315 263
-0.0053932532 0.76899999 -0.031011207 9.2962322e-39 316 263
-0.0040449398 0.76899999 -0.031011207 9.3884279e-39 317 263
-0.0026966266 0.76899999 -0.031011207 9.4809808e-39 318 263
-0.0013483133 0.76899999 -0.031011207 9.6650119e-39 319 263
0 0.76899999 -0.031011207 9.8486843e-39 320 263
0.0013483133 0.76899999 -0.031011207 9.94088e-39 321 263
0.0026966266 0.76899999 -0.031011207 1.0124911e-38 322 263
0.0040449398 0.76899999 -0.031011207 1.0217465e-38 323 263
0.0054072798 0.77100003 -0.031091858 1.0033447e-38 324 263
0.0067853997 0.77399999 -0.031212838 9.8490557e-39 325 263
0.0081424797 0.77399999 -0.031212838 9.2976966e-39 326 263
-0.024206521 0.76700002 -0.03227536 9.4827941e-39 302 264
-0.022861714 0.76700002 -0.03227536 9.3905985e-39 303 264
-0.021516906 0.76700002 -0.03227536 9.4824186e-39 304 264
-0.020172099 0.76700002 -0.03227536 9.4824186e-39 305 264
-0.018876385 0.76899999 -0.032359518 9.5742484e-39 306 264
-0.017528072 0.76899999 -0.032359518 9.4816941e-39 307 264
-0.016179759 0.76899999 -0.032359518 9.3895013e-39 308 264
-0.014831445 0.76899999 -0.032359518 9.2973042e-39 309 264
-0.013483133 0.76899999 -0.032359518 9.1129172e-39 310 264
-0.012134819 0.76899999 -0.032359518 9.0207215e-39 311 264
-0.010786506 0.76899999 -0.032359518 9.0207187e-39 312 264
-0.0094381925 0.76899999 -0.032359518 9.2973042e-39 313 264
-0.0080898795 0.76899999 -0.032359518 9.388781e-39 314 264
-0.0067415666 0.76899999 -0.032359518 9.388781e-39 315 264
-0.0053932532 0.76899999 -0.032359518 9.4809808e-39 316 264
-0.0040449398 0.76899999 -0.032359518 9.6650119e-39 317 264
-0.0026966266 0.76899999 -0.032359518 9.5738953e-39 318 264
-0.0013483133 0.76899999 -0.032359518 9.6660909e-39 319 264
0 0.76899999 -0.032359518 9.7582894e-39 320 264
0.00135182 0.77100003 -0.032443684 9.7582894e-39 321 264
0.0027036399 0.77100003 -0.032443684 9.6661036e-39 322 264
-0.021516906 0.76700002 -0.033620168 9.5753429e-39 304 265
-0.020172099 0.76700002 -0.033620168 9.5753429e-39 305 265
-0.018876385 0.76899999 -0.033707831 9.9423205e-39 306 265
-0.01757366 0.77100003 -0.033795502 9.7582894e-39 307 265
-0.016179759 0.76899999 -0.033707831 9.5735422e-39 308 265
-0.014831445 0.76899999 -0.033707831 9.4813466e-39 309 265
-0.013483133 0.76899999 -0.033707831 9.3887978e-39 310 265
-0.012134819 0.76899999 -0.033707831 9.2966008e-39 311 265
-0.010786506 0.76899999 -0.033707831 9.4806277e-39 312 265
-0.0094381925 0.76899999 -0.033707831 9.6646588e-39 313 265
-0.0080898795 0.76899999 -0.033707831 9.4816969e-39 314 265
-0.0067415666 0.76899999 -0.033707831 9.5738925e-39 315 265
-0.0053932532 0.76899999 -0.033707831 9.6660881e-39 316 265
-0.0040554604 0.77100003 -0.033795502 9.6660881e-39 317 265
-0.0027036399 0.77100003 -0.033795502 9.8494032e-39 318 265
-0.0013483133 0.76899999 -0.033707831 9.8494032e-39 319 265
0 0.76899999 -0.033707831 9.8490501e-39 320 265
-0.017619247 0.773 -0.035238493 8.8395897e-39 307 266
-0.016179759 0.76899999 -0.035056144 9.1143787e-39 308 266
-0.014831445 0.76899999 -0.035056144 9.0221831e-39 309 266
-0.013448066 0.76700002 -0.034964975 9.2047765e-39 310 266
-0.01210326 0.76700002 -0.034964975 9.2047765e-39 311 266
-0.010758453 0.76700002 -0.034964975 9.2054827e-39 312 266
