# .PCD v.7 - Point Cloud Data file format
FIELDS x y z rgb imX imY
SIZE 4 4 4 4 4 4
TYPE F F F F F F
COUNT 1 1 1 1 1 1
WIDTH 855
HEIGHT 1
VIEWPOINT 0 0 0 1 0 0 0
POINTS 855
DATA ascii
0.02404872 0.76200002 -0.0066801999 1.0396469e-38 338 245
0.025451386 0.764 -0.006697733 1.0396469e-38 339 245
0.026861066 0.76599997 -0.0067152665 9.8461816e-39 340 245
0.028314579 0.76899999 -0.0067415666 9.753986e-39 341 245
0.02966289 0.76899999 -0.0067415666 8.7441697e-39 342 245
0.031091858 0.77100003 -0.0067590997 8.4675828e-39 343 245
0.032527838 0.773 -0.0067766332 1.0320506e-38 344 245
0.033883166 0.773 -0.0067766332 1.3915777e-38 345 245
-0.043370452 0.773 -0.0081319595 1.8071072e-38 288 246
-0.042015124 0.773 -0.0081319595 1.705656e-38 289 246
-0.0406598 0.773 -0.0081319595 1.4376367e-38 290 246
-0.03920278 0.77100003 -0.0081109209 1.1702693e-38 291 246
-0.037850961 0.77100003 -0.0081109209 1.4274405e-38 292 246
-0.036499143 0.77100003 -0.0081109209 1.3813426e-38 293 246
-0.035056144 0.76899999 -0.0080898795 1.4638121e-38 294 246
-0.033620168 0.76700002 -0.00806884 1.445409e-38 295 246
-0.032233275 0.76599997 -0.0080583189 1.4913253e-38 296 246
-0.030890226 0.76599997 -0.0080583189 1.5005449e-38 297 246
-0.029470026 0.764 -0.0080372803 1.4915048e-38 298 246
-0.028130481 0.764 -0.0080372803 1.4915048e-38 299 246
-0.0267208 0.76200002 -0.0080162399 1.5283831e-38 300 246
-0.025351444 0.76099998 -0.0080057196 1.5376026e-38 301 246
-0.024017159 0.76099998 -0.0080057196 1.5285982e-38 302 246
-0.02262326 0.759 -0.0079846792 1.5285982e-38 303 246
-0.02129248 0.759 -0.0079846792 1.5284903e-38 304 246
-0.0199617 0.759 -0.0079846792 1.5100513e-38 305 246
-0.01863092 0.759 -0.0079846792 1.5007967e-38 306 246
-0.017254554 0.75700003 -0.0079636406 1.491577e-38 307 246
-0.015927281 0.75700003 -0.0079636406 1.5099082e-38 308 246
-0.014561433 0.755 -0.0079425992 1.4915051e-38 309 246
-0.013237666 0.755 -0.0079425992 1.49129e-38 310 246
-0.011913899 0.755 -0.0079425992 1.4728507e-38 311 246
-0.010590133 0.755 -0.0079425992 1.4818555e-38 312 246
-0.0092663663 0.755 -0.0079425992 1.4726e-38 313 246
-0.0079425992 0.755 -0.0079425992 1.4540537e-38 314 246
-0.0066188332 0.755 -0.0079425992 1.4356505e-38 315 246
-0.0052950666 0.755 -0.0079425992 1.4446549e-38 316 246
-0.0039712996 0.755 -0.0079425992 1.4354354e-38 317 246
-0.0026475333 0.755 -0.0079425992 1.4262524e-38 318 246
-0.0013237667 0.755 -0.0079425992 1.38941e-38 319 246
0 0.755 -0.0079425992 1.3157981e-38 320 246
0.0013237667 0.755 -0.0079425992 1.2512612e-38 321 246
0.0026475333 0.755 -0.0079425992 1.2420429e-38 322 246
0.0039712996 0.755 -0.0079425992 1.2420429e-38 323 246
0.0052950666 0.755 -0.0079425992 1.1776863e-38 324 246
0.0066188332 0.755 -0.0079425992 1.0762712e-38 325 246
0.0079425992 0.755 -0.0079425992 1.0392503e-38 326 246
0.0092663663 0.755 -0.0079425992 1.0668731e-38 327 246
0.010590133 0.755 -0.0079425992 1.0024812e-38 328 246
0.011913899 0.755 -0.0079425992 1.03014e-38 329 246
0.013272733 0.75700003 -0.0079636406 1.0579768e-38 330 246
0.014600007 0.75700003 -0.0079636406 1.0948192e-38 331 246
0.015927281 0.75700003 -0.0079636406 1.0949614e-38 332 246
0.017300138 0.759 -0.0079846792 1.0949614e-38 333 246
0.018680012 0.76099998 -0.0080057196 1.058264e-38 334 246
0.020014299 0.76099998 -0.0080057196 1.058264e-38 335 246
0.02137664 0.76200002 -0.0080162399 1.0673403e-38 336 246
0.022772292 0.764 -0.0080372803 1.0581208e-38 337 246
0.024111839 0.764 -0.0080372803 1.012203e-38 338 246
0.025518013 0.76599997 -0.0080583189 1.012203e-38 339 246
0.026896132 0.76700002 -0.00806884 9.6632225e-39 340 246
0.028314579 0.76899999 -0.0080898795 9.6632225e-39 341 246
0.02966289 0.76899999 -0.0080898795 8.9278351e-39 342 246
0.031091858 0.77100003 -0.0081109209 8.5594127e-39 343 246
0.032527838 0.773 -0.0081319595 1.0781125e-38 344 246
0.033883166 0.773 -0.0081319595 1.4007972e-38 345 246
-0.043370452 0.773 -0.0094872871 1.8346577e-38 288 247
-0.042015124 0.773 -0.0094872871 1.7424621e-38 289 247
-0.0406598 0.773 -0.0094872871 1.4836624e-38 290 247
-0.03920278 0.77100003 -0.0094627403 1.2162951e-38 291 247
-0.037850961 0.77100003 -0.0094627403 1.4273682e-38 292 247
-0.036499143 0.77100003 -0.0094627403 1.39049e-38 293 247
-0.035056144 0.76899999 -0.0094381925 1.4179301e-38 294 247
-0.033620168 0.76700002 -0.0094136465 1.4179301e-38 295 247
-0.032233275 0.76599997 -0.0094013726 1.445444e-38 296 247
-0.030809574 0.764 -0.0093768267 1.4731025e-38 297 247
-0.029470026 0.764 -0.0093768267 1.4915051e-38 298 247
-0.028130481 0.764 -0.0093768267 1.5191279e-38 299 247
-0.026685731 0.76099998 -0.0093400059 1.4733541e-38 300 247
-0.025284819 0.759 -0.00931546 1.4918291e-38 301 247
-0.023954039 0.759 -0.00931546 1.519308e-38 302 247
-0.022563647 0.75700003 -0.0092909131 1.5100884e-38 303 247
-0.021236373 0.75700003 -0.0092909131 1.5100165e-38 304 247
-0.019909101 0.75700003 -0.0092909131 1.5100165e-38 305 247
-0.018581826 0.75700003 -0.0092909131 1.4732104e-38 306 247
-0.017254554 0.75700003 -0.0092909131 1.4639909e-38 307 247
-0.015885198 0.755 -0.0092663663 1.4638477e-38 308 247
-0.014561433 0.755 -0.0092663663 1.436225e-38 309 247
-0.013237666 0.755 -0.0092663663 1.4453009e-38 310 247
-0.011913899 0.755 -0.0092663663 1.4268978e-38 311 247
-0.010590133 0.755 -0.0092663663 1.4359379e-38 312 247
-0.0092663663 0.755 -0.0092663663 1.3990236e-38 313 247
-0.0079425992 0.755 -0.0092663663 1.4172479e-38 314 247
-0.0066188332 0.755 -0.0092663663 1.3896252e-38 315 247
-0.0052950666 0.755 -0.0092663663 1.3895899e-38 316 247
-0.0039712996 0.755 -0.0092663663 1.3895899e-38 317 247
-0.0026475333 0.755 -0.0092663663 1.3712227e-38 318 247
-0.0013237667 0.755 -0.0092663663 1.3251249e-38 319 247
0 0.755 -0.0092663663 1.3066136e-38 320 247
0.0013237667 0.755 -0.0092663663 1.2881743e-38 321 247
0.0026475333 0.755 -0.0092663663 1.2513684e-38 322 247
0.0039712996 0.755 -0.0092663663 1.2421488e-38 323 247
0.0052950666 0.755 -0.0092663663 1.2235667e-38 324 247
0.0066188332 0.755 -0.0092663663 1.1959441e-38 325 247
0.0079425992 0.755 -0.0092663663 1.1038939e-38 326 247
0.0092663663 0.755 -0.0092663663 1.0670516e-38 327 247
0.010590133 0.755 -0.0092663663 1.0485419e-38 328 247
0.011913899 0.755 -0.0092663663 1.066981e-38 329 247
0.013272733 0.75700003 -0.0092909131 1.0580484e-38 330 247
0.014600007 0.75700003 -0.0092909131 1.0949267e-38 331 247
0.015927281 0.75700003 -0.0092909131 1.1316955e-38 332 247
0.017300138 0.759 -0.00931546 1.1224759e-38 333 247
0.018680012 0.76099998 -0.0093400059 1.1041813e-38 334 247
0.020014299 0.76099998 -0.0093400059 1.0765586e-38 335 247
0.02137664 0.76200002 -0.0093522798 1.0581208e-38 336 247
0.022772292 0.764 -0.0093768267 1.0397175e-38 337 247
0.024111839 0.764 -0.0093768267 1.0030197e-38 338 247
0.025518013 0.76599997 -0.0094013726 1.0030197e-38 339 247
0.026861066 0.76599997 -0.0094013726 9.753986e-39 340 247
0.02824094 0.76700002 -0.0094136465 9.8461816e-39 341 247
0.029585747 0.76700002 -0.0094136465 8.4690275e-39 342 247
0.031011207 0.76899999 -0.0094381925 8.3768319e-39 343 247
0.032443684 0.77100003 -0.0094627403 1.0874045e-38 344 247
0.033795502 0.77100003 -0.0094627403 1.4100892e-38 345 247
-0.043370452 0.773 -0.010842613 1.8071069e-38 288 248
-0.042015124 0.773 -0.010842613 1.74257e-38 289 248
-0.0406598 0.773 -0.010842613 1.4929543e-38 290 248
-0.039304473 0.773 -0.010842613 1.225587e-38 291 248
-0.037850961 0.77100003 -0.01081456 1.3905267e-38 292 248
-0.036404461 0.76899999 -0.010786506 1.3629039e-38 293 248
-0.035056144 0.76899999 -0.010786506 1.4271146e-38 294 248
-0.033620168 0.76700002 -0.010758453 1.417895e-38 295 248
-0.032233275 0.76599997 -0.010744425 1.4638474e-38 296 248
-0.030809574 0.764 -0.010716373 1.4823224e-38 297 248
-0.029392879 0.76200002 -0.01068832 1.4640625e-38 298 248
-0.028020019 0.76099998 -0.010674292 1.4732822e-38 299 248
-0.026685731 0.76099998 -0.010674292 1.4825017e-38 300 248
-0.025284819 0.759 -0.01064624 1.4825017e-38 301 248
-0.02389092 0.75700003 -0.010618187 1.5007616e-38 302 248
-0.022563647 0.75700003 -0.010618187 1.5007616e-38 303 248
-0.021236373 0.75700003 -0.010618187 1.5098729e-38 304 248
-0.019909101 0.75700003 -0.010618187 1.4914698e-38 305 248
-0.018581826 0.75700003 -0.010618187 1.4731023e-38 306 248
-0.017254554 0.75700003 -0.010618187 1.4270403e-38 307 248
-0.015885198 0.755 -0.010590133 1.4452643e-38 308 248
-0.014561433 0.755 -0.010590133 1.4360448e-38 309 248
-0.013237666 0.755 -0.010590133 1.4360092e-38 310 248
-0.011913899 0.755 -0.010590133 1.4267896e-38 311 248
-0.010590133 0.755 -0.010590133 1.3991672e-38 312 248
-0.0092663663 0.755 -0.010590133 1.3714725e-38 313 248
-0.0079425992 0.755 -0.010590133 1.389517e-38 314 248
-0.0066188332 0.755 -0.010590133 1.389517e-38 315 248
-0.0052950666 0.755 -0.010590133 1.3711508e-38 316 248
-0.0039712996 0.755 -0.010590133 1.3711508e-38 317 248
-0.0026475333 0.755 -0.010590133 1.3618952e-38 318 248
-0.0013237667 0.755 -0.010590133 1.325053e-38 319 248
0 0.755 -0.010590133 1.2975738e-38 320 248
0.0013237667 0.755 -0.010590133 1.2698791e-38 321 248
0.0026475333 0.755 -0.010590133 1.2606595e-38 322 248
0.0039712996 0.755 -0.010590133 1.2422564e-38 323 248
0.0052950666 0.755 -0.010590133 1.2237817e-38 324 248
0.0066188332 0.755 -0.010590133 1.1961229e-38 325 248
0.0079425992 0.755 -0.010590133 1.1499899e-38 326 248
0.0092663663 0.755 -0.010590133 1.1315506e-38 327 248
0.010590133 0.755 -0.010590133 1.0763784e-38 328 248
0.011913899 0.755 -0.010590133 1.0948175e-38 329 248
0.013272733 0.75700003 -0.010618187 1.0765583e-38 330 248
0.014638579 0.759 -0.01064624 1.0949614e-38 331 248
0.015969358 0.759 -0.01064624 1.1133646e-38 332 248
0.017345725 0.76099998 -0.010674292 1.1133646e-38 333 248
0.018680012 0.76099998 -0.010674292 1.0949264e-38 334 248
0.020014299 0.76099998 -0.010674292 1.0673036e-38 335 248
0.02137664 0.76200002 -0.01068832 1.0396822e-38 336 248
0.022772292 0.764 -0.010716373 1.0304626e-38 337 248
0.024111839 0.764 -0.010716373 1.0029478e-38 338 248
0.025518013 0.76599997 -0.010744425 1.0029478e-38 339 248
0.026861066 0.76599997 -0.010744425 9.4791942e-39 340 248
0.02824094 0.76700002 -0.010758453 9.4791942e-39 341 248
0.029585747 0.76700002 -0.010758453 8.6526901e-39 342 248
0.030930554 0.76700002 -0.010758453 8.3764634e-39 343 248
0.032443684 0.77100003 -0.01081456 1.1242103e-38 344 248
-0.042015124 0.773 -0.012197939 1.7701211e-38 289 249
-0.0406598 0.773 -0.012197939 1.5114653e-38 290 249
-0.039304473 0.773 -0.012197939 1.2256589e-38 291 249
-0.037850961 0.77100003 -0.01216638 1.4181131e-38 292 249
-0.036404461 0.76899999 -0.012134819 1.3812707e-38 293 249
-0.035056144 0.76899999 -0.012134819 1.4087471e-38 294 249
-0.033620168 0.76700002 -0.01210326 1.390344e-38 295 249
-0.032233275 0.76599997 -0.012087479 1.4179298e-38 296 249
-0.030809574 0.764 -0.01205592 1.4364048e-38 297 249
-0.029392879 0.76200002 -0.01202436 1.4548429e-38 298 249
-0.028020019 0.76099998 -0.012008579 1.4640625e-38 299 249
-0.026615599 0.759 -0.01197702 1.4640628e-38 300 249
-0.025284819 0.759 -0.01197702 1.4640628e-38 301 249
-0.02389092 0.75700003 -0.01194546 1.4548076e-38 302 249
-0.022563647 0.75700003 -0.01194546 1.4548076e-38 303 249
-0.021236373 0.75700003 -0.01194546 1.4823221e-38 304 249
-0.019909101 0.75700003 -0.01194546 1.463883e-38 305 249
-0.018581826 0.75700003 -0.01194546 1.445444e-38 306 249
-0.017208965 0.755 -0.011913899 1.4085656e-38 307 249
-0.015885198 0.755 -0.011913899 1.3992388e-38 308 249
-0.014561433 0.755 -0.011913899 1.3807996e-38 309 249
-0.013237666 0.755 -0.011913899 1.3809076e-38 310 249
-0.011913899 0.755 -0.011913899 1.371688e-38 311 249
-0.010590133 0.755 -0.011913899 1.3990236e-38 312 249
-0.0092663663 0.755 -0.011913899 1.3714009e-38 313 249
-0.0079425992 0.755 -0.011913899 1.3436713e-38 314 249
-0.0066188332 0.755 -0.011913899 1.3436713e-38 315 249
-0.0052950666 0.755 -0.011913899 1.343564e-38 316 249
-0.0039712996 0.755 -0.011913899 1.343564e-38 317 249
-0.0026475333 0.755 -0.011913899 1.3251249e-38 318 249
-0.0013237667 0.755 -0.011913899 1.3251249e-38 319 249
0 0.755 -0.011913899 1.3067208e-38 320 249
0.0013237667 0.755 -0.011913899 1.2790621e-38 321 249
0.0026475333 0.755 -0.011913899 1.288174e-38 322 249
0.0039712996 0.755 -0.011913899 1.2789545e-38 323 249
0.0052950666 0.755 -0.011913899 1.2604079e-38 324 249
0.0066188332 0.755 -0.011913899 1.232785e-38 325 249
0.0079425992 0.755 -0.011913899 1.1959791e-38 326 249
0.0092663663 0.755 -0.011913899 1.17754e-38 327 249
0.010590133 0.755 -0.011913899 1.1132914e-38 328 249
0.01194546 0.75700003 -0.01194546 1.1132914e-38 329 249
0.013272733 0.75700003 -0.01194546 1.1041447e-38 330 249
0.014600007 0.75700003 -0.01194546 1.1041447e-38 331 249
0.015969358 0.759 -0.01197702 1.076523e-38 332 249
0.017345725 0.76099998 -0.012008579 1.076523e-38 333 249
0.018680012 0.76099998 -0.012008579 1.0397175e-38 334 249
0.020014299 0.76099998 -0.012008579 1.0397175e-38 335 249
0.02137664 0.76200002 -0.01202436 1.0213147e-38 336 249
0.022772292 0.764 -0.01205592 1.0029116e-38 337 249
0.024111839 0.764 -0.01205592 9.8461662e-39 338 249
0.025518013 0.76599997 -0.012087479 9.8461662e-39 339 249
0.026896132 0.76700002 -0.01210326 9.478841e-39 340 249
0.02824094 0.76700002 -0.01210326 9.478841e-39 341 249
0.029585747 0.76700002 -0.01210326 8.6537733e-39 342 249
0.030930554 0.76700002 -0.01210326 8.5615763e-39 343 249
0.032443684 0.77100003 -0.01216638 1.1610166e-38 344 249
-0.039304473 0.773 -0.013553266 1.2349137e-38 291 250
-0.037850961 0.77100003 -0.013518199 1.4181131e-38 292 250
-0.036404461 0.76899999 -0.013483133 1.3627957e-38 293 250
-0.034964975 0.76700002 -0.013448066 1.4086399e-38 294 250
-0.033620168 0.76700002 -0.013448066 1.3994203e-38 295 250
-0.032233275 0.76599997 -0.013430533 1.4270417e-38 296 250
-0.030809574 0.764 -0.013395466 1.4270417e-38 297 250
-0.029354304 0.76099998 -0.013342866 1.4179648e-38 298 250
-0.028020019 0.76099998 -0.013342866 1.4272202e-38 299 250
-0.026615599 0.759 -0.0133078 1.4548432e-38 300 250
-0.025284819 0.759 -0.0133078 1.4548432e-38 301 250
-0.02389092 0.75700003 -0.013272733 1.4364045e-38 302 250
-0.022563647 0.75700003 -0.013272733 1.4364045e-38 303 250
-0.021236373 0.75700003 -0.013272733 1.4271849e-38 304 250
-0.019909101 0.75700003 -0.013272733 1.4087458e-38 305 250
-0.018581826 0.75700003 -0.013272733 1.4086732e-38 306 250
-0.017208965 0.755 -0.013237666 1.3810145e-38 307 250
-0.015885198 0.755 -0.013237666 1.3716875e-38 308 250
-0.014561433 0.755 -0.013237666 1.3532482e-38 309 250
-0.013237666 0.755 -0.013237666 1.334882e-38 310 250
-0.011913899 0.755 -0.013237666 1.334882e-38 311 250
-0.010590133 0.755 -0.013237666 1.3896966e-38 312 250
-0.0092663663 0.755 -0.013237666 1.3712574e-38 313 250
-0.0079425992 0.755 -0.013237666 1.343599e-38 314 250
-0.0066188332 0.755 -0.013237666 1.343599e-38 315 250
-0.0052950666 0.755 -0.013237666 1.3343797e-38 316 250
-0.0039712996 0.755 -0.013237666 1.3343797e-38 317 250
-0.0026475333 0.755 -0.013237666 1.3251246e-38 318 250
-0.0013237667 0.755 -0.013237666 1.315905e-38 319 250
0 0.755 -0.013237666 1.3066855e-38 320 250
0.0013237667 0.755 -0.013237666 1.2882823e-38 321 250
0.0026475333 0.755 -0.013237666 1.2698078e-38 322 250
0.0039712996 0.755 -0.013237666 1.2421132e-38 323 250
0.0052950666 0.755 -0.013237666 1.2327867e-38 324 250
0.0066188332 0.755 -0.013237666 1.223567e-38 325 250
0.0079425992 0.755 -0.013237666 1.1776491e-38 326 250
0.0092663663 0.755 -0.013237666 1.1684296e-38 327 250
0.010590133 0.755 -0.013237666 1.1316592e-38 328 250
0.01194546 0.75700003 -0.013272733 1.1224038e-38 329 250
0.013272733 0.75700003 -0.013272733 1.1132208e-38 330 250
0.014600007 0.75700003 -0.013272733 1.0948175e-38 331 250
0.015969358 0.759 -0.0133078 1.1038944e-38 332 250
0.017345725 0.76099998 -0.013342866 1.0946749e-38 333 250
0.018680012 0.76099998 -0.013342866 1.0212072e-38 334 250
0.020014299 0.76099998 -0.013342866 1.0212072e-38 335 250
0.02137664 0.76200002 -0.0133604 9.9372828e-39 336 250
0.022772292 0.764 -0.013395466 9.9372828e-39 337 250
0.024111839 0.764 -0.013395466 9.7543335e-39 338 250
0.025451386 0.764 -0.013395466 9.7543335e-39 339 250
0.026896132 0.76700002 -0.013448066 9.2955288e-39 340 250
0.02824094 0.76700002 -0.013448066 9.3877244e-39 341 250
0.029585747 0.76700002 -0.013448066 8.7466906e-39 342 250
0.03117251 0.773 -0.013553266 8.7466906e-39 343 250
0.032527838 0.773 -0.013553266 1.1979305e-38 344 250
-0.039304473 0.773 -0.014908593 1.2718287e-38 291 251
-0.037850961 0.77100003 -0.01487002 1.4089664e-38 292 251
-0.036404461 0.76899999 -0.014831445 1.3628686e-38 293 251
-0.034964975 0.76700002 -0.014792874 1.3995648e-38 294 251
-0.033620168 0.76700002 -0.014792874 1.3535028e-38 295 251
-0.032233275 0.76599997 -0.014773586 1.3994189e-38 296 251
-0.030809574 0.764 -0.014735013 1.4086385e-38 297 251
-0.029354304 0.76099998 -0.014677152 1.4087452e-38 298 251
-0.028020019 0.76099998 -0.014677152 1.4179648e-38 299 251
-0.026615599 0.759 -0.014638579 1.4271847e-38 300 251
-0.025284819 0.759 -0.014638579 1.4271847e-38 301 251
-0.023954039 0.759 -0.014638579 1.4179654e-38 302 251
-0.022563647 0.75700003 -0.014600007 1.4087458e-38 303 251
-0.021236373 0.75700003 -0.014600007 1.4086738e-38 304 251
-0.019909101 0.75700003 -0.014600007 1.3994183e-38 305 251
-0.018581826 0.75700003 -0.014600007 1.4085656e-38 306 251
-0.017208965 0.755 -0.014561433 1.3716875e-38 307 251
-0.015885198 0.755 -0.014561433 1.3532485e-38 308 251
-0.014561433 0.755 -0.014561433 1.3439931e-38 309 251
-0.013237666 0.755 -0.014561433 1.3531057e-38 310 251
-0.011913899 0.755 -0.014561433 1.3438861e-38 311 251
-0.010590133 0.755 -0.014561433 1.3712577e-38 312 251
-0.0092663663 0.755 -0.014561433 1.343599e-38 313 251
-0.0079425992 0.755 -0.014561433 1.3344516e-38 314 251
-0.0066188332 0.755 -0.014561433 1.3252321e-38 315 251
-0.0052950666 0.755 -0.014561433 1.3067934e-38 316 251
-0.0039712996 0.755 -0.014561433 1.3067934e-38 317 251
-0.0026475333 0.755 -0.014561433 1.315905e-38 318 251
-0.0013237667 0.755 -0.014561433 1.3066855e-38 319 251
0 0.755 -0.014561433 1.3066855e-38 320 251
0.0013237667 0.755 -0.014561433 1.2698072e-38 321 251
0.0026475333 0.755 -0.014561433 1.2604807e-38 322 251
0.0039712996 0.755 -0.014561433 1.2420416e-38 323 251
0.0052950666 0.755 -0.014561433 1.2052358e-38 324 251
0.0066188332 0.755 -0.014561433 1.1959804e-38 325 251
0.0079425992 0.755 -0.014561433 1.1684296e-38 326 251
0.0092663663 0.755 -0.014561433 1.15921e-38 327 251
0.010590133 0.755 -0.014561433 1.1407709e-38 328 251
0.01194546 0.75700003 -0.014600007 1.1315153e-38 329 251
0.013272733 0.75700003 -0.014600007 1.1131844e-38 330 251
0.014600007 0.75700003 -0.014600007 1.1039648e-38 331 251
0.015969358 0.759 -0.014638579 1.0671233e-38 332 251
0.017345725 0.76099998 -0.014677152 1.0579037e-38 333 251
0.018680012 0.76099998 -0.014677152 9.8447215e-39 334 251
0.020014299 0.76099998 -0.014677152 9.7525258e-39 335 251
0.02137664 0.76200002 -0.01469644 9.7518168e-39 336 251
0.022772292 0.764 -0.014735013 9.9365668e-39 337 251
0.024111839 0.764 -0.014735013 9.6617848e-39 338 251
0.025451386 0.764 -0.014735013 9.6617848e-39 339 251
0.026896132 0.76700002 -0.014792874 9.1122165e-39 340 251
0.02824094 0.76700002 -0.014792874 9.2962476e-39 341 251
0.029585747 0.76700002 -0.014792874 8.9296399e-39 342 251
0.030930554 0.76700002 -0.014792874 9.1140312e-39 343 251
0.032359518 0.76899999 -0.014831445 1.2256611e-38 344 251
-0.039304473 0.773 -0.016263919 1.2997401e-38 291 252
-0.037949149 0.773 -0.016263919 1.381345e-38 292 252
-0.036404461 0.76899999 -0.016179759 1.3721254e-38 293 252
-0.034964975 0.76700002 -0.01613768 1.3903455e-38 294 252
-0.033620168 0.76700002 -0.01613768 1.3718705e-38 295 252
-0.032233275 0.76599997 -0.016116638 1.3719041e-38 296 252
-0.030809574 0.764 -0.016074561 1.3719041e-38 297 252
-0.029354304 0.76099998 -0.016011439 1.3811241e-38 298 252
-0.028020019 0.76099998 -0.016011439 1.3811241e-38 299 252
-0.026685731 0.76099998 -0.016011439 1.3811241e-38 300 252
-0.025284819 0.759 -0.015969358 1.3811241e-38 301 252
-0.02389092 0.75700003 -0.015927281 1.3902354e-38 302 252
-0.022563647 0.75700003 -0.015927281 1.3810158e-38 303 252
-0.021236373 0.75700003 -0.015927281 1.3625776e-38 304 252
-0.0198565 0.755 -0.015885198 1.3625776e-38 305 252
-0.018532733 0.755 -0.015885198 1.3441029e-38 306 252
-0.017208965 0.755 -0.015885198 1.3256637e-38 307 252
-0.015885198 0.755 -0.015885198 1.3163722e-38 308 252
-0.014561433 0.755 -0.015885198 1.3071526e-38 309 252
-0.013237666 0.755 -0.015885198 1.3070452e-38 310 252
-0.011913899 0.755 -0.015885198 1.2978256e-38 311 252
-0.010590133 0.755 -0.015885198 1.3253401e-38 312 252
-0.0092663663 0.755 -0.015885198 1.3161204e-38 313 252
-0.0079425992 0.755 -0.015885198 1.3252321e-38 314 252
-0.0066188332 0.755 -0.015885198 1.3252321e-38 315 252
-0.0052950666 0.755 -0.015885198 1.3068655e-38 316 252
-0.0039712996 0.755 -0.015885198 1.297646e-38 317 252
-0.0026475333 0.755 -0.015885198 1.2883905e-38 318 252
-0.0013237667 0.755 -0.015885198 1.2607678e-38 319 252
0 0.755 -0.015885198 1.2515126e-38 320 252
0.0013237667 0.755 -0.015885198 1.2238539e-38 321 252
0.0026475333 0.755 -0.015885198 1.2145268e-38 322 252
0.0039712996 0.755 -0.015885198 1.2053073e-38 323 252
0.0052950666 0.755 -0.015885198 1.1777563e-38 324 252
0.0066188332 0.755 -0.015885198 1.1593172e-38 325 252
0.0079425992 0.755 -0.015885198 1.1592816e-38 326 252
0.0092663663 0.755 -0.015885198 1.1316589e-38 327 252
0.010618187 0.75700003 -0.015927281 1.1131844e-38 328 252
0.01194546 0.75700003 -0.015927281 1.1039648e-38 329 252
0.0133078 0.759 -0.015969358 1.07645e-38 330 252
0.014638579 0.759 -0.015969358 1.0488273e-38 331 252
0.015969358 0.759 -0.015969358 1.0396078e-38 332 252
0.017345725 0.76099998 -0.016011439 1.0303882e-38 333 252
0.018680012 0.76099998 -0.016011439 9.4755788e-39 334 252
0.020014299 0.76099998 -0.016011439 9.4755788e-39 335 252
0.02137664 0.76200002 -0.01603248 9.016421e-39 336 252
0.022772292 0.764 -0.016074561 9.2008122e-39 337 252
0.024111839 0.764 -0.016074561 9.0189391e-39 338 252
0.025451386 0.764 -0.016074561 9.295526e-39 339 252
0.026861066 0.76599997 -0.016116638 9.4784879e-39 340 252
0.028204117 0.76599997 -0.016116638 9.5706835e-39 341 252
0.029547172 0.76599997 -0.016116638 8.7466934e-39 342 252
0.030930554 0.76700002 -0.01613768 9.4842585e-39 343 252
0.032359518 0.76899999 -0.016179759 1.3085659e-38 344 252
-0.039304473 0.773 -0.017619247 1.4103761e-38 291 253
-0.037949149 0.773 -0.017619247 1.3814184e-38 292 253
-0.036309779 0.76700002 -0.017482487 1.3445403e-38 293 253
-0.034964975 0.76700002 -0.017482487 1.362796e-38 294 253
-0.033620168 0.76700002 -0.017482487 1.3351733e-38 295 253
-0.032233275 0.76599997 -0.017459691 1.3535023e-38 296 253
-0.030809574 0.764 -0.017414106 1.3442827e-38 297 253
-0.029470026 0.764 -0.017414106 1.3809795e-38 298 253
-0.028020019 0.76099998 -0.017345725 1.3809795e-38 299 253
-0.026685731 0.76099998 -0.017345725 1.3626124e-38 300 253
-0.025284819 0.759 -0.017300138 1.3626124e-38 301 253
-0.02389092 0.75700003 -0.017254554 1.3717597e-38 302 253
-0.022563647 0.75700003 -0.017254554 1.3625401e-38 303 253
-0.021236373 0.75700003 -0.017254554 1.3441012e-38 304 253
-0.0198565 0.755 -0.017208965 1.3256621e-38 305 253
-0.018532733 0.755 -0.017208965 1.3439227e-38 306 253
-0.017208965 0.755 -0.017208965 1.3070805e-38 307 253
-0.015885198 0.755 -0.017208965 1.3161568e-38 308 253
-0.014561433 0.755 -0.017208965 1.2977536e-38 309 253
-0.013237666 0.755 -0.017208965 1.2978256e-38 310 253
-0.011913899 0.755 -0.017208965 1.2978256e-38 311 253
-0.010590133 0.755 -0.017208965 1.3160848e-38 312 253
-0.0092663663 0.755 -0.017208965 1.3160848e-38 313 253
-0.0079425992 0.755 -0.017208965 1.288534e-38 314 253
-0.0066188332 0.755 -0.017208965 1.288534e-38 315 253
-0.0052950666 0.755 -0.017208965 1.3068655e-38 316 253
-0.0039712996 0.755 -0.017208965 1.2883905e-38 317 253
-0.0026475333 0.755 -0.017208965 1.2790991e-38 318 253
-0.0013272733 0.75700003 -0.017254554 1.2422567e-38 319 253
0 0.755 -0.017208965 1.260516e-38 320 253
0.0013237667 0.755 -0.017208965 1.2328213e-38 321 253
0.0026475333 0.755 -0.017208965 1.1961231e-38 322 253
0.0039712996 0.755 -0.017208965 1.1776842e-38 323 253
0.0052950666 0.755 -0.017208965 1.1684649e-38 324 253
0.0066188332 0.755 -0.017208965 1.1592453e-38 325 253
0.0079425992 0.755 -0.017208965 1.1316589e-38 326 253
0.0092663663 0.755 -0.017208965 1.1224394e-38 327 253
0.010618187 0.75700003 -0.017254554 1.1131125e-38 328 253
0.01197702 0.759 -0.017300138 1.1131125e-38 329 253
0.0133078 0.759 -0.017300138 1.0671588e-38 330 253
0.014638579 0.759 -0.017300138 1.0579393e-38 331 253
0.015969358 0.759 -0.017300138 1.0120217e-38 332 253
0.017345725 0.76099998 -0.017345725 9.7510741e-39 333 253
0.018680012 0.76099998 -0.017345725 9.3819483e-39 334 253
0.020014299 0.76099998 -0.017345725 9.1050012e-39 335 253
0.02137664 0.76200002 -0.01736852 8.9213485e-39 336 253
0.022772292 0.764 -0.017414106 9.1982955e-39 337 253
0.024111839 0.764 -0.017414106 9.1104158e-39 338 253
0.025451386 0.764 -0.017414106 9.3866426e-39 339 253
0.026861066 0.76599997 -0.017459691 9.2962476e-39 340 253
0.028204117 0.76599997 -0.017459691 9.2962476e-39 341 253
0.029547172 0.76599997 -0.017459691 8.5633784e-39 342 253
0.030890226 0.76599997 -0.017459691 1.0314737e-38 343 253
-0.037949149 0.773 -0.018974574 1.3910702e-38 292 254
-0.036309779 0.76700002 -0.018827293 1.2804355e-38 293 254
-0.034964975 0.76700002 -0.018827293 1.3996019e-38 294 254
-0.033620168 0.76700002 -0.018827293 1.3627238e-38 295 254
-0.032233275 0.76599997 -0.018802745 1.3442827e-38 296 254
-0.030809574 0.764 -0.018753653 1.3350631e-38 297 254
-0.029470026 0.764 -0.018753653 1.3258433e-38 298 254
-0.028020019 0.76099998 -0.018680012 1.3258433e-38 299 254
-0.026685731 0.76099998 -0.018680012 1.325807e-38 300 254
-0.025284819 0.759 -0.01863092 1.325807e-38 301 254
-0.023954039 0.759 -0.01863092 1.3349184e-38 302 254
-0.02262326 0.759 -0.01863092 1.3256987e-38 303 254
-0.02129248 0.759 -0.01863092 1.2981126e-38 304 254
-0.0198565 0.755 -0.018532733 1.2796735e-38 305 254
-0.018532733 0.755 -0.018532733 1.2610564e-38 306 254
-0.017208965 0.755 -0.018532733 1.2610564e-38 307 254
-0.015885198 0.755 -0.018532733 1.2609845e-38 308 254
-0.014561433 0.755 -0.018532733 1.2702041e-38 309 254
-0.013237666 0.755 -0.018532733 1.2702391e-38 310 254
-0.011913899 0.755 -0.018532733 1.2702391e-38 311 254
-0.010590133 0.755 -0.018532733 1.2977183e-38 312 254
-0.0092663663 0.755 -0.018532733 1.2884987e-38 313 254
-0.0079425992 0.755 -0.018532733 1.2976106e-38 314 254
-0.0066188332 0.755 -0.018532733 1.2976106e-38 315 254
-0.0052950666 0.755 -0.018532733 1.2700243e-38 316 254
-0.0039712996 0.755 -0.018532733 1.2423656e-38 317 254
-0.0026545466 0.75700003 -0.018581826 1.2605892e-38 318 254
-0.0013272733 0.75700003 -0.018581826 1.2329665e-38 319 254
0 0.755 -0.018532733 1.2145271e-38 320 254
0.0013237667 0.755 -0.018532733 1.2053075e-38 321 254
0.0026475333 0.755 -0.018532733 1.177721e-38 322 254
0.0039712996 0.755 -0.018532733 1.1592819e-38 323 254
0.0052950666 0.755 -0.018532733 1.1408432e-38 324 254
0.0066188332 0.755 -0.018532733 1.1316236e-38 325 254
0.0079425992 0.755 -0.018532733 1.1407356e-38 326 254
0.0092909131 0.75700003 -0.018581826 1.1130769e-38 327 254
0.010618187 0.75700003 -0.018581826 1.0947099e-38 328 254
0.01197702 0.759 -0.01863092 1.0763068e-38 329 254
0.0133078 0.759 -0.01863092 1.0119508e-38 330 254
0.014638579 0.759 -0.01863092 9.935115e-39 331 254
0.016011439 0.76099998 -0.018680012 9.2919134e-39 332 254
0.017345725 0.76099998 -0.018680012 8.923491e-39 333 254
0.018680012 0.76099998 -0.018680012 8.4636003e-39 334 254
0.0200406 0.76200002 -0.01870456 8.4636003e-39 335 254
0.02137664 0.76200002 -0.01870456 8.188105e-39 336 254
0.022772292 0.764 -0.018753653 8.7412788e-39 337 254
0.024111839 0.764 -0.018753653 8.7430753e-39 338 254
0.025518013 0.76599997 -0.018802745 9.0200209e-39 339 254
0.026896132 0.76700002 -0.018827293 9.3870224e-39 340 254
0.02824094 0.76700002 -0.018827293 9.479218e-39 341 254
0.029585747 0.76700002 -0.018827293 9.0254509e-39 342 254
-0.036309779 0.76700002 -0.020172099 1.3174945e-38 293 255
-0.034964975 0.76700002 -0.020172099 1.3628686e-38 294 255
-0.033620168 0.76700002 -0.020172099 1.353649e-38 295 255
-0.03227536 0.76700002 -0.020172099 1.3443198e-38 296 255
-0.030890226 0.76599997 -0.020145798 1.3258448e-38 297 255
-0.029470026 0.764 -0.020093199 1.3257364e-38 298 255
-0.028020019 0.76099998 -0.020014299 1.3165168e-38 299 255
-0.026685731 0.76099998 -0.020014299 1.3073322e-38 300 255
-0.025284819 0.759 -0.0199617 1.2981126e-38 301 255
-0.023954039 0.759 -0.0199617 1.298041e-38 302 255
-0.02262326 0.759 -0.0199617 1.2887855e-38 303 255
-0.02129248 0.759 -0.0199617 1.2794588e-38 304 255
-0.0199617 0.759 -0.0199617 1.2610195e-38 305 255
-0.018532733 0.755 -0.0198565 1.2425451e-38 306 255
-0.017208965 0.755 -0.0198565 1.2425451e-38 307 255
-0.015885198 0.755 -0.0198565 1.2424729e-38 308 255
-0.014561433 0.755 -0.0198565 1.2517284e-38 309 255
-0.013237666 0.755 -0.0198565 1.2701312e-38 310 255
-0.011913899 0.755 -0.0198565 1.2701312e-38 311 255
-0.010590133 0.755 -0.0198565 1.2883555e-38 312 255
-0.0092663663 0.755 -0.0198565 1.2883555e-38 313 255
-0.0079425992 0.755 -0.0198565 1.2699171e-38 314 255
-0.0066188332 0.755 -0.0198565 1.2606975e-38 315 255
-0.0052950666 0.755 -0.0198565 1.2514782e-38 316 255
-0.0039712996 0.755 -0.0198565 1.2330031e-38 317 255
-0.0026545466 0.75700003 -0.019909101 1.2329668e-38 318 255
-0.0013272733 0.75700003 -0.019909101 1.2144918e-38 319 255
0 0.755 -0.0198565 1.2053078e-38 320 255
0.0013237667 0.755 -0.0198565 1.1960522e-38 321 255
0.0026545466 0.75700003 -0.019909101 1.1684661e-38 322 255
0.0039818203 0.75700003 -0.019909101 1.1592466e-38 323 255
0.0053090933 0.75700003 -0.019909101 1.1315883e-38 324 255
0.0066363667 0.75700003 -0.019909101 1.1223687e-38 325 255
0.0079636406 0.75700003 -0.019909101 1.1130418e-38 326 255
0.0092909131 0.75700003 -0.019909101 1.1038223e-38 327 255
0.01064624 0.759 -0.0199617 1.0578689e-38 328 255
0.01197702 0.759 -0.0199617 1.0486135e-38 329 255
0.013342866 0.76099998 -0.020014299 9.8425691e-39 330 255
0.014677152 0.76099998 -0.020014299 9.473788e-39 331 255
0.016011439 0.76099998 -0.020014299 8.9217016e-39 332 255
0.017345725 0.76099998 -0.020014299 8.829506e-39 333 255
0.01870456 0.76200002 -0.0200406 8.0944689e-39 334 255
0.0200406 0.76200002 -0.0200406 8.2785e-39 335 255
0.02137664 0.76200002 -0.0200406 8.1873834e-39 336 255
0.022772292 0.764 -0.020093199 8.6483615e-39 337 255
0.024111839 0.764 -0.020093199 8.834908e-39 338 255
0.025518013 0.76599997 -0.020145798 9.2033303e-39 339 255
0.026896132 0.76700002 -0.020172099 9.2047821e-39 340 255
0.02824094 0.76700002 -0.020172099 9.1125865e-39 341 255
0.029585747 0.76700002 -0.020172099 9.6697385e-39 342 255
-0.036309779 0.76700002 -0.021516906 1.3361507e-38 293 256
-0.034964975 0.76700002 -0.021516906 1.3722323e-38 294 256
-0.033620168 0.76700002 -0.021516906 1.3353541e-38 295 256
-0.03227536 0.76700002 -0.021516906 1.3443196e-38 296 256
-0.030890226 0.76599997 -0.021488851 1.3258804e-38 297 256
-0.029470026 0.764 -0.021432746 1.2982222e-38 298 256
-0.028020019 0.76099998 -0.021348584 1.2797829e-38 299 256
-0.026685731 0.76099998 -0.021348584 1.2888224e-38 300 256
-0.025351444 0.76099998 -0.021348584 1.2796028e-38 301 256
-0.023954039 0.759 -0.02129248 1.279531e-38 302 256
-0.02262326 0.759 -0.02129248 1.2610917e-38 303 256
-0.021348584 0.76099998 -0.021348584 1.2517646e-38 304 256
-0.0199617 0.759 -0.02129248 1.2333255e-38 305 256
-0.01863092 0.759 -0.02129248 1.1966275e-38 306 256
-0.017254554 0.75700003 -0.021236373 1.1874079e-38 307 256
-0.015927281 0.75700003 -0.021236373 1.2239985e-38 308 256
-0.014561433 0.755 -0.021180267 1.233218e-38 309 256
-0.013237666 0.755 -0.021180267 1.2424735e-38 310 256
-0.011913899 0.755 -0.021180267 1.2424735e-38 311 256
-0.010590133 0.755 -0.021180267 1.2607694e-38 312 256
-0.0092663663 0.755 -0.021180267 1.2515498e-38 313 256
-0.0079425992 0.755 -0.021180267 1.2422947e-38 314 256
-0.0066188332 0.755 -0.021180267 1.2238914e-38 315 256
-0.0052950666 0.755 -0.021180267 1.2330387e-38 316 256
-0.0039712996 0.755 -0.021180267 1.2237832e-38 317 256
-0.0026545466 0.75700003 -0.021236373 1.2053801e-38 318 256
-0.0013272733 0.75700003 -0.021236373 1.186941e-38 319 256
0 0.75700003 -0.021236373 1.1593901e-38 320 256
0.0013272733 0.75700003 -0.021236373 1.1501346e-38 321 256
0.0026545466 0.75700003 -0.021236373 1.1316602e-38 322 256
0.0039818203 0.75700003 -0.021236373 1.1224406e-38 323 256
0.0053090933 0.75700003 -0.021236373 1.1131858e-38 324 256
0.0066363667 0.75700003 -0.021236373 1.0855629e-38 325 256
0.0079636406 0.75700003 -0.021236373 1.0670885e-38 326 256
0.00931546 0.759 -0.02129248 1.0486135e-38 327 256
0.01064624 0.759 -0.02129248 9.9340486e-39 328 256
0.012008579 0.76099998 -0.021348584 9.7492986e-39 329 256
0.013342866 0.76099998 -0.021348584 9.0138972e-39 330 256
0.014677152 0.76099998 -0.021348584 8.9217016e-39 331 256
0.016011439 0.76099998 -0.021348584 8.2785e-39 332 256
0.01736852 0.76200002 -0.02137664 8.0944689e-39 333 256
0.01870456 0.76200002 -0.02137664 7.543816e-39 334 256
0.020093199 0.764 -0.021432746 7.8200428e-39 335 256
0.021432746 0.764 -0.021432746 8.188105e-39 336 256
0.022772292 0.764 -0.021432746 8.5568889e-39 337 256
0.024174958 0.76599997 -0.021488851 8.650881e-39 338 256
0.025551327 0.76700002 -0.021516906 8.9274693e-39 339 256
0.026966266 0.76899999 -0.021573013 8.9296399e-39 340 256
0.028314579 0.76899999 -0.021573013 9.1140312e-39 341 256
0.02966289 0.76899999 -0.021573013 9.8555759e-39 342 256
-0.037605491 0.76599997 -0.022831906 1.4838805e-38 292 257
-0.036262438 0.76599997 -0.022831906 1.364062e-38 293 257
-0.034964975 0.76700002 -0.022861714 1.3908532e-38 294 257
-0.033707831 0.76899999 -0.022921326 1.3170967e-38 295 257
-0.03227536 0.76700002 -0.022861714 1.3535761e-38 296 257
-0.030890226 0.76599997 -0.022831906 1.3167337e-38 297 257
-0.029547172 0.76599997 -0.022831906 1.2890745e-38 298 257
-0.028130481 0.764 -0.022772292 1.2521962e-38 299 257
-0.0267208 0.76200002 -0.02271268 1.2796031e-38 300 257
-0.025351444 0.76099998 -0.022682872 1.2519446e-38 301 257
-0.024017159 0.76099998 -0.022682872 1.2518721e-38 302 257
-0.022682872 0.76099998 -0.022682872 1.2334331e-38 303 257
-0.021348584 0.76099998 -0.022682872 1.2149943e-38 304 257
-0.020014299 0.76099998 -0.022682872 1.1872996e-38 305 257
-0.018680012 0.76099998 -0.022682872 1.1781883e-38 306 257
-0.017300138 0.759 -0.02262326 1.1597132e-38 307 257
-0.015969358 0.759 -0.02262326 1.1871924e-38 308 257
-0.014600007 0.75700003 -0.022563647 1.1871924e-38 309 257
-0.013237666 0.755 -0.022504034 1.2147791e-38 310 257
-0.011913899 0.755 -0.022504034 1.2147791e-38 311 257
-0.010590133 0.755 -0.022504034 1.2147791e-38 312 257
-0.0092663663 0.755 -0.022504034 1.2055595e-38 313 257
-0.0079425992 0.755 -0.022504034 1.2055595e-38 314 257
-0.0066188332 0.755 -0.022504034 1.1871205e-38 315 257
-0.0052950666 0.755 -0.022504034 1.1871208e-38 316 257
-0.0039712996 0.755 -0.022504034 1.1686817e-38 317 257
-0.0026545466 0.75700003 -0.022563647 1.1410953e-38 318 257
-0.0013272733 0.75700003 -0.022563647 1.1318756e-38 319 257
0 0.75700003 -0.022563647 1.1409516e-38 320 257
0.0013272733 0.75700003 -0.022563647 1.113329e-38 321 257
0.0026545466 0.75700003 -0.022563647 1.0948545e-38 322 257
0.0039818203 0.75700003 -0.022563647 1.0856348e-38 323 257
0.0053090933 0.75700003 -0.022563647 1.0579766e-38 324 257
0.0066538998 0.759 -0.02262326 1.048757e-38 325 257
0.0079846792 0.759 -0.02262326 1.0486491e-38 326 257
0.00931546 0.759 -0.02262326 1.0117708e-38 327 257
0.01064624 0.759 -0.02262326 9.473788e-39 328 257
0.012008579 0.76099998 -0.022682872 9.2893953e-39 329 257
0.013342866 0.76099998 -0.022682872 8.829506e-39 330 257
0.014677152 0.76099998 -0.022682872 8.5532792e-39 331 257
0.01603248 0.76200002 -0.02271268 8.0022704e-39 332 257
0.01736852 0.76200002 -0.02271268 8.0022704e-39 333 257
0.01870456 0.76200002 -0.02271268 7.819677e-39 334 257
0.020093199 0.764 -0.022772292 7.9118727e-39 335 257
0.021432746 0.764 -0.022772292 8.1884581e-39 336 257
0.022831906 0.76599997 -0.022831906 8.5572421e-39 337 257
0.024206521 0.76700002 -0.022861714 8.467566e-39 338 257
0.025551327 0.76700002 -0.022861714 8.9281854e-39 339 257
0.026896132 0.76700002 -0.022861714 9.0225516e-39 340 257
0.02824094 0.76700002 -0.022861714 9.5757254e-39 341 257
0.029585747 0.76700002 -0.022861714 9.9502911e-39 342 257
-0.037409119 0.76200002 -0.02404872 1.4748414e-38 292 258
-0.036073081 0.76200002 -0.02404872 1.3826098e-38 293 258
-0.034964975 0.76700002 -0.024206521 1.4002176e-38 294 258
-0.033707831 0.76899999 -0.024269639 1.3172414e-38 295 258
-0.03227536 0.76700002 -0.024206521 1.3444291e-38 296 258
-0.030890226 0.76599997 -0.024174958 1.3167705e-38 297 258
-0.029547172 0.76599997 -0.024174958 1.2707077e-38 298 258
-0.028130481 0.764 -0.024111839 1.2522684e-38 299 258
-0.0267208 0.76200002 -0.02404872 1.2702758e-38 300 258
-0.025351444 0.76099998 -0.024017159 1.2518365e-38 301 258
-0.024017159 0.76099998 -0.024017159 1.2150662e-38 302 258
-0.022682872 0.76099998 -0.024017159 1.1874076e-38 303 258
-0.021348584 0.76099998 -0.024017159 1.1781879e-38 304 258
-0.020014299 0.76099998 -0.024017159 1.1597488e-38 305 258
-0.018680012 0.76099998 -0.024017159 1.1597488e-38 306 258
-0.017345725 0.76099998 -0.024017159 1.1320903e-38 307 258
-0.016011439 0.76099998 -0.024017159 1.1504574e-38 308 258
-0.014677152 0.76099998 -0.024017159 1.1504574e-38 309 258
-0.013342866 0.76099998 -0.024017159 1.1780081e-38 310 258
-0.01194546 0.75700003 -0.02389092 1.1687886e-38 311 258
-0.010618187 0.75700003 -0.02389092 1.1962678e-38 312 258
-0.0092909131 0.75700003 -0.02389092 1.1962678e-38 313 258
-0.0079636406 0.75700003 -0.02389092 1.1686814e-38 314 258
-0.0066363667 0.75700003 -0.02389092 1.1594618e-38 315 258
-0.0053090933 0.75700003 -0.02389092 1.1502065e-38 316 258
-0.0039818203 0.75700003 -0.02389092 1.140987e-38 317 258
-0.0026545466 0.75700003 -0.02389092 1.1226204e-38 318 258
-0.0013272733 0.75700003 -0.02389092 1.1134009e-38 319 258
0 0.75700003 -0.02389092 1.1133292e-38 320 258
0.0013272733 0.75700003 -0.02389092 1.0856345e-38 321 258
0.0026545466 0.75700003 -0.02389092 1.0763797e-38 322 258
0.0039818203 0.75700003 -0.02389092 1.0579766e-38 323 258
0.0053231199 0.759 -0.023954039 1.0395372e-38 324 258
0.0066538998 0.759 -0.023954039 1.0303176e-38 325 258
0.0079846792 0.759 -0.023954039 1.0118783e-38 326 258
0.00931546 0.759 -0.023954039 9.8421977e-39 327 258
0.010674292 0.76099998 -0.024017159 9.1068005e-39 328 258
0.012008579 0.76099998 -0.024017159 8.9224078e-39 329 258
0.013342866 0.76099998 -0.024017159 8.4628786e-39 330 258
0.01469644 0.76200002 -0.02404872 8.370683e-39 331 258
0.01603248 0.76200002 -0.02404872 8.0033452e-39 332 258
0.01736852 0.76200002 -0.02404872 8.0033452e-39 333 258
0.01870456 0.76200002 -0.02404872 7.8203959e-39 334 258
0.020093199 0.764 -0.024111839 7.9125915e-39 335 258
0.021432746 0.764 -0.024111839 8.0973415e-39 336 258
0.022831906 0.76599997 -0.024174958 8.4657653e-39 337 258
0.024206521 0.76700002 -0.024206521 8.4682862e-39 338 258
0.025551327 0.76700002 -0.024206521 8.8370688e-39 339 258
0.026896132 0.76700002 -0.024206521 9.0236306e-39 340 258
0.02824094 0.76700002 -0.024206521 9.5768044e-39 341 258
0.029585747 0.76700002 -0.024206521 1.0226156e-38 342 258
-0.037409119 0.76200002 -0.02538476 1.4380716e-38 292 259
-0.036073081 0.76200002 -0.02538476 1.3735347e-38 293 259
-0.03514732 0.77100003 -0.02568458 1.4095459e-38 294 259
-0.033707831 0.76899999 -0.025617953 1.3173863e-38 295 259
-0.03227536 0.76700002 -0.025551327 1.3813426e-38 296 259
-0.030930554 0.76700002 -0.025551327 1.3260253e-38 297 259
-0.029547172 0.76599997 -0.025518013 1.3075124e-38 298 259
-0.028204117 0.76599997 -0.025518013 1.2613785e-38 299 259
-0.026790932 0.764 -0.025451386 1.2611994e-38 300 259
-0.025351444 0.76099998 -0.025351444 1.2243211e-38 301 259
-0.024017159 0.76099998 -0.025351444 1.214994e-38 302 259
-0.022682872 0.76099998 -0.025351444 1.1965547e-38 303 259
-0.021348584 0.76099998 -0.025351444 1.1596413e-38 304 259
-0.020014299 0.76099998 -0.025351444 1.1504218e-38 305 259
-0.018680012 0.76099998 -0.025351444 1.1320905e-38 306 259
-0.01736852 0.76200002 -0.02538476 1.1320905e-38 307 259
-0.016011439 0.76099998 -0.025351444 1.1136514e-38 308 259
-0.014677152 0.76099998 -0.025351444 1.122871e-38 309 259
-0.013342866 0.76099998 -0.025351444 1.1411669e-38 310 259
-0.01197702 0.759 -0.025284819 1.1411669e-38 311 259
-0.01064624 0.759 -0.025284819 1.1594265e-38 312 259
-0.00931546 0.759 -0.025284819 1.1409872e-38 313 259
-0.0079636406 0.75700003 -0.025218192 1.1501352e-38 314 259
-0.0066363667 0.75700003 -0.025218192 1.1408798e-38 315 259
-0.0053090933 0.75700003 -0.025218192 1.1134011e-38 316 259
-0.0039818203 0.75700003 -0.025218192 1.1041816e-38 317 259
-0.0026545466 0.75700003 -0.025218192 1.058264e-38 318 259
-0.0013272733 0.75700003 -0.025218192 1.058264e-38 319 259
0 0.75700003 -0.025218192 1.0764877e-38 320 259
0.0013272733 0.75700003 -0.025218192 1.0580484e-38 321 259
0.0026545466 0.75700003 -0.025218192 1.039609e-38 322 259
0.0039818203 0.75700003 -0.025218192 1.0303895e-38 323 259
0.0053231199 0.759 -0.025284819 1.0028387e-38 324 259
0.0066714329 0.76099998 -0.025351444 9.9358311e-39 325 259
0.0080057196 0.76099998 -0.025351444 9.9347521e-39 326 259
0.0093400059 0.76099998 -0.025351444 9.7500021e-39 327 259
0.010674292 0.76099998 -0.025351444 9.2908218e-39 328 259
0.012008579 0.76099998 -0.025351444 9.1064306e-39 329 259
0.0133604 0.76200002 -0.02538476 8.7390928e-39 330 259
0.01469644 0.76200002 -0.02538476 8.5547015e-39 331 259
0.01603248 0.76200002 -0.02538476 8.2792034e-39 332 259
0.01736852 0.76200002 -0.02538476 8.3713991e-39 333 259
0.018753653 0.764 -0.025451386 8.2802852e-39 334 259
0.020093199 0.764 -0.025451386 8.3724809e-39 335 259
0.021432746 0.764 -0.025451386 8.0069424e-39 336 259
0.022831906 0.76599997 -0.025518013 8.3753647e-39 337 259
0.024206521 0.76700002 -0.025551327 8.3775325e-39 338 259
0.025551327 0.76700002 -0.025551327 8.9307063e-39 339 259
0.026896132 0.76700002 -0.025551327 8.8410414e-39 340 259
0.02824094 0.76700002 -0.025551327 9.4864109e-39 341 259
0.029585747 0.76700002 -0.025551327 9.949568e-39 342 259
-0.036499143 0.77100003 -0.027036399 1.3459842e-38 293 260
-0.03514732 0.77100003 -0.027036399 1.3914678e-38 294 260
-0.033795502 0.77100003 -0.027036399 1.2808689e-38 295 260
-0.032359518 0.76899999 -0.026966266 1.3355714e-38 296 260
-0.030930554 0.76700002 -0.026896132 1.280254e-38 297 260
-0.029585747 0.76700002 -0.026896132 1.2799644e-38 298 260
-0.028204117 0.76599997 -0.026861066 1.2523417e-38 299 260
-0.026790932 0.764 -0.026790932 1.2426903e-38 300 260
-0.02538476 0.76200002 -0.0267208 1.2242151e-38 301 260
-0.024017159 0.76099998 -0.026685731 1.2057038e-38 302 260
-0.022682872 0.76099998 -0.026685731 1.1688614e-38 303 260
-0.021348584 0.76099998 -0.026685731 1.168753e-38 304 260
-0.0200406 0.76200002 -0.0267208 1.168753e-38 305 260
-0.01870456 0.76200002 -0.0267208 1.1320903e-38 306 260
-0.01736852 0.76200002 -0.0267208 1.1228707e-38 307 260
-0.016011439 0.76099998 -0.026685731 1.1136514e-38 308 260
-0.014677152 0.76099998 -0.026685731 1.1044317e-38 309 260
-0.013342866 0.76099998 -0.026685731 1.1319109e-38 310 260
-0.012008579 0.76099998 -0.026685731 1.1226554e-38 311 260
-0.010674292 0.76099998 -0.026685731 1.140987e-38 312 260
-0.00931546 0.759 -0.026615599 1.1225838e-38 313 260
-0.0079846792 0.759 -0.026615599 1.1133643e-38 314 260
-0.0066538998 0.759 -0.026615599 1.1133643e-38 315 260
-0.0053231199 0.759 -0.026615599 1.1042166e-38 316 260
-0.0039923396 0.759 -0.026615599 1.1042166e-38 317 260
-0.00266156 0.759 -0.026615599 1.0583343e-38 318 260
-0.00133078 0.759 -0.026615599 1.0490789e-38 319 260
0 0.759 -0.026615599 1.058226e-38 320 260
0.00133078 0.759 -0.026615599 1.0305674e-38 321 260
0.00266156 0.759 -0.026615599 1.0029816e-38 322 260
0.0039923396 0.759 -0.026615599 9.8454249e-39 323 260
0.0053371461 0.76099998 -0.026685731 1.0027312e-38 324 260
0.0066714329 0.76099998 -0.026685731 9.8429194e-39 325 260
0.0080057196 0.76099998 -0.026685731 9.5670556e-39 326 260
0.0093400059 0.76099998 -0.026685731 9.4748599e-39 327 260
0.010674292 0.76099998 -0.026685731 9.1993521e-39 328 260
0.012008579 0.76099998 -0.026685731 9.1071564e-39 329 260
0.0133604 0.76200002 -0.0267208 8.372834e-39 330 260
0.01469644 0.76200002 -0.0267208 8.372834e-39 331 260
0.01603248 0.76200002 -0.0267208 8.0976918e-39 332 260
0.017414106 0.764 -0.026790932 8.37392e-39 333 260
0.018753653 0.764 -0.026790932 8.1902518e-39 334 260
0.020093199 0.764 -0.026790932 8.3750018e-39 335 260
0.021488851 0.76599997 -0.026861066 8.1005785e-39 336 260
0.022861714 0.76700002 -0.026896132 8.2849712e-39 337 260
0.024206521 0.76700002 -0.026896132 8.6544754e-39 338 260
0.025617953 0.76899999 -0.026966266 9.1154535e-39 339 260
0.026966266 0.76899999 -0.026966266 8.9350279e-39 340 260
0.02824094 0.76700002 -0.026896132 9.2116148e-39 341 260
0.029585747 0.76700002 -0.026896132 9.2138008e-39 342 260
-0.035238493 0.773 -0.028461859 1.345587e-38 294 261
-0.033883166 0.773 -0.028461859 1.2810501e-38 295 261
-0.032443684 0.77100003 -0.028388219 1.3450443e-38 296 261
-0.030930554 0.76700002 -0.02824094 1.2528847e-38 297 261
-0.029585747 0.76700002 -0.02824094 1.3258831e-38 298 261
-0.02824094 0.76700002 -0.02824094 1.2705657e-38 299 261
-0.026861066 0.76599997 -0.028204117 1.2611291e-38 300 261
-0.025451386 0.764 -0.028130481 1.2334703e-38 301 261
-0.02404872 0.76200002 -0.028056841 1.2057391e-38 302 261
-0.022682872 0.76099998 -0.028020019 1.1872999e-38 303 261
-0.021348584 0.76099998 -0.028020019 1.1596766e-38 304 261
-0.0200406 0.76200002 -0.028056841 1.1504571e-38 305 261
-0.01870456 0.76200002 -0.028056841 1.1504571e-38 306 261
-0.01736852 0.76200002 -0.028056841 1.1412375e-38 307 261
-0.01603248 0.76200002 -0.028056841 1.1227629e-38 308 261
-0.01469644 0.76200002 -0.028056841 1.1227629e-38 309 261
-0.0133604 0.76200002 -0.028056841 1.0951765e-38 310 261
-0.012008579 0.76099998 -0.028020019 1.085957e-38 311 261
-0.010674292 0.76099998 -0.028020019 1.0951049e-38 312 261
-0.0093400059 0.76099998 -0.028020019 1.0858854e-38 313 261
-0.0080057196 0.76099998 -0.028020019 1.0858854e-38 314 261
-0.0066714329 0.76099998 -0.028020019 1.0858854e-38 315 261
-0.0053231199 0.759 -0.027946379 1.0675186e-38 316 261
-0.0039923396 0.759 -0.027946379 1.058299e-38 317 261
-0.0026685731 0.76099998 -0.028020019 1.0398959e-38 318 261
-0.00133078 0.759 -0.027946379 1.0214926e-38 319 261
0 0.759 -0.027946379 1.0215279e-38 320 261
0.00133078 0.759 -0.027946379 1.0030888e-38 321 261
0.00266156 0.759 -0.027946379 1.0029816e-38 322 261
0.0040028598 0.76099998 -0.028020019 9.8454249e-39 323 261
0.0053371461 0.76099998 -0.028020019 9.8429194e-39 324 261
0.0066714329 0.76099998 -0.028020019 9.7507238e-39 325 261
0.0080057196 0.76099998 -0.028020019 9.2915477e-39 326 261
0.0093400059 0.76099998 -0.028020019 9.2915477e-39 327 261
0.010674292 0.76099998 -0.028020019 9.0167559e-39 328 261
0.01202436 0.76200002 -0.028056841 9.0167559e-39 329 261
0.0133604 0.76200002 -0.028056841 8.9252763e-39 330 261
0.01469644 0.76200002 -0.028056841 8.9252763e-39 331 261
0.016074561 0.764 -0.028130481 8.7423298e-39 332 261
0.017414106 0.764 -0.028130481 8.8345254e-39 333 261
0.018802745 0.76599997 -0.028204117 8.8356114e-39 334 261
0.020145798 0.76599997 -0.028204117 8.8356114e-39 335 261
0.021516906 0.76700002 -0.02824094 8.835624e-39 336 261
0.022861714 0.76700002 -0.02824094 9.0200153e-39 337 261
0.024206521 0.76700002 -0.02824094 8.9307063e-39 338 261
0.025617953 0.76899999 -0.028314579 9.3920446e-39 339 261
0.026966266 0.76899999 -0.028314579 9.2091163e-39 340 261
0.02824094 0.76700002 -0.02824094 9.2091163e-39 341 261
-0.033883166 0.773 -0.029817186 1.262791e-38 295 262
