# .PCD v.7 - Point Cloud Data file format
FIELDS x y z rgb imX imY
SIZE 4 4 4 4 4 4
TYPE F F F F F F
COUNT 1 1 1 1 1 1
WIDTH 836
HEIGHT 1
VIEWPOINT 0 0 0 1 0 0 0
POINTS 836
DATA ascii
0.0181733 0.69099998 -0.046039023 1.4265734e-38 335 278
0.01944096 0.69300002 -0.04617228 1.3989517e-38 336 278
0.020656019 0.69300002 -0.04617228 1.4081713e-38 337 278
0.021871079 0.69300002 -0.04617228 1.4082433e-38 338 278
0.023119451 0.69400001 -0.046238903 1.4174629e-38 339 278
0.024336265 0.69400001 -0.046238903 1.3991319e-38 340 278
0.025626717 0.69599998 -0.046372157 1.3991319e-38 341 278
0.026847038 0.69599998 -0.046372157 1.3991335e-38 342 278
0.028107686 0.69700003 -0.046438783 1.408353e-38 343 278
0.02932976 0.69700003 -0.046438783 1.4175729e-38 344 278
0.030595668 0.69800001 -0.046505414 1.4451957e-38 345 278
0.031910665 0.69999999 -0.046638668 1.4268289e-38 346 278
0.033137999 0.69999999 -0.046638668 1.4360843e-38 347 278
0.034414422 0.70099998 -0.046705291 1.4360134e-38 348 278
0.035745207 0.70300001 -0.046838548 1.4636719e-38 349 278
0.037030395 0.704 -0.046905171 1.4545617e-38 350 278
0.038210396 0.70300001 -0.046838548 1.5467932e-38 351 278
0.039442986 0.70300001 -0.046838548 1.3822119e-38 352 278
0.040675577 0.70300001 -0.046838548 1.4559684e-38 353 278
0.041908171 0.70300001 -0.046838548 1.2917469e-38 354 278
-0.033800758 0.71399999 -0.048823316 1.3093228e-38 293 279
-0.032503292 0.713 -0.048754938 8.1963909e-39 294 279
-0.031253166 0.713 -0.048754938 9.3023783e-39 295 279
-0.02979264 0.708 -0.048413038 1.2058135e-38 296 279
-0.02855128 0.708 -0.048413038 1.196594e-38 297 279
-0.027232772 0.70599997 -0.048276275 1.2424747e-38 298 279
-0.02592128 0.704 -0.048139516 1.2148521e-38 299 279
-0.024651866 0.70300001 -0.048071139 1.279029e-38 300 279
-0.023352645 0.70099998 -0.047934376 1.279029e-38 301 279
-0.022091998 0.69999999 -0.047865998 1.2882486e-38 302 279
-0.020864666 0.69999999 -0.047865998 1.2974681e-38 303 279
-0.019637333 0.69999999 -0.047865998 1.2791735e-38 304 279
-0.0183574 0.69800001 -0.047729239 1.2791735e-38 305 279
-0.017133573 0.69800001 -0.047729239 1.2973978e-38 306 279
-0.015886955 0.69700003 -0.047660861 1.2881782e-38 307 279
-0.014643839 0.69599998 -0.047592476 1.2974334e-38 308 279
-0.013423519 0.69599998 -0.047592476 1.3527149e-38 309 279
-0.0122032 0.69599998 -0.047592476 1.4814631e-38 310 279
-0.01095132 0.69400001 -0.047455717 1.5091218e-38 311 279
-0.0097345067 0.69400001 -0.047455717 1.4999726e-38 312 279
-0.0085176928 0.69400001 -0.047455717 1.4815335e-38 313 279
-0.0072903596 0.69300002 -0.047387339 1.4813177e-38 314 279
-0.0060753003 0.69300002 -0.047387339 1.4813177e-38 315 279
-0.00486024 0.69300002 -0.047387339 1.4354356e-38 316 279
-0.0036346598 0.69099998 -0.047250576 1.4446552e-38 317 279
-0.0024231065 0.69099998 -0.047250576 1.4537671e-38 318 279
-0.0012115532 0.69099998 -0.047250576 1.4445117e-38 319 279
0 0.69300002 -0.047387339 1.4445117e-38 320 279
0.00121506 0.69300002 -0.047387339 1.4445117e-38 321 279
0.00243012 0.69300002 -0.047387339 1.4445826e-38 322 279
0.0036451798 0.69300002 -0.047387339 1.4538022e-38 323 279
0.00486024 0.69300002 -0.047387339 1.426323e-38 324 279
0.0060753003 0.69300002 -0.047387339 1.4447621e-38 325 279
0.0072693196 0.69099998 -0.047250576 1.4264662e-38 326 279
0.0084686 0.69 -0.047182199 1.4264662e-38 327 279
0.0096783992 0.69 -0.047182199 1.4172464e-38 328 279
0.010856641 0.68800002 -0.047045439 1.4264659e-38 329 279
0.012062933 0.68800002 -0.047045439 1.4264662e-38 330 279
0.013269227 0.68800002 -0.047045439 1.4264662e-38 331 279
0.014475521 0.68800002 -0.047045439 1.4172464e-38 332 279
0.015727401 0.69 -0.047182199 1.4172464e-38 333 279
0.0169372 0.69 -0.047182199 1.4080631e-38 334 279
0.0181733 0.69099998 -0.047250576 1.4080631e-38 335 279
0.01944096 0.69300002 -0.047387339 1.3896603e-38 336 279
0.020656019 0.69300002 -0.047387339 1.4080634e-38 337 279
0.021871079 0.69300002 -0.047387339 1.389804e-38 338 279
0.023119451 0.69400001 -0.047455717 1.3990236e-38 339 279
0.024336265 0.69400001 -0.047455717 1.4082433e-38 340 279
0.025553079 0.69400001 -0.047455717 1.3990236e-38 341 279
0.026847038 0.69599998 -0.047592476 1.3990966e-38 342 279
0.028107686 0.69700003 -0.047660861 1.4174997e-38 343 279
0.02932976 0.69700003 -0.047660861 1.4174997e-38 344 279
0.030595668 0.69800001 -0.047729239 1.4359388e-38 345 279
0.031819493 0.69800001 -0.047729239 1.4267196e-38 346 279
0.033137999 0.69999999 -0.047865998 1.4451587e-38 347 279
0.034414422 0.70099998 -0.047934376 1.4451957e-38 348 279
0.035745207 0.70300001 -0.048071139 1.4636348e-38 349 279
0.036977798 0.70300001 -0.048071139 1.4270105e-38 350 279
0.038210396 0.70300001 -0.048071139 1.5376452e-38 351 279
0.039442986 0.70300001 -0.048071139 1.501707e-38 352 279
0.040675577 0.70300001 -0.048071139 1.8797089e-38 353 279
0.041967787 0.704 -0.048139516 1.7242028e-38 354 279
-0.033753417 0.713 -0.050005067 1.2630801e-38 293 280
-0.032503292 0.713 -0.050005067 1.0218927e-38 294 280
-0.031253166 0.713 -0.050005067 1.0680265e-38 295 280
-0.02979264 0.708 -0.049654398 1.2241448e-38 296 280
-0.028510952 0.70700002 -0.049584266 1.2149252e-38 297 280
-0.027155625 0.704 -0.049373865 1.2056691e-38 298 280
-0.02592128 0.704 -0.049373865 1.2056691e-38 299 280
-0.024651866 0.70300001 -0.049303733 1.2422596e-38 300 280
-0.023319334 0.69999999 -0.049093332 1.2422596e-38 301 280
-0.02202888 0.69800001 -0.048953064 1.214817e-38 302 280
-0.020805053 0.69800001 -0.048953064 1.2424397e-38 303 280
-0.019637333 0.69999999 -0.049093332 1.2606993e-38 304 280
-0.0183574 0.69800001 -0.048953064 1.2606993e-38 305 280
-0.017133573 0.69800001 -0.048953064 1.2514444e-38 306 280
-0.015886955 0.69700003 -0.048882935 1.260664e-38 307 280
-0.014643839 0.69599998 -0.048812799 1.2698473e-38 308 280
-0.013423519 0.69599998 -0.048812799 1.3251288e-38 309 280
-0.0122032 0.69599998 -0.048812799 1.4448014e-38 310 280
-0.01095132 0.69400001 -0.048672531 1.4448014e-38 311 280
-0.0097345067 0.69400001 -0.048672531 1.4539113e-38 312 280
-0.0085176928 0.69400001 -0.048672531 1.4354722e-38 313 280
-0.0072903596 0.69300002 -0.048602402 1.4354003e-38 314 280
-0.0060753003 0.69300002 -0.048602402 1.4261808e-38 315 280
-0.00486024 0.69300002 -0.048602402 1.4078142e-38 316 280
-0.0036346598 0.69099998 -0.04846213 1.3985947e-38 317 280
-0.0024231065 0.69099998 -0.04846213 1.4077062e-38 318 280
-0.0012115532 0.69099998 -0.04846213 1.4169259e-38 319 280
0 0.69300002 -0.048602402 1.4077415e-38 320 280
0.00121506 0.69300002 -0.048602402 1.4261808e-38 321 280
0.00243012 0.69300002 -0.048602402 1.3896252e-38 322 280
0.0036451798 0.69300002 -0.048602402 1.3896252e-38 323 280
0.0048391996 0.69 -0.048391998 1.4080637e-38 324 280
0.0060489997 0.69 -0.048391998 1.4172832e-38 325 280
0.0072587994 0.69 -0.048391998 1.3989517e-38 326 280
0.0084686 0.69 -0.048391998 1.3897321e-38 327 280
0.0096503468 0.68800002 -0.048251733 1.4080634e-38 328 280
0.010856641 0.68800002 -0.048251733 1.4080634e-38 329 280
0.012062933 0.68800002 -0.048251733 1.3897684e-38 330 280
0.013269227 0.68800002 -0.048251733 1.3713653e-38 331 280
0.014475521 0.68800002 -0.048251733 1.362146e-38 332 280
0.015727401 0.69 -0.048391998 1.362146e-38 333 280
0.0169372 0.69 -0.048391998 1.3621105e-38 334 280
0.0181733 0.69099998 -0.04846213 1.3621105e-38 335 280
0.01944096 0.69300002 -0.048602402 1.3621107e-38 336 280
0.020656019 0.69300002 -0.048602402 1.3713303e-38 337 280
0.021871079 0.69300002 -0.048602402 1.3622902e-38 338 280
0.023119451 0.69400001 -0.048672531 1.3622902e-38 339 280
0.024336265 0.69400001 -0.048672531 1.3806573e-38 340 280
0.025553079 0.69400001 -0.048672531 1.3806573e-38 341 280
0.026847038 0.69599998 -0.048812799 1.3623272e-38 342 280
0.028107686 0.69700003 -0.048882935 1.3715468e-38 343 280
0.02932976 0.69700003 -0.048882935 1.371619e-38 344 280
0.030595668 0.69800001 -0.048953064 1.3808385e-38 345 280
0.031819493 0.69800001 -0.048953064 1.3809104e-38 346 280
0.033137999 0.69999999 -0.049093332 1.3809104e-38 347 280
0.034365334 0.69999999 -0.049093332 1.3993146e-38 348 280
0.035643511 0.70099998 -0.049163464 1.4177896e-38 349 280
0.036977798 0.70300001 -0.049303733 1.3994609e-38 350 280
0.038210396 0.70300001 -0.049303733 1.482473e-38 351 280
0.039442986 0.70300001 -0.049303733 1.5201829e-38 352 280
0.040675577 0.70300001 -0.049303733 2.0272589e-38 353 280
0.041967787 0.704 -0.049373865 1.8531694e-38 354 280
-0.032093015 0.704 -0.050608214 1.1598627e-38 294 281
-0.029708479 0.70599997 -0.050751984 1.2241448e-38 296 281
-0.028470624 0.70599997 -0.050751984 1.1688274e-38 297 281
-0.027155625 0.704 -0.050608214 1.1963775e-38 298 281
-0.025884461 0.70300001 -0.050536323 1.187122e-38 299 281
-0.024651866 0.70300001 -0.050536323 1.1963775e-38 300 281
-0.023319334 0.69999999 -0.050320663 1.1963775e-38 301 281
-0.02202888 0.69800001 -0.050176892 1.1963775e-38 302 281
-0.020805053 0.69800001 -0.050176892 1.2055972e-38 303 281
-0.019637333 0.69999999 -0.050320663 1.2697744e-38 304 281
-0.0183574 0.69800001 -0.050176892 1.2605188e-38 305 281
-0.017133573 0.69800001 -0.050176892 1.2697024e-38 306 281
-0.015886955 0.69700003 -0.050105009 1.2604469e-38 307 281
-0.014643839 0.69599998 -0.050033119 1.2972533e-38 308 281
-0.013423519 0.69599998 -0.050033119 1.343351e-38 309 281
-0.012168133 0.69400001 -0.049889345 1.3710449e-38 310 281
-0.01095132 0.69400001 -0.049889345 1.3710449e-38 311 281
-0.0097345067 0.69400001 -0.049889345 1.4536599e-38 312 281
-0.0085176928 0.69400001 -0.049889345 1.4352207e-38 313 281
-0.0072903596 0.69300002 -0.049817458 1.4168892e-38 314 281
-0.0060753003 0.69300002 -0.049817458 1.4168892e-38 315 281
-0.00486024 0.69300002 -0.049817458 1.4168889e-38 316 281
-0.0036451798 0.69300002 -0.049817458 1.4168889e-38 317 281
-0.0024231065 0.69099998 -0.049673684 1.4077765e-38 318 281
-0.0012115532 0.69099998 -0.049673684 1.4077765e-38 319 281
0 0.69300002 -0.049817458 1.4077765e-38 320 281
0.00121506 0.69300002 -0.049817458 1.4169962e-38 321 281
0.00243012 0.69300002 -0.049817458 1.3895173e-38 322 281
0.0036451798 0.69300002 -0.049817458 1.3987369e-38 323 281
0.0048391996 0.69 -0.049601797 1.3895896e-38 324 281
0.0060489997 0.69 -0.049601797 1.3895896e-38 325 281
0.0072587994 0.69 -0.049601797 1.3896249e-38 326 281
0.0084440531 0.68800002 -0.049458027 1.3804054e-38 327 281
0.0096503468 0.68800002 -0.049458027 1.3987363e-38 328 281
0.010856641 0.68800002 -0.049458027 1.3895168e-38 329 281
0.012062933 0.68800002 -0.049458027 1.3712577e-38 330 281
0.013269227 0.68800002 -0.049458027 1.3528546e-38 331 281
0.014517599 0.69 -0.049601797 1.3618233e-38 332 281
0.015727401 0.69 -0.049601797 1.3710788e-38 333 281
0.0169372 0.69 -0.049601797 1.3618955e-38 334 281
0.0181733 0.69099998 -0.049673684 1.3711152e-38 335 281
0.019384852 0.69099998 -0.049673684 1.343636e-38 336 281
0.020656019 0.69300002 -0.049817458 1.362111e-38 337 281
0.021871079 0.69300002 -0.049817458 1.3621107e-38 338 281
0.023119451 0.69400001 -0.049889345 1.3621107e-38 339 281
0.024336265 0.69400001 -0.049889345 1.3438508e-38 340 281
0.025553079 0.69400001 -0.049889345 1.3531063e-38 341 281
0.026847038 0.69599998 -0.050033119 1.3714019e-38 342 281
0.028067358 0.69599998 -0.050033119 1.3806573e-38 343 281
0.02932976 0.69700003 -0.050105009 1.3531428e-38 344 281
0.030595668 0.69800001 -0.050176892 1.3715821e-38 345 281
0.031819493 0.69800001 -0.050176892 1.3716896e-38 346 281
0.033137999 0.69999999 -0.050320663 1.3716896e-38 347 281
0.034365334 0.69999999 -0.050320663 1.3808388e-38 348 281
0.035643511 0.70099998 -0.050392549 1.3992779e-38 349 281
0.036977798 0.70300001 -0.050536323 1.3626187e-38 350 281
0.038210396 0.70300001 -0.050536323 1.4639979e-38 351 281
0.039499093 0.704 -0.050608214 1.4834123e-38 352 281
0.040733438 0.704 -0.050608214 2.0089274e-38 353 281
0.041967787 0.704 -0.050608214 1.8439129e-38 354 281
-0.029624319 0.704 -0.051842559 1.2055622e-38 296 282
-0.028389972 0.704 -0.051842559 1.1963066e-38 297 282
-0.027117053 0.70300001 -0.051768921 1.1596434e-38 298 282
-0.025884461 0.70300001 -0.051768921 1.1596434e-38 299 282
-0.024581732 0.70099998 -0.051621638 1.1595362e-38 300 282
-0.023352645 0.70099998 -0.051621638 1.1410971e-38 301 282
-0.02202888 0.69800001 -0.051400717 1.113547e-38 302 282
-0.020805053 0.69800001 -0.051400717 1.1228024e-38 303 282
-0.019581227 0.69800001 -0.051400717 1.2053103e-38 304 282
-0.0183574 0.69800001 -0.051400717 1.232933e-38 305 282
-0.017133573 0.69800001 -0.051400717 1.2697024e-38 306 282
-0.015886955 0.69700003 -0.051327083 1.2604469e-38 307 282
-0.014643839 0.69599998 -0.051253434 1.2880333e-38 308 282
-0.013423519 0.69599998 -0.051253434 1.3064726e-38 309 282
-0.012168133 0.69400001 -0.051106159 1.3157999e-38 310 282
-0.01095132 0.69400001 -0.051106159 1.3250195e-38 311 282
-0.0097345067 0.69400001 -0.051106159 1.398451e-38 312 282
-0.0085054198 0.69300002 -0.051032521 1.3708284e-38 313 282
-0.0072903596 0.69300002 -0.051032521 1.3801185e-38 314 282
-0.0060753003 0.69300002 -0.051032521 1.3985217e-38 315 282
-0.00486024 0.69300002 -0.051032521 1.3894097e-38 316 282
-0.0036451798 0.69300002 -0.051032521 1.3894097e-38 317 282
-0.00243012 0.69300002 -0.051032521 1.3801901e-38 318 282
-0.00121506 0.69300002 -0.051032521 1.3801901e-38 319 282
0 0.69300002 -0.051032521 1.3894097e-38 320 282
0.00121506 0.69300002 -0.051032521 1.3894097e-38 321 282
0.00243012 0.69300002 -0.051032521 1.3618952e-38 322 282
0.0036451798 0.69300002 -0.051032521 1.3711508e-38 323 282
0.0048391996 0.69 -0.050811596 1.3528556e-38 324 282
0.0060489997 0.69 -0.050811596 1.343636e-38 325 282
0.0072587994 0.69 -0.050811596 1.352819e-38 326 282
0.0084440531 0.68800002 -0.050664321 1.3435993e-38 327 282
0.0096503468 0.68800002 -0.050664321 1.3710782e-38 328 282
0.010856641 0.68800002 -0.050664321 1.3618586e-38 329 282
0.012062933 0.68800002 -0.050664321 1.3343441e-38 330 282
0.013269227 0.68800002 -0.050664321 1.3251246e-38 331 282
0.014517599 0.69 -0.050811596 1.3157984e-38 332 282
0.015727401 0.69 -0.050811596 1.3157984e-38 333 282
0.0169372 0.69 -0.050811596 1.315835e-38 334 282
0.0181733 0.69099998 -0.050885238 1.3342741e-38 335 282
0.019384852 0.69099998 -0.050885238 1.3343813e-38 336 282
0.020656019 0.69300002 -0.051032521 1.3343813e-38 337 282
0.021871079 0.69300002 -0.051032521 1.343636e-38 338 282
0.023119451 0.69400001 -0.051106159 1.343636e-38 339 282
0.024336265 0.69400001 -0.051106159 1.3345599e-38 340 282
0.025553079 0.69400001 -0.051106159 1.3345599e-38 341 282
0.026847038 0.69599998 -0.051253434 1.3529275e-38 342 282
0.028067358 0.69599998 -0.051253434 1.3621829e-38 343 282
0.02932976 0.69700003 -0.051327083 1.3255567e-38 344 282
0.030551834 0.69700003 -0.051327083 1.343996e-38 345 282
0.031819493 0.69800001 -0.051400717 1.325593e-38 346 282
0.033137999 0.69999999 -0.051547997 1.3348127e-38 347 282
0.034365334 0.69999999 -0.051547997 1.3531818e-38 348 282
0.035643511 0.70099998 -0.051621638 1.3900601e-38 349 282
0.036872596 0.70099998 -0.051621638 1.3534001e-38 350 282
0.038210396 0.70300001 -0.051768921 1.4271925e-38 351 282
0.039499093 0.704 -0.051842559 1.4649732e-38 352 282
0.040733438 0.704 -0.051842559 1.9812686e-38 353 282
0.042146627 0.70700002 -0.05206348 1.8346577e-38 354 282
-0.030858666 0.704 -0.053076904 1.13242e-38 295 283
-0.029624319 0.704 -0.053076904 1.1871942e-38 296 283
-0.028389972 0.704 -0.053076904 1.1871942e-38 297 283
-0.027117053 0.70300001 -0.053001512 1.1688261e-38 298 283
-0.025884461 0.70300001 -0.053001512 1.1688261e-38 299 283
-0.024581732 0.70099998 -0.052850723 1.1686832e-38 300 283
-0.023352645 0.70099998 -0.052850723 1.1318049e-38 301 283
-0.02202888 0.69800001 -0.052624546 1.1132955e-38 302 283
-0.020805053 0.69800001 -0.052624546 1.122515e-38 303 283
-0.019581227 0.69800001 -0.052624546 1.1500648e-38 304 283
-0.0183574 0.69800001 -0.052624546 1.2053822e-38 305 283
-0.017133573 0.69800001 -0.052624546 1.2697018e-38 306 283
-0.015886955 0.69700003 -0.052549154 1.2697018e-38 307 283
-0.014643839 0.69599998 -0.052473757 1.2880686e-38 308 283
-0.013423519 0.69599998 -0.052473757 1.2972883e-38 309 283
-0.012168133 0.69400001 -0.052322973 1.3248744e-38 310 283
-0.01095132 0.69400001 -0.052322973 1.3248744e-38 311 283
-0.0097345067 0.69400001 -0.052322973 1.3617157e-38 312 283
-0.0085054198 0.69300002 -0.05224758 1.3617157e-38 313 283
-0.0072903596 0.69300002 -0.05224758 1.3617154e-38 314 283
-0.0060753003 0.69300002 -0.05224758 1.370935e-38 315 283
-0.00486024 0.69300002 -0.05224758 1.3801904e-38 316 283
-0.0036451798 0.69300002 -0.05224758 1.3801904e-38 317 283
-0.00243012 0.69300002 -0.05224758 1.3801901e-38 318 283
-0.00121506 0.69300002 -0.05224758 1.3801901e-38 319 283
0 0.69300002 -0.05224758 1.3618233e-38 320 283
0.00121506 0.69300002 -0.05224758 1.3618233e-38 321 283
0.00243012 0.69300002 -0.05224758 1.3343447e-38 322 283
0.0036346598 0.69099998 -0.052096792 1.3435643e-38 323 283
0.0048391996 0.69 -0.052021399 1.3436713e-38 324 283
0.0060489997 0.69 -0.052021399 1.3344516e-38 325 283
0.0072587994 0.69 -0.052021399 1.343599e-38 326 283
0.0084440531 0.68800002 -0.051870614 1.343599e-38 327 283
0.0096503468 0.68800002 -0.051870614 1.3526388e-38 328 283
0.010856641 0.68800002 -0.051870614 1.3526388e-38 329 283
0.012062933 0.68800002 -0.051870614 1.3250883e-38 330 283
0.0133078 0.69 -0.052021399 1.3158687e-38 331 283
0.014517599 0.69 -0.052021399 1.3065783e-38 332 283
0.015727401 0.69 -0.052021399 1.3065783e-38 333 283
0.0169372 0.69 -0.052021399 1.3065429e-38 334 283
0.0181733 0.69099998 -0.052096792 1.3250179e-38 335 283
0.019384852 0.69099998 -0.052096792 1.3158697e-38 336 283
0.020656019 0.69300002 -0.05224758 1.3251251e-38 337 283
0.021871079 0.69300002 -0.05224758 1.3251965e-38 338 283
0.02308614 0.69300002 -0.05224758 1.334416e-38 339 283
0.024336265 0.69400001 -0.052322973 1.3436713e-38 340 283
0.025553079 0.69400001 -0.052322973 1.3344516e-38 341 283
0.026847038 0.69599998 -0.052473757 1.343671e-38 342 283
0.028107686 0.69700003 -0.052549154 1.3529265e-38 343 283
0.02932976 0.69700003 -0.052549154 1.3346318e-38 344 283
0.030551834 0.69700003 -0.052549154 1.3438514e-38 345 283
0.031819493 0.69800001 -0.052624546 1.3346331e-38 346 283
0.033137999 0.69999999 -0.052775331 1.3438527e-38 347 283
0.034365334 0.69999999 -0.052775331 1.3439257e-38 348 283
0.035643511 0.70099998 -0.052850723 1.3900233e-38 349 283
0.036872596 0.70099998 -0.052850723 1.3717304e-38 350 283
0.038264744 0.704 -0.053076904 1.4362673e-38 351 283
0.039499093 0.704 -0.053076904 1.4464264e-38 352 283
0.040733438 0.704 -0.053076904 1.9719415e-38 353 283
0.041967787 0.704 -0.053076904 1.8070716e-38 354 283
-0.029624319 0.704 -0.054311249 1.1873741e-38 296 284
-0.028389972 0.704 -0.054311249 1.168935e-38 297 284
-0.027117053 0.70300001 -0.054234106 1.168898e-38 298 284
-0.025884461 0.70300001 -0.054234106 1.1596785e-38 299 284
-0.024581732 0.70099998 -0.054079808 1.1227656e-38 300 284
-0.023352645 0.70099998 -0.054079808 1.0950709e-38 301 284
-0.02202888 0.69800001 -0.053848371 1.0673779e-38 302 284
-0.020805053 0.69800001 -0.053848371 1.0581583e-38 303 284
-0.019581227 0.69800001 -0.053848371 1.0397189e-38 304 284
-0.0183574 0.69800001 -0.053848371 1.1042558e-38 305 284
-0.017109027 0.69700003 -0.053771228 1.2511908e-38 306 284
-0.015864158 0.69599998 -0.053694077 1.3065082e-38 307 284
-0.014643839 0.69599998 -0.053694077 1.2972516e-38 308 284
-0.013384946 0.69400001 -0.053539783 1.2972516e-38 309 284
-0.012168133 0.69400001 -0.053539783 1.3155829e-38 310 284
-0.01095132 0.69400001 -0.053539783 1.3248026e-38 311 284
-0.0097345067 0.69400001 -0.053539783 1.3341293e-38 312 284
-0.0085054198 0.69300002 -0.053462639 1.3341293e-38 313 284
-0.0072903596 0.69300002 -0.053462639 1.3433126e-38 314 284
-0.0060753003 0.69300002 -0.053462639 1.3617157e-38 315 284
-0.0048462129 0.69099998 -0.053308345 1.3433845e-38 316 284
-0.0036346598 0.69099998 -0.053308345 1.3618236e-38 317 284
-0.0024231065 0.69099998 -0.053308345 1.352604e-38 318 284
-0.00121506 0.69300002 -0.053462639 1.352604e-38 319 284
0 0.69300002 -0.053462639 1.3434211e-38 320 284
0.0012115532 0.69099998 -0.053308345 1.3434211e-38 321 284
0.0024195998 0.69 -0.053231198 1.3067586e-38 322 284
0.0036293997 0.69 -0.053231198 1.3251617e-38 323 284
0.0048391996 0.69 -0.053231198 1.3251967e-38 324 284
0.0060489997 0.69 -0.053231198 1.3251967e-38 325 284
0.0072587994 0.69 -0.053231198 1.3343797e-38 326 284
0.0084440531 0.68800002 -0.053076908 1.3251602e-38 327 284
0.0096503468 0.68800002 -0.053076908 1.3159403e-38 328 284
0.010856641 0.68800002 -0.053076908 1.3159403e-38 329 284
0.012062933 0.68800002 -0.053076908 1.3067205e-38 330 284
0.0133078 0.69 -0.053231198 1.2883174e-38 331 284
0.014517599 0.69 -0.053231198 1.2790626e-38 332 284
0.015727401 0.69 -0.053231198 1.2790626e-38 333 284
0.016961746 0.69099998 -0.053308345 1.2790273e-38 334 284
0.0181733 0.69099998 -0.053308345 1.288247e-38 335 284
0.019384852 0.69099998 -0.053308345 1.2883186e-38 336 284
0.020656019 0.69300002 -0.053462639 1.2975741e-38 337 284
0.021871079 0.69300002 -0.053462639 1.3067936e-38 338 284
0.02308614 0.69300002 -0.053462639 1.3251967e-38 339 284
0.024336265 0.69400001 -0.053539783 1.3161568e-38 340 284
0.025553079 0.69400001 -0.053539783 1.2977536e-38 341 284
0.026847038 0.69599998 -0.053694077 1.3254117e-38 342 284
0.028107686 0.69700003 -0.053771228 1.3254117e-38 343 284
0.029371841 0.69800001 -0.053848371 1.3253764e-38 344 284
0.030595668 0.69800001 -0.053848371 1.3253764e-38 345 284
0.031910665 0.69999999 -0.054002665 1.3345609e-38 346 284
0.033137999 0.69999999 -0.054002665 1.3345609e-38 347 284
0.034365334 0.69999999 -0.054002665 1.3255936e-38 348 284
0.035643511 0.70099998 -0.054079808 1.362472e-38 349 284
0.036872596 0.70099998 -0.054079808 1.3717657e-38 350 284
0.038264744 0.704 -0.054311249 1.4086439e-38 351 284
0.039499093 0.704 -0.054311249 1.427987e-38 352 284
0.040733438 0.704 -0.054311249 1.9627217e-38 353 284
0.041967787 0.704 -0.054311249 1.8254031e-38 354 284
-0.029624319 0.704 -0.055545598 1.1966293e-38 296 285
-0.028349647 0.70300001 -0.0554667 1.1781543e-38 297 285
-0.027117053 0.70300001 -0.0554667 1.187193e-38 298 285
-0.025884461 0.70300001 -0.0554667 1.1779375e-38 299 285
-0.024581732 0.70099998 -0.055308893 1.1777583e-38 300 285
-0.023319334 0.69999999 -0.055229999 1.1500996e-38 301 285
-0.02202888 0.69800001 -0.0550722 1.0948558e-38 302 285
-0.020805053 0.69800001 -0.0550722 1.0672331e-38 303 285
-0.019581227 0.69800001 -0.0550722 1.0213526e-38 304 285
-0.0183574 0.69800001 -0.0550722 1.0674144e-38 305 285
-0.017109027 0.69700003 -0.054993302 1.1777958e-38 306 285
-0.015864158 0.69599998 -0.054914396 1.2331132e-38 307 285
-0.014643839 0.69599998 -0.054914396 1.2421157e-38 308 285
-0.013384946 0.69400001 -0.054756597 1.2328962e-38 309 285
-0.012168133 0.69400001 -0.054756597 1.242151e-38 310 285
-0.01095132 0.69400001 -0.054756597 1.2697739e-38 311 285
-0.0097204801 0.69300002 -0.054677699 1.2790643e-38 312 285
-0.0085054198 0.69300002 -0.054677699 1.2790643e-38 313 285
-0.0072903596 0.69300002 -0.054677699 1.3065429e-38 314 285
-0.0060577663 0.69099998 -0.054519895 1.3157984e-38 315 285
-0.0048462129 0.69099998 -0.054519895 1.3158347e-38 316 285
-0.0036346598 0.69099998 -0.054519895 1.3250542e-38 317 285
-0.0024231065 0.69099998 -0.054519895 1.3250898e-38 318 285
-0.0012115532 0.69099998 -0.054519895 1.3343094e-38 319 285
0 0.69099998 -0.054519895 1.306723e-38 320 285
0.0012115532 0.69099998 -0.054519895 1.2975034e-38 321 285
0.0024195998 0.69 -0.054440998 1.2883202e-38 322 285
0.0036293997 0.69 -0.054440998 1.2975756e-38 323 285
0.0048391996 0.69 -0.054440998 1.2792794e-38 324 285
0.0060314666 0.68800002 -0.054283202 1.2792794e-38 325 285
0.0072377604 0.68800002 -0.054283202 1.297646e-38 326 285
0.0084440531 0.68800002 -0.054283202 1.2883905e-38 327 285
0.0096503468 0.68800002 -0.054283202 1.2975735e-38 328 285
0.010856641 0.68800002 -0.054283202 1.2883539e-38 329 285
0.012062933 0.68800002 -0.054283202 1.3066486e-38 330 285
0.0133078 0.69 -0.054440998 1.2974289e-38 331 285
0.014517599 0.69 -0.054440998 1.2699147e-38 332 285
0.015727401 0.69 -0.054440998 1.2699147e-38 333 285
0.0169372 0.69 -0.054440998 1.2606601e-38 334 285
0.0181733 0.69099998 -0.054519895 1.2698796e-38 335 285
0.019384852 0.69099998 -0.054519895 1.2790638e-38 336 285
0.020656019 0.69300002 -0.054677699 1.2883192e-38 337 285
0.021871079 0.69300002 -0.054677699 1.2883911e-38 338 285
0.02308614 0.69300002 -0.054677699 1.3068302e-38 339 285
0.024336265 0.69400001 -0.054756597 1.2978259e-38 340 285
0.025553079 0.69400001 -0.054756597 1.3070454e-38 341 285
0.026847038 0.69599998 -0.054914396 1.3070808e-38 342 285
0.028107686 0.69700003 -0.054993302 1.3070808e-38 343 285
0.029371841 0.69800001 -0.0550722 1.3070452e-38 344 285
0.030595668 0.69800001 -0.0550722 1.3070452e-38 345 285
0.031910665 0.69999999 -0.055229999 1.3162653e-38 346 285
0.033137999 0.69999999 -0.055229999 1.3346684e-38 347 285
0.034414422 0.70099998 -0.055308893 1.325593e-38 348 285
0.035643511 0.70099998 -0.055308893 1.3625073e-38 349 285
0.036872596 0.70099998 -0.055308893 1.3719086e-38 350 285
0.038264744 0.704 -0.055545598 1.4180064e-38 351 285
0.039442986 0.70300001 -0.0554667 1.4464615e-38 352 285
0.040675577 0.70300001 -0.0554667 1.9535374e-38 353 285
0.041908171 0.70300001 -0.0554667 1.7885605e-38 354 285
-0.032093015 0.704 -0.056779943 1.0960095e-38 294 286
-0.029624319 0.704 -0.056779943 1.1414218e-38 296 286
-0.028349647 0.70300001 -0.056699295 1.1414218e-38 297 286
-0.027117053 0.70300001 -0.056699295 1.187087e-38 298 286
-0.025884461 0.70300001 -0.056699295 1.187087e-38 299 286
-0.024581732 0.70099998 -0.056537982 1.1502445e-38 300 286
-0.023319334 0.69999999 -0.056457333 1.1225857e-38 301 286
-0.02202888 0.69800001 -0.056296028 1.0581936e-38 302 286
-0.020805053 0.69800001 -0.056296028 1.0397186e-38 303 286
-0.019581227 0.69800001 -0.056296028 1.0397189e-38 304 286
-0.0183574 0.69800001 -0.056296028 1.0673776e-38 305 286
-0.017109027 0.69700003 -0.056215372 1.1593197e-38 306 286
-0.015886955 0.69700003 -0.056215372 1.2053817e-38 307 286
-0.014643839 0.69599998 -0.056134716 1.2603025e-38 308 286
-0.013384946 0.69400001 -0.055973411 1.2326797e-38 309 286
-0.012168133 0.69400001 -0.055973411 1.2419712e-38 310 286
-0.01095132 0.69400001 -0.055973411 1.2419712e-38 311 286
-0.0097204801 0.69300002 -0.055892758 1.2788491e-38 312 286
-0.0085054198 0.69300002 -0.055892758 1.2880686e-38 313 286
-0.0072903596 0.69300002 -0.055892758 1.3065079e-38 314 286
-0.0060577663 0.69099998 -0.055731449 1.3065079e-38 315 286
-0.0048462129 0.69099998 -0.055731449 1.3157628e-38 316 286
-0.0036346598 0.69099998 -0.055731449 1.3249823e-38 317 286
-0.0024231065 0.69099998 -0.055731449 1.306723e-38 318 286
-0.0012115532 0.69099998 -0.055731449 1.306723e-38 319 286
0 0.69099998 -0.055731449 1.2883207e-38 320 286
0.0012115532 0.69099998 -0.055731449 1.2698818e-38 321 286
0.0024231065 0.69099998 -0.055731449 1.2699171e-38 322 286
0.0036293997 0.69 -0.055650797 1.2975756e-38 323 286
0.0048391996 0.69 -0.055650797 1.2883911e-38 324 286
0.0060314666 0.68800002 -0.055489492 1.2883911e-38 325 286
0.0072377604 0.68800002 -0.055489492 1.270024e-38 326 286
0.0084440531 0.68800002 -0.055489492 1.2608044e-38 327 286
0.0096503468 0.68800002 -0.055489492 1.2882823e-38 328 286
0.010856641 0.68800002 -0.055489492 1.2882823e-38 329 286
0.012062933 0.68800002 -0.055489492 1.2974292e-38 330 286
0.0133078 0.69 -0.055650797 1.2974292e-38 331 286
0.014517599 0.69 -0.055650797 1.2698072e-38 332 286
0.015727401 0.69 -0.055650797 1.2698072e-38 333 286
0.0169372 0.69 -0.055650797 1.2606601e-38 334 286
0.0181733 0.69099998 -0.055731449 1.2606601e-38 335 286
0.019384852 0.69099998 -0.055731449 1.279027e-38 336 286
0.020656019 0.69300002 -0.055892758 1.3066857e-38 337 286
0.021871079 0.69300002 -0.055892758 1.2975738e-38 338 286
0.02308614 0.69300002 -0.055892758 1.3251965e-38 339 286
0.024336265 0.69400001 -0.055973411 1.2885337e-38 340 286
0.025553079 0.69400001 -0.055973411 1.2885337e-38 341 286
0.026847038 0.69599998 -0.056134716 1.2977533e-38 342 286
0.028107686 0.69700003 -0.056215372 1.2977533e-38 343 286
0.029371841 0.69800001 -0.056296028 1.2977533e-38 344 286
0.030595668 0.69800001 -0.056296028 1.325412e-38 345 286
0.031910665 0.69999999 -0.056457333 1.3070452e-38 346 286
0.033137999 0.69999999 -0.056457333 1.3439233e-38 347 286
0.034414422 0.70099998 -0.056537982 1.3256286e-38 348 286
0.035643511 0.70099998 -0.056537982 1.362507e-38 349 286
0.036872596 0.70099998 -0.056537982 1.3259547e-38 350 286
0.038210396 0.70300001 -0.056699295 1.445809e-38 351 286
0.039442986 0.70300001 -0.056699295 1.4926675e-38 352 286
0.040675577 0.70300001 -0.056699295 1.9259511e-38 353 286
-0.032093015 0.704 -0.058014292 1.1512913e-38 294 287
-0.030858666 0.704 -0.058014292 1.0314369e-38 295 287
-0.029582238 0.70300001 -0.057931885 1.1782993e-38 296 287
-0.028349647 0.70300001 -0.057931885 1.1598602e-38 297 287
-0.027117053 0.70300001 -0.057931885 1.1688627e-38 298 287
-0.025884461 0.70300001 -0.057931885 1.1320205e-38 299 287
-0.024581732 0.70099998 -0.057767071 1.1685757e-38 300 287
-0.023319334 0.69999999 -0.05768466 1.1225138e-38 301 287
-0.02202888 0.69800001 -0.057519849 1.0947839e-38 302 287
-0.020805053 0.69800001 -0.057519849 1.0855643e-38 303 287
-0.019581227 0.69800001 -0.057519849 1.0031281e-38 304 287
-0.0183574 0.69800001 -0.057519849 1.0307507e-38 305 287
-0.017109027 0.69700003 -0.05743745 1.104363e-38 306 287
-0.015886955 0.69700003 -0.05743745 1.104363e-38 307 287
-0.014643839 0.69599998 -0.057355035 1.1408816e-38 308 287
-0.013384946 0.69400001 -0.057190225 1.1224785e-38 309 287
-0.012168133 0.69400001 -0.057190225 1.094964e-38 310 287
-0.01095132 0.69400001 -0.057190225 1.1226227e-38 311 287
-0.0097204801 0.69300002 -0.057107817 1.1778674e-38 312 287
-0.0085054198 0.69300002 -0.057107817 1.2055622e-38 313 287
-0.0072903596 0.69300002 -0.057107817 1.2606625e-38 314 287
-0.0060753003 0.69300002 -0.057107817 1.269882e-38 315 287
-0.0048462129 0.69099998 -0.056942999 1.2699173e-38 316 287
-0.0036346598 0.69099998 -0.056942999 1.2883205e-38 317 287
-0.0024231065 0.69099998 -0.056942999 1.2699539e-38 318 287
-0.0012115532 0.69099998 -0.056942999 1.2699539e-38 319 287
0 0.69099998 -0.056942999 1.2515871e-38 320 287
0.0012115532 0.69099998 -0.056942999 1.2515871e-38 321 287
0.0024231065 0.69099998 -0.056942999 1.2332549e-38 322 287
0.0036293997 0.69 -0.0568606 1.2424745e-38 323 287
0.0048391996 0.69 -0.0568606 1.24251e-38 324 287
0.0060314666 0.68800002 -0.056695789 1.2332905e-38 325 287
0.0072377604 0.68800002 -0.056695789 1.2699527e-38 326 287
0.0084440531 0.68800002 -0.056695789 1.2699527e-38 327 287
0.0096503468 0.68800002 -0.056695789 1.2882467e-38 328 287
0.010856641 0.68800002 -0.056695789 1.279027e-38 329 287
0.012062933 0.68800002 -0.056695789 1.2881387e-38 330 287
0.0133078 0.69 -0.0568606 1.2789191e-38 331 287
0.014538639 0.69099998 -0.056942999 1.2605529e-38 332 287
0.015727401 0.69 -0.0568606 1.2605529e-38 333 287
0.0169372 0.69 -0.0568606 1.2605529e-38 334 287
0.0181733 0.69099998 -0.056942999 1.2697725e-38 335 287
0.019384852 0.69099998 -0.056942999 1.2515126e-38 336 287
0.020656019 0.69300002 -0.057107817 1.2699877e-38 337 287
0.021871079 0.69300002 -0.057107817 1.2517284e-38 338 287
0.023119451 0.69400001 -0.057190225 1.2517284e-38 339 287
0.024336265 0.69400001 -0.057190225 1.2518e-38 340 287
0.025626717 0.69599998 -0.057355035 1.2518e-38 341 287
0.026847038 0.69599998 -0.057355035 1.2610551e-38 342 287
0.028107686 0.69700003 -0.05743745 1.2702747e-38 343 287
0.029371841 0.69800001 -0.057519849 1.2794944e-38 344 287
0.030683333 0.69999999 -0.05768466 1.2794944e-38 345 287
0.031910665 0.69999999 -0.05768466 1.2979701e-38 346 287
0.03318534 0.70099998 -0.057767071 1.3164091e-38 347 287
0.034414422 0.70099998 -0.057767071 1.3074067e-38 348 287
0.035643511 0.70099998 -0.057767071 1.3350294e-38 349 287
0.036872596 0.70099998 -0.057767071 1.3352111e-38 350 287
0.038210396 0.70300001 -0.057931885 1.4458819e-38 351 287
0.039442986 0.70300001 -0.057931885 1.5388369e-38 352 287
-0.032093015 0.704 -0.059248637 1.2159351e-38 294 288
-0.030858666 0.704 -0.059248637 1.050019e-38 295 288
-0.029582238 0.70300001 -0.059164476 1.178299e-38 296 288
-0.028349647 0.70300001 -0.059164476 1.1875545e-38 297 288
-0.027117053 0.70300001 -0.059164476 1.1781193e-38 298 288
-0.025884461 0.70300001 -0.059164476 1.1412769e-38 299 288
-0.024581732 0.70099998 -0.058996156 1.1501369e-38 300 288
-0.023319334 0.69999999 -0.058911994 1.1224782e-38 301 288
-0.022091998 0.69999999 -0.058911994 1.076453e-38 302 288
-0.020805053 0.69800001 -0.058743682 1.0672334e-38 303 288
-0.019581227 0.69800001 -0.058743682 1.0398261e-38 304 288
-0.0183574 0.69800001 -0.058743682 1.0582652e-38 305 288
-0.017109027 0.69700003 -0.05865952 1.1225851e-38 306 288
-0.015864158 0.69599998 -0.058575355 1.1133655e-38 307 288
-0.014643839 0.69599998 -0.058575355 1.1132939e-38 308 288
-0.013384946 0.69400001 -0.058407038 1.0948548e-38 309 288
-0.012168133 0.69400001 -0.058407038 1.1040388e-38 310 288
-0.01095132 0.69400001 -0.058407038 1.1225138e-38 311 288
-0.0097204801 0.69300002 -0.058322877 1.1869423e-38 312 288
-0.0085054198 0.69300002 -0.058322877 1.2054173e-38 313 288
-0.0072903596 0.69300002 -0.058322877 1.2422952e-38 314 288
-0.0060753003 0.69300002 -0.058322877 1.2515148e-38 315 288
-0.0048462129 0.69099998 -0.058154557 1.269882e-38 316 288
-0.0036346598 0.69099998 -0.058154557 1.269882e-38 317 288
-0.0024231065 0.69099998 -0.058154557 1.2606272e-38 318 288
-0.0012115532 0.69099998 -0.058154557 1.2698467e-38 319 288
0 0.69099998 -0.058154557 1.260699e-38 320 288
0.0012115532 0.69099998 -0.058154557 1.2514795e-38 321 288
0.0024231065 0.69099998 -0.058154557 1.2331833e-38 322 288
0.0036293997 0.69 -0.058070395 1.2331833e-38 323 288
0.0048391996 0.69 -0.058070395 1.233183e-38 324 288
0.0060489997 0.69 -0.058070395 1.2239634e-38 325 288
0.0072587994 0.69 -0.058070395 1.2515498e-38 326 288
0.0084440531 0.68800002 -0.057902083 1.2515498e-38 327 288
0.0096503468 0.68800002 -0.057902083 1.2790638e-38 328 288
0.010888199 0.69 -0.058070395 1.2606245e-38 329 288
0.012097999 0.69 -0.058070395 1.2788838e-38 330 288
0.0133078 0.69 -0.058070395 1.2788838e-38 331 288
0.014538639 0.69099998 -0.058154557 1.2788841e-38 332 288
0.015750192 0.69099998 -0.058154557 1.2788841e-38 333 288
0.016961746 0.69099998 -0.058154557 1.260516e-38 334 288
0.0181733 0.69099998 -0.058154557 1.2789191e-38 335 288
0.01944096 0.69300002 -0.058322877 1.2423286e-38 336 288
0.020656019 0.69300002 -0.058322877 1.2515481e-38 337 288
0.021871079 0.69300002 -0.058322877 1.2515849e-38 338 288
0.023119451 0.69400001 -0.058407038 1.2608044e-38 339 288
0.024336265 0.69400001 -0.058407038 1.2425801e-38 340 288
0.025626717 0.69599998 -0.058575355 1.2425801e-38 341 288
0.026847038 0.69599998 -0.058575355 1.2793858e-38 342 288
0.028107686 0.69700003 -0.05865952 1.2793858e-38 343 288
0.029455997 0.69999999 -0.058911994 1.2702744e-38 344 288
0.030683333 0.69999999 -0.058911994 1.2978972e-38 345 288
0.031910665 0.69999999 -0.058911994 1.2887505e-38 346 288
0.03318534 0.70099998 -0.058996156 1.3256286e-38 347 288
0.034414422 0.70099998 -0.058996156 1.2981874e-38 348 288
0.035643511 0.70099998 -0.058996156 1.3350297e-38 349 288
0.036872596 0.70099998 -0.058996156 1.3351392e-38 350 288
0.038210396 0.70300001 -0.059164476 1.4919077e-38 351 288
0.039499093 0.704 -0.059248637 1.5482011e-38 352 288
-0.032184184 0.70599997 -0.060654808 1.4189454e-38 294 289
-0.030946331 0.70599997 -0.060654808 1.1055162e-38 295 289
-0.029624319 0.704 -0.060482983 1.1876262e-38 296 289
-0.028349647 0.70300001 -0.06039707 1.1968458e-38 297 289
-0.027117053 0.70300001 -0.06039707 1.1873388e-38 298 289
-0.025884461 0.70300001 -0.06039707 1.1412769e-38 299 289
-0.024651866 0.70300001 -0.06039707 1.1317698e-38 300 289
-0.023352645 0.70099998 -0.060225245 1.1133305e-38 301 289
-0.02202888 0.69800001 -0.059967503 1.0490457e-38 302 289
-0.020805053 0.69800001 -0.059967503 1.0490457e-38 303 289
-0.019581227 0.69800001 -0.059967503 1.0581931e-38 304 289
-0.018331099 0.69700003 -0.05988159 1.0950712e-38 305 289
-0.017109027 0.69700003 -0.05988159 1.1225854e-38 306 289
-0.015864158 0.69599998 -0.059795678 1.1041463e-38 307 289
-0.01460176 0.69400001 -0.059623852 1.0948911e-38 308 289
-0.013384946 0.69400001 -0.059623852 1.0948911e-38 309 289
-0.012168133 0.69400001 -0.059623852 1.0951065e-38 310 289
-0.01095132 0.69400001 -0.059623852 1.1135457e-38 311 289
-0.0097204801 0.69300002 -0.05953794 1.1687182e-38 312 289
-0.0085054198 0.69300002 -0.05953794 1.1871574e-38 313 289
-0.0072903596 0.69300002 -0.05953794 1.2239637e-38 314 289
-0.0060753003 0.69300002 -0.05953794 1.2331833e-38 315 289
-0.0048462129 0.69099998 -0.059366114 1.233148e-38 316 289
-0.0036346598 0.69099998 -0.059366114 1.233148e-38 317 289
-0.00243012 0.69300002 -0.05953794 1.2514795e-38 318 289
-0.00121506 0.69300002 -0.05953794 1.260699e-38 319 289
0 0.69300002 -0.05953794 1.2331483e-38 320 289
0.00121506 0.69300002 -0.05953794 1.2331483e-38 321 289
0.0024231065 0.69099998 -0.059366114 1.2055972e-38 322 289
0.0036346598 0.69099998 -0.059366114 1.2055972e-38 323 289
0.0048462129 0.69099998 -0.059366114 1.2055969e-38 324 289
0.0060489997 0.69 -0.059280202 1.2055969e-38 325 289
0.0072587994 0.69 -0.059280202 1.2148518e-38 326 289
0.0084686 0.69 -0.059280202 1.2056322e-38 327 289
0.0096783992 0.69 -0.059280202 1.2423656e-38 328 289
0.010888199 0.69 -0.059280202 1.2423656e-38 329 289
0.012097999 0.69 -0.059280202 1.2422214e-38 330 289
0.0133078 0.69 -0.059280202 1.2422214e-38 331 289
0.014538639 0.69099998 -0.059366114 1.2605529e-38 332 289
0.015750192 0.69099998 -0.059366114 1.2513333e-38 333 289
0.016961746 0.69099998 -0.059366114 1.2513328e-38 334 289
0.018225901 0.69300002 -0.05953794 1.2605882e-38 335 289
0.01944096 0.69300002 -0.05953794 1.2148144e-38 336 289
0.020656019 0.69300002 -0.05953794 1.2240339e-38 337 289
0.021902639 0.69400001 -0.059623852 1.2057747e-38 338 289
0.023119451 0.69400001 -0.059623852 1.2149943e-38 339 289
0.024336265 0.69400001 -0.059623852 1.2243208e-38 340 289
0.025626717 0.69599998 -0.059795678 1.2243208e-38 341 289
0.026847038 0.69599998 -0.059795678 1.2702744e-38 342 289
0.028148014 0.69800001 -0.059967503 1.2702744e-38 343 289
0.029455997 0.69999999 -0.060139328 1.2794944e-38 344 289
0.030683333 0.69999999 -0.060139328 1.3071171e-38 345 289
0.031910665 0.69999999 -0.060139328 1.2888227e-38 346 289
0.03318534 0.70099998 -0.060225245 1.3164815e-38 347 289
0.034512613 0.70300001 -0.06039707 1.2891121e-38 348 289
0.035745207 0.70300001 -0.06039707 1.3167349e-38 349 289
0.036977798 0.70300001 -0.06039707 1.3351758e-38 350 289
0.038264744 0.704 -0.060482983 1.5749205e-38 351 289
0.039499093 0.704 -0.060482983 1.5759319e-38 352 289
-0.030946331 0.70599997 -0.061892662 1.2438109e-38 295 290
-0.029624319 0.704 -0.061717331 1.2243253e-38 296 290
-0.028389972 0.704 -0.061717331 1.2335448e-38 297 290
-0.027155625 0.704 -0.061717331 1.2241448e-38 298 290
-0.02592128 0.704 -0.061717331 1.178083e-38 299 290
-0.024651866 0.70300001 -0.061629668 1.1503164e-38 300 290
-0.023352645 0.70099998 -0.06145433 1.1226576e-38 301 290
-0.02202888 0.69800001 -0.061191335 1.0582652e-38 302 290
-0.020805053 0.69800001 -0.061191335 1.0490457e-38 303 290
-0.019581227 0.69800001 -0.061191335 1.0857794e-38 304 290
-0.018331099 0.69700003 -0.061103668 1.1042544e-38 305 290
-0.017109027 0.69700003 -0.061103668 1.1226207e-38 306 290
-0.015864158 0.69599998 -0.061015997 1.0949261e-38 307 290
-0.01460176 0.69400001 -0.060840666 1.1040741e-38 308 290
-0.013384946 0.69400001 -0.060840666 1.1225491e-38 309 290
-0.012168133 0.69400001 -0.060840666 1.1410956e-38 310 290
-0.010935539 0.69300002 -0.060752999 1.1503151e-38 311 290
-0.0097204801 0.69300002 -0.060752999 1.2055239e-38 312 290
-0.0085054198 0.69300002 -0.060752999 1.2147435e-38 313 290
-0.0072903596 0.69300002 -0.060752999 1.2239281e-38 314 290
-0.0060753003 0.69300002 -0.060752999 1.2147084e-38 315 290
-0.00486024 0.69300002 -0.060752999 1.2146734e-38 316 290
-0.0036451798 0.69300002 -0.060752999 1.2238931e-38 317 290
-0.00243012 0.69300002 -0.060752999 1.2422246e-38 318 290
-0.00121506 0.69300002 -0.060752999 1.2514442e-38 319 290
0 0.69300002 -0.060752999 1.2422246e-38 320 290
0.00121506 0.69300002 -0.060752999 1.2422246e-38 321 290
0.00243012 0.69300002 -0.060752999 1.2239287e-38 322 290
0.0036346598 0.69099998 -0.060577665 1.2146731e-38 323 290
0.0048462129 0.69099998 -0.060577665 1.2147084e-38 324 290
0.0060577663 0.69099998 -0.060577665 1.2147084e-38 325 290
0.0072693196 0.69099998 -0.060577665 1.2238914e-38 326 290
0.0084686 0.69 -0.060489997 1.2238914e-38 327 290
0.0096783992 0.69 -0.060489997 1.2239267e-38 328 290
0.010888199 0.69 -0.060489997 1.2239267e-38 329 290
0.012097999 0.69 -0.060489997 1.2330381e-38 330 290
0.0133078 0.69 -0.060489997 1.2330381e-38 331 290
0.014538639 0.69099998 -0.060577665 1.2422217e-38 332 290
0.015750192 0.69099998 -0.060577665 1.2422217e-38 333 290
0.016961746 0.69099998 -0.060577665 1.2330737e-38 334 290
0.018225901 0.69300002 -0.060752999 1.2330737e-38 335 290
0.01944096 0.69300002 -0.060752999 1.1964473e-38 336 290
0.020656019 0.69300002 -0.060752999 1.2057027e-38 337 290
0.021902639 0.69400001 -0.060840666 1.1966628e-38 338 290
0.023119451 0.69400001 -0.060840666 1.2242855e-38 339 290
0.024336265 0.69400001 -0.060840666 1.2152088e-38 340 290
0.025626717 0.69599998 -0.061015997 1.2336478e-38 341 290
0.026885614 0.69700003 -0.061103668 1.2702747e-38 342 290
0.028148014 0.69800001 -0.061191335 1.2978975e-38 343 290
0.029455997 0.69999999 -0.061366666 1.2887505e-38 344 290
0.030683333 0.69999999 -0.061366666 1.2979701e-38 345 290
0.031910665 0.69999999 -0.061366666 1.2980072e-38 346 290
0.03318534 0.70099998 -0.06145433 1.325666e-38 347 290
0.034414422 0.70099998 -0.06145433 1.3074799e-38 348 290
0.035745207 0.70300001 -0.061629668 1.325955e-38 349 290
0.036977798 0.70300001 -0.061629668 1.3536155e-38 350 290
0.038264744 0.704 -0.061717331 1.6394221e-38 351 290
0.039611302 0.70599997 -0.061892662 1.6311774e-38 352 290
-0.029708479 0.70599997 -0.063130513 1.251876e-38 296 291
-0.028470624 0.70599997 -0.063130513 1.251876e-38 297 291
-0.027232772 0.70599997 -0.063130513 1.2518745e-38 298 291
-0.02592128 0.704 -0.062951677 1.2241798e-38 299 291
-0.024651866 0.70300001 -0.062862262 1.1412766e-38 300 291
-0.023319334 0.69999999 -0.062593997 1.1136179e-38 301 291
-0.022091998 0.69999999 -0.062593997 1.0858163e-38 302 291
-0.020864666 0.69999999 -0.062593997 1.0674132e-38 303 291
-0.019581227 0.69800001 -0.062415157 1.1133661e-38 304 291
-0.018331099 0.69700003 -0.062325738 1.1410249e-38 305 291
-0.017109027 0.69700003 -0.062325738 1.1226923e-38 306 291
-0.015864158 0.69599998 -0.062236317 1.0950696e-38 307 291
-0.01460176 0.69400001 -0.06205748 1.0950696e-38 308 291
-0.013384946 0.69400001 -0.06205748 1.1226923e-38 309 291
-0.012168133 0.69400001 -0.06205748 1.1503148e-38 310 291
-0.010935539 0.69300002 -0.061968062 1.168718e-38 311 291
-0.0097204801 0.69300002 -0.061968062 1.2055242e-38 312 291
-0.0085054198 0.69300002 -0.061968062 1.2055242e-38 313 291
-0.0072903596 0.69300002 -0.061968062 1.2146731e-38 314 291
-0.0060753003 0.69300002 -0.061968062 1.2146731e-38 315 291
-0.00486024 0.69300002 -0.061968062 1.1963066e-38 316 291
-0.0036451798 0.69300002 -0.061968062 1.2055622e-38 317 291
-0.00243012 0.69300002 -0.061968062 1.2238931e-38 318 291
-0.00121506 0.69300002 -0.061968062 1.2146734e-38 319 291
0 0.69099998 -0.061789215 1.2238211e-38 320 291
0.0012115532 0.69099998 -0.061789215 1.2238211e-38 321 291
0.00243012 0.69300002 -0.061968062 1.2146012e-38 322 291
0.0036346598 0.69099998 -0.061789215 1.2146012e-38 323 291
0.0048462129 0.69099998 -0.061789215 1.2147084e-38 324 291
0.0060577663 0.69099998 -0.061789215 1.2147084e-38 325 291
0.0072693196 0.69099998 -0.061789215 1.2146719e-38 326 291
0.0084686 0.69 -0.061699796 1.2238914e-38 327 291
0.0096783992 0.69 -0.061699796 1.2147069e-38 328 291
0.010888199 0.69 -0.061699796 1.2147069e-38 329 291
0.012097999 0.69 -0.061699796 1.2330018e-38 330 291
0.0133078 0.69 -0.061699796 1.2330018e-38 331 291
0.014538639 0.69099998 -0.061789215 1.2329662e-38 332 291
0.015750192 0.69099998 -0.061789215 1.2329662e-38 333 291
0.016961746 0.69099998 -0.061789215 1.2054873e-38 334 291
0.018225901 0.69300002 -0.061968062 1.2054873e-38 335 291
0.01944096 0.69300002 -0.061968062 1.1964475e-38 336 291
0.020685827 0.69400001 -0.06205748 1.2056672e-38 337 291
0.021902639 0.69400001 -0.06205748 1.1966625e-38 338 291
0.023119451 0.69400001 -0.06205748 1.2150656e-38 339 291
0.0244064 0.69599998 -0.062236317 1.2335038e-38 340 291
0.025663542 0.69700003 -0.062325738 1.2519069e-38 341 291
0.026885614 0.69700003 -0.062325738 1.2703467e-38 342 291
0.028148014 0.69800001 -0.062415157 1.2795663e-38 343 291
0.029455997 0.69999999 -0.062593997 1.2887152e-38 344 291
0.030683333 0.69999999 -0.062593997 1.2979706e-38 345 291
0.031910665 0.69999999 -0.062593997 1.2888601e-38 346 291
0.03318534 0.70099998 -0.062683418 1.3257382e-38 347 291
0.034414422 0.70099998 -0.062683418 1.3074799e-38 348 291
0.035745207 0.70300001 -0.062862262 1.3536137e-38 349 291
0.037030395 0.704 -0.062951677 1.3906028e-38 350 291
0.038373452 0.70599997 -0.063130513 1.6948842e-38 351 291
-0.029708479 0.70599997 -0.064368367 1.2981181e-38 296 292
-0.028470624 0.70599997 -0.064368367 1.2520561e-38 297 292
-0.027232772 0.70599997 -0.064368367 1.2887521e-38 298 292
-0.02592128 0.704 -0.064186029 1.2334347e-38 299 292
-0.024651866 0.70300001 -0.064094849 1.2239281e-38 300 292
-0.023319334 0.69999999 -0.063821331 1.1686466e-38 301 292
-0.022091998 0.69999999 -0.063821331 1.1225504e-38 302 292
-0.020864666 0.69999999 -0.063821331 1.1133308e-38 303 292
-0.019581227 0.69800001 -0.063638985 1.1042912e-38 304 292
-0.0183574 0.69800001 -0.063638985 1.1042912e-38 305 292
-0.017109027 0.69700003 -0.06354782 1.1503867e-38 306 292
-0.015864158 0.69599998 -0.063456632 1.1319476e-38 307 292
-0.014643839 0.69599998 -0.063456632 1.1411659e-38 308 292
-0.013384946 0.69400001 -0.063274294 1.1503855e-38 309 292
-0.012168133 0.69400001 -0.063274294 1.1503504e-38 310 292
-0.01095132 0.69400001 -0.063274294 1.1687535e-38 311 292
-0.0097204801 0.69300002 -0.063183114 1.1595715e-38 312 292
-0.0085054198 0.69300002 -0.063183114 1.1687911e-38 313 292
-0.0072903596 0.69300002 -0.063183114 1.1596081e-38 314 292
-0.0060753003 0.69300002 -0.063183114 1.1596081e-38 315 292
-0.00486024 0.69300002 -0.063183114 1.1871589e-38 316 292
-0.0036451798 0.69300002 -0.063183114 1.1963786e-38 317 292
-0.00243012 0.69300002 -0.063183114 1.1964142e-38 318 292
-0.00121506 0.69300002 -0.063183114 1.1964142e-38 319 292
0 0.69099998 -0.063000768 1.2146731e-38 320 292
0.0012115532 0.69099998 -0.063000768 1.2146731e-38 321 292
0.00243012 0.69300002 -0.063183114 1.2146012e-38 322 292
0.0036346598 0.69099998 -0.063000768 1.2238567e-38 323 292
0.0048462129 0.69099998 -0.063000768 1.1872295e-38 324 292
0.0060577663 0.69099998 -0.063000768 1.1872295e-38 325 292
0.0072693196 0.69099998 -0.063000768 1.1871927e-38 326 292
0.008480873 0.69099998 -0.063000768 1.1871927e-38 327 292
0.0096924258 0.69099998 -0.063000768 1.2147069e-38 328 292
0.01090398 0.69099998 -0.063000768 1.2054873e-38 329 292
0.012115533 0.69099998 -0.063000768 1.2055226e-38 330 292
0.013327086 0.69099998 -0.063000768 1.2147422e-38 331 292
0.014538639 0.69099998 -0.063000768 1.2054873e-38 332 292
0.015750192 0.69099998 -0.063000768 1.2054873e-38 333 292
0.01701084 0.69300002 -0.063183114 1.1871208e-38 334 292
0.018225901 0.69300002 -0.063183114 1.2055239e-38 335 292
0.019469013 0.69400001 -0.063274294 1.1689686e-38 336 292
0.020685827 0.69400001 -0.063274294 1.1874079e-38 337 292
0.021902639 0.69400001 -0.063274294 1.1966981e-38 338 292
0.023186078 0.69599998 -0.063456632 1.2243208e-38 339 292
0.024441468 0.69700003 -0.06354782 1.2335038e-38 340 292
