# .PCD v.7 - Point Cloud Data file format
FIELDS x y z rgb imX imY
SIZE 4 4 4 4 4 4
TYPE F F F F F F
COUNT 1 1 1 1 1 1
WIDTH 827
HEIGHT 1
VIEWPOINT 0 0 0 1 0 0 0
POINTS 827
DATA ascii
-0.0059876335 0.68300003 -0.020357953 1.2060249e-38 315 257
-0.0047901068 0.68300003 -0.020357953 1.196805e-38 316 257
-0.0035925799 0.68300003 -0.020357953 1.17833e-38 317 257
-0.0023985601 0.68400002 -0.020387759 1.2150631e-38 318 257
-0.00119928 0.68400002 -0.020387759 1.2150631e-38 319 257
0 0.68400002 -0.020387759 1.2334296e-38 320 257
0.00119928 0.68400002 -0.020387759 1.2334296e-38 321 257
0.0024055731 0.68599999 -0.020447372 1.2241743e-38 322 257
0.00360836 0.68599999 -0.020447372 1.2334296e-38 323 257
0.0048111463 0.68599999 -0.020447372 1.2149908e-38 324 257
0.0060139326 0.68599999 -0.020447372 1.2242461e-38 325 257
0.0072167199 0.68599999 -0.020447372 1.205879e-38 326 257
0.0084195063 0.68599999 -0.020447372 1.1966596e-38 327 257
0.0096222926 0.68599999 -0.020447372 1.2150631e-38 328 257
0.010840859 0.68699998 -0.020477179 1.2058075e-38 329 257
0.012045399 0.68699998 -0.020477179 1.1874052e-38 330 257
0.013249939 0.68699998 -0.020477179 1.1874052e-38 331 257
0.014517599 0.69 -0.020566599 1.1597836e-38 332 257
0.015727401 0.69 -0.020566599 1.1597836e-38 333 257
0.016961746 0.69099998 -0.020596405 1.1506371e-38 334 257
0.0181733 0.69099998 -0.020596405 1.1690403e-38 335 257
0.01944096 0.69300002 -0.020656019 1.1690051e-38 336 257
0.020656019 0.69300002 -0.020656019 1.1413823e-38 337 257
0.021902639 0.69400001 -0.020685827 1.150422e-38 338 257
0.023186078 0.69599998 -0.020745439 1.150422e-38 339 257
0.024441468 0.69700003 -0.020775247 1.1412025e-38 340 257
0.025700359 0.69800001 -0.020805053 1.1227273e-38 341 257
0.027001332 0.69999999 -0.020864666 1.1043961e-38 342 257
0.028228667 0.69999999 -0.020864666 1.085957e-38 343 257
0.029498078 0.70099998 -0.020894472 1.0402224e-38 344 257
0.030727165 0.70099998 -0.020894472 1.3075897e-38 345 257
-0.044562716 0.70599997 -0.022281358 1.760357e-38 284 258
-0.043324865 0.70599997 -0.022281358 1.3915384e-38 285 258
-0.041967787 0.704 -0.022218239 1.4551342e-38 286 258
-0.040733438 0.704 -0.022218239 1.3629745e-38 287 258
-0.039442986 0.70300001 -0.02218668 1.4178205e-38 288 258
-0.038047329 0.69999999 -0.022091998 1.3532835e-38 289 258
-0.036662199 0.69700003 -0.02199732 1.353318e-38 290 258
-0.035389278 0.69599998 -0.021965759 1.3440986e-38 291 258
-0.034168959 0.69599998 -0.021965759 1.3532463e-38 292 258
-0.032853961 0.69400001 -0.021902639 1.3532463e-38 293 258
-0.031591557 0.69300002 -0.021871079 1.3623581e-38 294 258
-0.030288832 0.69099998 -0.021807959 1.3623581e-38 295 258
-0.029077278 0.69099998 -0.021807959 1.3348433e-38 296 258
-0.027865725 0.69099998 -0.021807959 1.353318e-38 297 258
-0.026615599 0.69 -0.021776399 1.3258391e-38 298 258
-0.025405798 0.69 -0.021776399 1.3258391e-38 299 258
-0.024125867 0.68800002 -0.021713281 1.3442062e-38 300 258
-0.022886258 0.68699998 -0.021681719 1.3442062e-38 301 258
-0.021681719 0.68699998 -0.021681719 1.3258032e-38 302 258
-0.020447372 0.68599999 -0.021650158 1.3258032e-38 303 258
-0.019244585 0.68599999 -0.021650158 1.2981811e-38 304 258
-0.018041799 0.68599999 -0.021650158 1.3258397e-38 305 258
-0.016839013 0.68599999 -0.021650158 1.2981827e-38 306 258
-0.015636226 0.68599999 -0.021650158 1.3074022e-38 307 258
-0.01443344 0.68599999 -0.021650158 1.2707768e-38 308 258
-0.01319208 0.68400002 -0.02158704 1.2615571e-38 309 258
-0.0119928 0.68400002 -0.02158704 1.2614138e-38 310 258
-0.01079352 0.68400002 -0.02158704 1.2337553e-38 311 258
-0.0095942402 0.68400002 -0.02158704 1.2153163e-38 312 258
-0.0083826864 0.68300003 -0.02155548 1.2153163e-38 313 258
-0.0071851597 0.68300003 -0.02155548 1.2152797e-38 314 258
-0.0059876335 0.68300003 -0.02155548 1.2060243e-38 315 258
-0.0047901068 0.68300003 -0.02155548 1.1968403e-38 316 258
-0.0035925799 0.68300003 -0.02155548 1.1875849e-38 317 258
-0.0023985601 0.68400002 -0.02158704 1.1875483e-38 318 258
-0.00119928 0.68400002 -0.02158704 1.1875483e-38 319 258
0 0.68400002 -0.02158704 1.2150625e-38 320 258
0.00119928 0.68400002 -0.02158704 1.2058431e-38 321 258
0.0024055731 0.68599999 -0.021650158 1.2149549e-38 322 258
0.00360836 0.68599999 -0.021650158 1.2241743e-38 323 258
0.0048111463 0.68599999 -0.021650158 1.205879e-38 324 258
0.0060139326 0.68599999 -0.021650158 1.205879e-38 325 258
0.0072167199 0.68599999 -0.021650158 1.1966954e-38 326 258
0.0084195063 0.68599999 -0.021650158 1.1966954e-38 327 258
0.0096222926 0.68599999 -0.021650158 1.2149908e-38 328 258
0.010840859 0.68699998 -0.021681719 1.2149908e-38 329 258
0.012045399 0.68699998 -0.021681719 1.1874401e-38 330 258
0.013249939 0.68699998 -0.021681719 1.1690372e-38 331 258
0.014517599 0.69 -0.021776399 1.1598545e-38 332 258
0.015750192 0.69099998 -0.021807959 1.1321959e-38 333 258
0.016961746 0.69099998 -0.021807959 1.141417e-38 334 258
0.0181733 0.69099998 -0.021807959 1.141417e-38 335 258
0.01944096 0.69300002 -0.021871079 1.1689681e-38 336 258
0.020656019 0.69300002 -0.021871079 1.1597485e-38 337 258
0.021902639 0.69400001 -0.021902639 1.1688965e-38 338 258
0.023186078 0.69599998 -0.021965759 1.1596769e-38 339 258
0.024441468 0.69700003 -0.02199732 1.1320905e-38 340 258
0.025700359 0.69800001 -0.02202888 1.122871e-38 341 258
0.026924185 0.69800001 -0.02202888 1.1044317e-38 342 258
0.028228667 0.69999999 -0.022091998 1.0859567e-38 343 258
0.029455997 0.69999999 -0.022091998 1.0494054e-38 344 258
0.030683333 0.69999999 -0.022091998 1.3444313e-38 345 258
-0.044562716 0.70599997 -0.023519212 1.8066708e-38 284 259
-0.043324865 0.70599997 -0.023519212 1.382607e-38 285 259
-0.041967787 0.704 -0.023452586 1.4643541e-38 286 259
-0.040733438 0.704 -0.023452586 1.381342e-38 287 259
-0.039442986 0.70300001 -0.023419274 1.4271118e-38 288 259
-0.038047329 0.69999999 -0.023319334 1.3625748e-38 289 259
-0.036662199 0.69700003 -0.023219392 1.3809045e-38 290 259
-0.035389278 0.69599998 -0.023186078 1.3624657e-38 291 259
-0.034168959 0.69599998 -0.023186078 1.3532463e-38 292 259
-0.032853961 0.69400001 -0.023119451 1.3532463e-38 293 259
-0.031591557 0.69300002 -0.02308614 1.3532104e-38 294 259
-0.0303765 0.69300002 -0.02308614 1.3624298e-38 295 259
-0.029077278 0.69099998 -0.023019511 1.3348433e-38 296 259
-0.027865725 0.69099998 -0.023019511 1.3440627e-38 297 259
-0.026615599 0.69 -0.022986198 1.3165838e-38 298 259
-0.025405798 0.69 -0.022986198 1.3165838e-38 299 259
-0.024125867 0.68800002 -0.022919573 1.3166556e-38 300 259
-0.022886258 0.68699998 -0.022886258 1.2982526e-38 301 259
-0.021681719 0.68699998 -0.022886258 1.3165479e-38 302 259
-0.020447372 0.68599999 -0.022852944 1.3257674e-38 303 259
-0.019244585 0.68599999 -0.022852944 1.3165492e-38 304 259
-0.018041799 0.68599999 -0.022852944 1.3165492e-38 305 259
-0.016789921 0.68400002 -0.022786319 1.2799236e-38 306 259
-0.01559064 0.68400002 -0.022786319 1.2799236e-38 307 259
-0.01439136 0.68400002 -0.022786319 1.2615215e-38 308 259
-0.01319208 0.68400002 -0.022786319 1.2523019e-38 309 259
-0.0119928 0.68400002 -0.022786319 1.2430107e-38 310 259
-0.01079352 0.68400002 -0.022786319 1.2245357e-38 311 259
-0.0095802136 0.68300003 -0.022753006 1.224571e-38 312 259
-0.0083826864 0.68300003 -0.022753006 1.2153513e-38 313 259
-0.0071851597 0.68300003 -0.022753006 1.2337529e-38 314 259
-0.0059964 0.68400002 -0.022786319 1.2061302e-38 315 259
-0.0047971201 0.68400002 -0.022786319 1.2243896e-38 316 259
-0.00359784 0.68400002 -0.022786319 1.2059507e-38 317 259
-0.0023985601 0.68400002 -0.022786319 1.1875838e-38 318 259
-0.00119928 0.68400002 -0.022786319 1.1783283e-38 319 259
0 0.68400002 -0.022786319 1.1966954e-38 320 259
0.00119928 0.68400002 -0.022786319 1.1966954e-38 321 259
0.0024055731 0.68599999 -0.022852944 1.1966954e-38 322 259
0.00360836 0.68599999 -0.022852944 1.1966954e-38 323 259
0.0048111463 0.68599999 -0.022852944 1.1966596e-38 324 259
0.0060139326 0.68599999 -0.022852944 1.1966596e-38 325 259
0.0072167199 0.68599999 -0.022852944 1.2150267e-38 326 259
0.0084195063 0.68599999 -0.022852944 1.2058072e-38 327 259
0.0096222926 0.68599999 -0.022852944 1.1874043e-38 328 259
0.010840859 0.68699998 -0.022886258 1.1874043e-38 329 259
0.012045399 0.68699998 -0.022886258 1.1690372e-38 330 259
0.013249939 0.68699998 -0.022886258 1.1598177e-38 331 259
0.014517599 0.69 -0.022986198 1.168894e-38 332 259
0.015750192 0.69099998 -0.023019511 1.168894e-38 333 259
0.016961746 0.69099998 -0.023019511 1.1688236e-38 334 259
0.018225901 0.69300002 -0.02308614 1.1780432e-38 335 259
0.01944096 0.69300002 -0.02308614 1.1597122e-38 336 259
0.020656019 0.69300002 -0.02308614 1.1689318e-38 337 259
0.021902639 0.69400001 -0.023119451 1.1872983e-38 338 259
0.023186078 0.69599998 -0.023186078 1.1872983e-38 339 259
0.024441468 0.69700003 -0.023219392 1.1872264e-38 340 259
0.025700359 0.69800001 -0.023252707 1.1872264e-38 341 259
0.026924185 0.69800001 -0.023252707 1.1412728e-38 342 259
0.028148014 0.69800001 -0.023252707 1.1043946e-38 343 259
0.029371841 0.69800001 -0.023252707 1.0954662e-38 344 259
0.030595668 0.69800001 -0.023252707 1.3997118e-38 345 259
-0.044562716 0.70599997 -0.024757065 1.8438385e-38 284 260
-0.043324865 0.70599997 -0.024757065 1.4012994e-38 285 260
-0.042087011 0.70599997 -0.024757065 1.4644986e-38 286 260
-0.040733438 0.704 -0.024686933 1.3446442e-38 287 260
-0.039442986 0.70300001 -0.024651866 1.4179654e-38 288 260
-0.038047329 0.69999999 -0.024546666 1.3994902e-38 289 260
-0.036662199 0.69700003 -0.024441468 1.3626099e-38 290 260
-0.035389278 0.69599998 -0.0244064 1.3257675e-38 291 260
-0.034168959 0.69599998 -0.0244064 1.3348792e-38 292 260
-0.032853961 0.69400001 -0.024336265 1.3348792e-38 293 260
-0.031591557 0.69300002 -0.024301201 1.3348433e-38 294 260
-0.0303765 0.69300002 -0.024301201 1.3348433e-38 295 260
-0.029161438 0.69300002 -0.024301201 1.3348433e-38 296 260
-0.027865725 0.69099998 -0.024231065 1.3532463e-38 297 260
-0.026615599 0.69 -0.024195999 1.3165838e-38 298 260
-0.025405798 0.69 -0.024195999 1.3165838e-38 299 260
-0.024125867 0.68800002 -0.024125867 1.3166197e-38 300 260
-0.022886258 0.68699998 -0.024090799 1.3166197e-38 301 260
-0.021681719 0.68699998 -0.024090799 1.3165479e-38 302 260
-0.020447372 0.68599999 -0.024055731 1.3257674e-38 303 260
-0.019244585 0.68599999 -0.024055731 1.3165492e-38 304 260
-0.018041799 0.68599999 -0.024055731 1.3165492e-38 305 260
-0.016789921 0.68400002 -0.0239856 1.279888e-38 306 260
-0.01559064 0.68400002 -0.0239856 1.2891076e-38 307 260
-0.01439136 0.68400002 -0.0239856 1.2707417e-38 308 260
-0.01319208 0.68400002 -0.0239856 1.261522e-38 309 260
-0.0119928 0.68400002 -0.0239856 1.2429401e-38 310 260
-0.01079352 0.68400002 -0.0239856 1.2337205e-38 311 260
-0.0095802136 0.68300003 -0.023950534 1.2154612e-38 312 260
-0.0083826864 0.68300003 -0.023950534 1.2062058e-38 313 260
-0.0071851597 0.68300003 -0.023950534 1.2246076e-38 314 260
-0.0059964 0.68400002 -0.0239856 1.2246076e-38 315 260
-0.0047971201 0.68400002 -0.0239856 1.1970551e-38 316 260
-0.00359784 0.68400002 -0.0239856 1.1693606e-38 317 260
-0.0023985601 0.68400002 -0.0239856 1.1966954e-38 318 260
-0.00119928 0.68400002 -0.0239856 1.1966954e-38 319 260
0 0.68599999 -0.024055731 1.1966954e-38 320 260
0.0012027866 0.68599999 -0.024055731 1.187476e-38 321 260
0.0024055731 0.68599999 -0.024055731 1.2057714e-38 322 260
0.00360836 0.68599999 -0.024055731 1.2149908e-38 323 260
0.0048111463 0.68599999 -0.024055731 1.1967672e-38 324 260
0.0060139326 0.68599999 -0.024055731 1.1875119e-38 325 260
0.0072167199 0.68599999 -0.024055731 1.1875478e-38 326 260
0.0084195063 0.68599999 -0.024055731 1.1875478e-38 327 260
0.0096222926 0.68599999 -0.024055731 1.1874401e-38 328 260
0.010840859 0.68699998 -0.024090799 1.1874401e-38 329 260
0.012045399 0.68699998 -0.024090799 1.1781848e-38 330 260
0.013249939 0.68699998 -0.024090799 1.1689654e-38 331 260
0.014475521 0.68800002 -0.024125867 1.1688219e-38 332 260
0.015750192 0.69099998 -0.024231065 1.1780772e-38 333 260
0.016961746 0.69099998 -0.024231065 1.1688942e-38 334 260
0.018225901 0.69300002 -0.024301201 1.1688942e-38 335 260
0.01944096 0.69300002 -0.024301201 1.1781138e-38 336 260
0.020656019 0.69300002 -0.024301201 1.1873334e-38 337 260
0.021902639 0.69400001 -0.024336265 1.1965179e-38 338 260
0.023186078 0.69599998 -0.0244064 1.1965179e-38 339 260
0.024441468 0.69700003 -0.024441468 1.1506725e-38 340 260
0.025700359 0.69800001 -0.024476532 1.1506725e-38 341 260
0.026924185 0.69800001 -0.024476532 1.141417e-38 342 260
0.028148014 0.69800001 -0.024476532 1.1137583e-38 343 260
0.029371841 0.69800001 -0.024476532 1.1692594e-38 344 260
0.030595668 0.69800001 -0.024476532 1.4919441e-38 345 260
-0.044562716 0.70599997 -0.025994917 1.8348e-38 284 261
-0.043324865 0.70599997 -0.025994917 1.5213348e-38 285 261
-0.041967787 0.704 -0.02592128 1.5383642e-38 286 261
-0.040733438 0.704 -0.02592128 1.3170949e-38 287 261
-0.039442986 0.70300001 -0.025884461 1.4363316e-38 288 261
-0.038047329 0.69999999 -0.025773998 1.3994892e-38 289 261
-0.036662199 0.69700003 -0.025663542 1.381048e-38 290 261
-0.035389278 0.69599998 -0.025626717 1.3533898e-38 291 261
-0.034168959 0.69599998 -0.025626717 1.3441345e-38 292 261
-0.032853961 0.69400001 -0.025553079 1.3348792e-38 293 261
-0.031637147 0.69400001 -0.025553079 1.3165479e-38 294 261
-0.0303765 0.69300002 -0.02551626 1.3073285e-38 295 261
-0.029161438 0.69300002 -0.02551626 1.3073285e-38 296 261
-0.027946379 0.69300002 -0.02551626 1.3165479e-38 297 261
-0.026615599 0.69 -0.025405798 1.3165479e-38 298 261
-0.025405798 0.69 -0.025405798 1.3165479e-38 299 261
-0.024125867 0.68800002 -0.02533216 1.3165479e-38 300 261
-0.022886258 0.68699998 -0.025295338 1.3165479e-38 301 261
-0.021681719 0.68699998 -0.025295338 1.2889614e-38 302 261
-0.020447372 0.68599999 -0.025258519 1.2982167e-38 303 261
-0.019244585 0.68599999 -0.025258519 1.2798514e-38 304 261
-0.018041799 0.68599999 -0.025258519 1.2798514e-38 305 261
-0.016839013 0.68599999 -0.025258519 1.279853e-38 306 261
-0.01559064 0.68400002 -0.025184879 1.279853e-38 307 261
-0.01439136 0.68400002 -0.025184879 1.2339722e-38 308 261
-0.013230653 0.68599999 -0.025258519 1.2339722e-38 309 261
-0.0119928 0.68400002 -0.025184879 1.2246808e-38 310 261
-0.01079352 0.68400002 -0.025184879 1.2154612e-38 311 261
-0.0095942402 0.68400002 -0.025184879 1.2337922e-38 312 261
-0.0083826864 0.68300003 -0.02514806 1.2337922e-38 313 261
-0.0071851597 0.68300003 -0.02514806 1.2247508e-38 314 261
-0.0059964 0.68400002 -0.025184879 1.2155313e-38 315 261
-0.0047971201 0.68400002 -0.025184879 1.2153498e-38 316 261
-0.00359784 0.68400002 -0.025184879 1.1876554e-38 317 261
-0.0023985601 0.68400002 -0.025184879 1.1875836e-38 318 261
-0.00119928 0.68400002 -0.025184879 1.1783642e-38 319 261
0 0.68599999 -0.025258519 1.1966596e-38 320 261
0.0012027866 0.68599999 -0.025258519 1.1966596e-38 321 261
0.0024055731 0.68599999 -0.025258519 1.1874401e-38 322 261
0.00360836 0.68599999 -0.025258519 1.1966596e-38 323 261
0.0048111463 0.68599999 -0.025258519 1.1967672e-38 324 261
0.0060139326 0.68599999 -0.025258519 1.1967672e-38 325 261
0.0072167199 0.68599999 -0.025258519 1.1967672e-38 326 261
0.0084195063 0.68599999 -0.025258519 1.1875478e-38 327 261
0.0096363192 0.68699998 -0.025295338 1.1874401e-38 328 261
0.010840859 0.68699998 -0.025295338 1.1874401e-38 329 261
0.012045399 0.68699998 -0.025295338 1.1689654e-38 330 261
0.013249939 0.68699998 -0.025295338 1.1689654e-38 331 261
0.014475521 0.68800002 -0.02533216 1.1780772e-38 332 261
0.015727401 0.69 -0.025405798 1.1780772e-38 333 261
0.016961746 0.69099998 -0.025442619 1.168894e-38 334 261
0.018225901 0.69300002 -0.02551626 1.1781135e-38 335 261
0.01944096 0.69300002 -0.02551626 1.1780782e-38 336 261
0.020685827 0.69400001 -0.025553079 1.1965532e-38 337 261
0.021902639 0.69400001 -0.025553079 1.1965182e-38 338 261
0.023186078 0.69599998 -0.025626717 1.1965182e-38 339 261
0.024441468 0.69700003 -0.025663542 1.1965545e-38 340 261
0.025700359 0.69800001 -0.025700359 1.1965545e-38 341 261
0.026924185 0.69800001 -0.025700359 1.16904e-38 342 261
0.028228667 0.69999999 -0.025773998 1.1321977e-38 343 261
0.029455997 0.69999999 -0.025773998 1.2430884e-38 344 261
0.030683333 0.69999999 -0.025773998 1.5749926e-38 345 261
-0.043324865 0.70599997 -0.027232772 1.6503018e-38 285 262
-0.041967787 0.704 -0.027155625 1.6309213e-38 286 262
-0.040733438 0.704 -0.027155625 1.2713582e-38 287 262
-0.039442986 0.70300001 -0.027117053 1.4180373e-38 288 262
-0.038047329 0.69999999 -0.027001332 1.381159e-38 289 262
-0.036662199 0.69700003 -0.026885614 1.3811202e-38 290 262
-0.035440128 0.69700003 -0.026885614 1.362645e-38 291 262
-0.034168959 0.69599998 -0.026847038 1.3350585e-38 292 262
-0.032853961 0.69400001 -0.026769891 1.3166197e-38 293 262
-0.031637147 0.69400001 -0.026769891 1.3349509e-38 294 262
-0.0303765 0.69300002 -0.02673132 1.3073285e-38 295 262
-0.029161438 0.69300002 -0.02673132 1.3073285e-38 296 262
-0.027946379 0.69300002 -0.02673132 1.3073285e-38 297 262
-0.026615599 0.69 -0.026615599 1.3256956e-38 298 262
-0.025405798 0.69 -0.026615599 1.3256956e-38 299 262
-0.024125867 0.68800002 -0.026538454 1.3073285e-38 300 262
-0.022886258 0.68699998 -0.026499879 1.3073285e-38 301 262
-0.021681719 0.68699998 -0.026499879 1.2981091e-38 302 262
-0.020477179 0.68699998 -0.026499879 1.3073285e-38 303 262
-0.019272638 0.68699998 -0.026499879 1.2889634e-38 304 262
-0.018041799 0.68599999 -0.026461305 1.2981829e-38 305 262
-0.016839013 0.68599999 -0.026461305 1.2522669e-38 306 262
-0.01559064 0.68400002 -0.02638416 1.2614864e-38 307 262
-0.01439136 0.68400002 -0.02638416 1.2523037e-38 308 262
-0.013230653 0.68599999 -0.026461305 1.2523037e-38 309 262
-0.0119928 0.68400002 -0.02638416 1.2430486e-38 310 262
-0.01079352 0.68400002 -0.02638416 1.2430486e-38 311 262
-0.0095942402 0.68400002 -0.02638416 1.2430842e-38 312 262
-0.0083826864 0.68300003 -0.026345588 1.2430842e-38 313 262
-0.0071851597 0.68300003 -0.026345588 1.215641e-38 314 262
-0.0059964 0.68400002 -0.02638416 1.197166e-38 315 262
-0.0047971201 0.68400002 -0.02638416 1.2245357e-38 316 262
-0.00359784 0.68400002 -0.02638416 1.1784738e-38 317 262
-0.0023985601 0.68400002 -0.02638416 1.1875836e-38 318 262
-0.00119928 0.68400002 -0.02638416 1.1783642e-38 319 262
0 0.68599999 -0.026461305 1.1875119e-38 320 262
0.0012027866 0.68599999 -0.026461305 1.1598895e-38 321 262
0.0024055731 0.68599999 -0.026461305 1.1874401e-38 322 262
0.00360836 0.68599999 -0.026461305 1.1874401e-38 323 262
0.0048111463 0.68599999 -0.026461305 1.1966954e-38 324 262
0.0060139326 0.68599999 -0.026461305 1.1966954e-38 325 262
0.0072167199 0.68599999 -0.026461305 1.1966954e-38 326 262
0.0084195063 0.68599999 -0.026461305 1.1966954e-38 327 262
0.0096363192 0.68699998 -0.026499879 1.1874401e-38 328 262
0.010840859 0.68699998 -0.026499879 1.1874401e-38 329 262
0.012045399 0.68699998 -0.026499879 1.1782207e-38 330 262
0.013249939 0.68699998 -0.026499879 1.1689654e-38 331 262
0.014475521 0.68800002 -0.026538454 1.1964085e-38 332 262
0.015727401 0.69 -0.026615599 1.1964085e-38 333 262
0.016961746 0.69099998 -0.026654173 1.1780782e-38 334 262
0.018225901 0.69300002 -0.02673132 1.1873336e-38 335 262
0.01944096 0.69300002 -0.02673132 1.1872627e-38 336 262
0.020685827 0.69400001 -0.026769891 1.1965182e-38 337 262
0.021965759 0.69599998 -0.026847038 1.1873349e-38 338 262
0.023219392 0.69700003 -0.026885614 1.1965545e-38 339 262
0.024476532 0.69800001 -0.026924185 1.1874076e-38 340 262
0.025700359 0.69800001 -0.026924185 1.1874076e-38 341 262
0.027001332 0.69999999 -0.027001332 1.1690403e-38 342 262
0.028228667 0.69999999 -0.027001332 1.1414176e-38 343 262
0.029455997 0.69999999 -0.027001332 1.3078771e-38 344 262
0.030683333 0.69999999 -0.027001332 1.6397814e-38 345 262
0.031956252 0.70099998 -0.027039904 1.8252217e-38 346 262
-0.041967787 0.704 -0.028389972 1.7417005e-38 286 263
-0.040733438 0.704 -0.028389972 1.2622831e-38 287 263
-0.039442986 0.70300001 -0.028349647 1.4089256e-38 288 263
-0.038047329 0.69999999 -0.028228667 1.3904506e-38 289 263
-0.036662199 0.69700003 -0.028107686 1.3903042e-38 290 263
-0.035440128 0.69700003 -0.028107686 1.3626455e-38 291 263
-0.034168959 0.69599998 -0.028067358 1.3350227e-38 292 263
-0.032853961 0.69400001 -0.027986705 1.3165838e-38 293 263
-0.031637147 0.69400001 -0.027986705 1.3349509e-38 294 263
-0.0303765 0.69300002 -0.027946379 1.3165121e-38 295 263
-0.029161438 0.69300002 -0.027946379 1.3348792e-38 296 263
-0.027946379 0.69300002 -0.027946379 1.3348792e-38 297 263
-0.02673132 0.69300002 -0.027946379 1.3256597e-38 298 263
-0.025405798 0.69 -0.027825398 1.3164403e-38 299 263
-0.024125867 0.68800002 -0.027744746 1.3164403e-38 300 263
-0.022886258 0.68699998 -0.027704418 1.3164403e-38 301 263
-0.021681719 0.68699998 -0.027704418 1.2797061e-38 302 263
-0.020477179 0.68699998 -0.027704418 1.2981091e-38 303 263
-0.019272638 0.68699998 -0.027704418 1.2613404e-38 304 263
-0.018041799 0.68599999 -0.027664091 1.2889631e-38 305 263
-0.016839013 0.68599999 -0.027664091 1.243047e-38 306 263
-0.015636226 0.68599999 -0.027664091 1.261522e-38 307 263
-0.01439136 0.68400002 -0.027583439 1.2523034e-38 308 263
-0.01319208 0.68400002 -0.027583439 1.2523034e-38 309 263
-0.0119928 0.68400002 -0.027583439 1.2246455e-38 310 263
-0.01079352 0.68400002 -0.027583439 1.2430486e-38 311 263
-0.0095942402 0.68400002 -0.027583439 1.2430842e-38 312 263
-0.0083949603 0.68400002 -0.027583439 1.2523037e-38 313 263
-0.0071956799 0.68400002 -0.027583439 1.2339722e-38 314 263
-0.0059964 0.68400002 -0.027583439 1.1878745e-38 315 263
-0.0047971201 0.68400002 -0.027583439 1.2336828e-38 316 263
-0.00359784 0.68400002 -0.027583439 1.1968047e-38 317 263
-0.0023985601 0.68400002 -0.027583439 1.1876195e-38 318 263
-0.00119928 0.68400002 -0.027583439 1.1691807e-38 319 263
0 0.68599999 -0.027664091 1.187476e-38 320 263
0.0012027866 0.68599999 -0.027664091 1.1782566e-38 321 263
0.0024055731 0.68599999 -0.027664091 1.1873684e-38 322 263
0.00360836 0.68599999 -0.027664091 1.1873684e-38 323 263
0.0048111463 0.68599999 -0.027664091 1.1873684e-38 324 263
0.0060139326 0.68599999 -0.027664091 1.1873684e-38 325 263
0.0072167199 0.68599999 -0.027664091 1.2057355e-38 326 263
0.0084195063 0.68599999 -0.027664091 1.2057355e-38 327 263
0.0096222926 0.68599999 -0.027664091 1.2058072e-38 328 263
0.010840859 0.68699998 -0.027704418 1.2058072e-38 329 263
0.012045399 0.68699998 -0.027704418 1.1964802e-38 330 263
0.013249939 0.68699998 -0.027704418 1.1872608e-38 331 263
0.014475521 0.68800002 -0.027744746 1.1963726e-38 332 263
0.015750192 0.69099998 -0.027865725 1.205592e-38 333 263
0.01701084 0.69300002 -0.027946379 1.1872612e-38 334 263
0.018225901 0.69300002 -0.027946379 1.1872612e-38 335 263
0.01944096 0.69300002 -0.027946379 1.2056293e-38 336 263
0.020685827 0.69400001 -0.027986705 1.2148847e-38 337 263
0.021965759 0.69599998 -0.028067358 1.1965895e-38 338 263
0.023219392 0.69700003 -0.028107686 1.2058092e-38 339 263
0.024476532 0.69800001 -0.028148014 1.1874429e-38 340 263
0.025773998 0.69999999 -0.028228667 1.1966625e-38 341 263
0.027001332 0.69999999 -0.028228667 1.1599284e-38 342 263
0.028228667 0.69999999 -0.028228667 1.1414892e-38 343 263
0.029455997 0.69999999 -0.028228667 1.391033e-38 344 263
0.030727165 0.70099998 -0.028268991 1.7413405e-38 345 263
0.031956252 0.70099998 -0.028268991 1.797635e-38 346 263
-0.039274666 0.69999999 -0.029455997 1.3998505e-38 288 264
-0.035440128 0.69700003 -0.02932976 1.3534985e-38 291 264
-0.034168959 0.69599998 -0.029287677 1.3350585e-38 292 264
-0.032853961 0.69400001 -0.029203519 1.3165838e-38 293 264
-0.031637147 0.69400001 -0.029203519 1.3349509e-38 294 264
-0.0303765 0.69300002 -0.029161438 1.3165121e-38 295 264
-0.029161438 0.69300002 -0.029161438 1.3348792e-38 296 264
-0.027946379 0.69300002 -0.029161438 1.3348792e-38 297 264
-0.02673132 0.69300002 -0.029161438 1.3165479e-38 298 264
-0.025405798 0.69 -0.029035198 1.3073285e-38 299 264
-0.024125867 0.68800002 -0.028951041 1.279742e-38 300 264
-0.022886258 0.68699998 -0.028908957 1.279742e-38 301 264
-0.021681719 0.68699998 -0.028908957 1.2705226e-38 302 264
-0.020477179 0.68699998 -0.028908957 1.279742e-38 303 264
-0.019272638 0.68699998 -0.028908957 1.2521204e-38 304 264
-0.018041799 0.68599999 -0.02886688 1.2797432e-38 305 264
-0.016839013 0.68599999 -0.02886688 1.2429398e-38 306 264
-0.015636226 0.68599999 -0.02886688 1.2705984e-38 307 264
-0.01439136 0.68400002 -0.02878272 1.2246455e-38 308 264
-0.01319208 0.68400002 -0.02878272 1.2246455e-38 309 264
-0.0119928 0.68400002 -0.02878272 1.2246457e-38 310 264
-0.01079352 0.68400002 -0.02878272 1.2153903e-38 311 264
-0.0095942402 0.68400002 -0.02878272 1.2429767e-38 312 264
-0.0083949603 0.68400002 -0.02878272 1.2429767e-38 313 264
-0.0071956799 0.68400002 -0.02878272 1.2430117e-38 314 264
-0.0059964 0.68400002 -0.02878272 1.2245726e-38 315 264
-0.0047971201 0.68400002 -0.02878272 1.2152792e-38 316 264
-0.00359784 0.68400002 -0.02878272 1.1876205e-38 317 264
-0.0023985601 0.68400002 -0.02878272 1.1967313e-38 318 264
-0.00119928 0.68400002 -0.02878272 1.1875119e-38 319 264
0 0.68599999 -0.02886688 1.2058072e-38 320 264
0.0012027866 0.68599999 -0.02886688 1.2058072e-38 321 264
0.0024055731 0.68599999 -0.02886688 1.1965161e-38 322 264
0.00360836 0.68599999 -0.02886688 1.1965161e-38 323 264
0.0048111463 0.68599999 -0.02886688 1.1965161e-38 324 264
0.0060139326 0.68599999 -0.02886688 1.1965161e-38 325 264
0.0072167199 0.68599999 -0.02886688 1.2057355e-38 326 264
0.0084195063 0.68599999 -0.02886688 1.2057355e-38 327 264
0.0096222926 0.68599999 -0.02886688 1.2057355e-38 328 264
0.010840859 0.68699998 -0.028908957 1.2057355e-38 329 264
0.012045399 0.68699998 -0.028908957 1.2240667e-38 330 264
0.013249939 0.68699998 -0.028908957 1.2056637e-38 331 264
0.014538639 0.69099998 -0.029077278 1.1964802e-38 332 264
0.015750192 0.69099998 -0.029077278 1.2056996e-38 333 264
0.01701084 0.69300002 -0.029161438 1.2057355e-38 334 264
0.018225901 0.69300002 -0.029161438 1.2057355e-38 335 264
0.019469013 0.69400001 -0.029203519 1.2149195e-38 336 264
0.020685827 0.69400001 -0.029203519 1.2333587e-38 337 264
0.021965759 0.69599998 -0.029287677 1.2058445e-38 338 264
0.023219392 0.69700003 -0.02932976 1.2150641e-38 339 264
0.024476532 0.69800001 -0.029371841 1.1875151e-38 340 264
0.025773998 0.69999999 -0.029455997 1.2059542e-38 341 264
0.027039904 0.70099998 -0.029498078 1.1600732e-38 342 264
0.028268991 0.70099998 -0.029498078 1.1416341e-38 343 264
0.029498078 0.70099998 -0.029498078 1.4648981e-38 344 264
0.030727165 0.70099998 -0.029498078 1.824497e-38 345 264
0.031956252 0.70099998 -0.029498078 1.7884876e-38 346 264
-0.036662199 0.69700003 -0.030551834 1.3813011e-38 290 265
-0.035440128 0.69700003 -0.030551834 1.3444587e-38 291 265
-0.034168959 0.69599998 -0.030507999 1.3442786e-38 292 265
-0.032853961 0.69400001 -0.030420333 1.3166198e-38 293 265
-0.031637147 0.69400001 -0.030420333 1.3258032e-38 294 265
-0.0303765 0.69300002 -0.0303765 1.3073644e-38 295 265
-0.029161438 0.69300002 -0.0303765 1.3166197e-38 296 265
-0.027946379 0.69300002 -0.0303765 1.3166197e-38 297 265
-0.02673132 0.69300002 -0.0303765 1.3073644e-38 298 265
-0.025405798 0.69 -0.030244999 1.298145e-38 299 265
-0.024195999 0.69 -0.030244999 1.2888538e-38 300 265
-0.022886258 0.68699998 -0.030113498 1.2980732e-38 301 265
-0.021681719 0.68699998 -0.030113498 1.2705226e-38 302 265
-0.020477179 0.68699998 -0.030113498 1.2705226e-38 303 265
-0.019272638 0.68699998 -0.030113498 1.2520478e-38 304 265
-0.018068098 0.68699998 -0.030113498 1.2704867e-38 305 265
-0.016839013 0.68599999 -0.030069664 1.2612701e-38 306 265
-0.015636226 0.68599999 -0.030069664 1.2796732e-38 307 265
-0.01439136 0.68400002 -0.029982001 1.2429401e-38 308 265
-0.01319208 0.68400002 -0.029982001 1.2429401e-38 309 265
-0.0119928 0.68400002 -0.029982001 1.2337568e-38 310 265
-0.01079352 0.68400002 -0.029982001 1.2245373e-38 311 265
-0.0095942402 0.68400002 -0.029982001 1.2337922e-38 312 265
-0.0083949603 0.68400002 -0.029982001 1.2245726e-38 313 265
-0.0071956799 0.68400002 -0.029982001 1.2429026e-38 314 265
-0.0059964 0.68400002 -0.029982001 1.2152797e-38 315 265
-0.0047971201 0.68400002 -0.029982001 1.2243543e-38 316 265
-0.00359784 0.68400002 -0.029982001 1.205915e-38 317 265
-0.0023985601 0.68400002 -0.029982001 1.1966596e-38 318 265
-0.0012027866 0.68599999 -0.030069664 1.1874401e-38 319 265
0 0.68599999 -0.030069664 1.2057355e-38 320 265
0.0012027866 0.68599999 -0.030069664 1.2057355e-38 321 265
0.0024055731 0.68599999 -0.030069664 1.2056637e-38 322 265
0.00360836 0.68599999 -0.030069664 1.2056637e-38 323 265
0.0048111463 0.68599999 -0.030069664 1.2056637e-38 324 265
0.0060139326 0.68599999 -0.030069664 1.2056637e-38 325 265
0.0072272392 0.68699998 -0.030113498 1.2057355e-38 326 265
0.0084317802 0.68699998 -0.030113498 1.2057355e-38 327 265
0.0096363192 0.68699998 -0.030113498 1.2240667e-38 328 265
0.010840859 0.68699998 -0.030113498 1.2332861e-38 329 265
0.012045399 0.68699998 -0.030113498 1.2058072e-38 330 265
0.013269227 0.68800002 -0.030157333 1.2058072e-38 331 265
0.014538639 0.69099998 -0.030288832 1.1874401e-38 332 265
0.015795778 0.69300002 -0.0303765 1.1874401e-38 333 265
0.01701084 0.69300002 -0.0303765 1.2149908e-38 334 265
0.0182522 0.69400001 -0.030420333 1.2149908e-38 335 265
0.019469013 0.69400001 -0.030420333 1.2058431e-38 336 265
0.020685827 0.69400001 -0.030420333 1.2150627e-38 337 265
0.02199732 0.69700003 -0.030551834 1.2150644e-38 338 265
0.023219392 0.69700003 -0.030551834 1.2150644e-38 339 265
0.024476532 0.69800001 -0.030595668 1.1967347e-38 340 265
0.025810819 0.70099998 -0.030727165 1.1967347e-38 341 265
0.027039904 0.70099998 -0.030727165 1.1783328e-38 342 265
0.028268991 0.70099998 -0.030727165 1.2612729e-38 343 265
0.029498078 0.70099998 -0.030727165 1.5481991e-38 344 265
0.030727165 0.70099998 -0.030727165 1.8616642e-38 345 265
-0.038047329 0.69999999 -0.031910665 1.2525187e-38 289 266
-0.036819998 0.69999999 -0.031910665 1.3903751e-38 290 266
-0.035490975 0.69800001 -0.031819493 1.3903751e-38 291 266
-0.034218054 0.69700003 -0.03177391 1.362645e-38 292 266
-0.032948639 0.69599998 -0.031728316 1.3534256e-38 293 266
-0.031728316 0.69599998 -0.031728316 1.3167273e-38 294 266
-0.030420333 0.69400001 -0.031637147 1.2982885e-38 295 266
-0.029203519 0.69400001 -0.031637147 1.3165479e-38 296 266
-0.027986705 0.69400001 -0.031637147 1.3165479e-38 297 266
-0.02673132 0.69300002 -0.031591557 1.3072926e-38 298 266
-0.02551626 0.69300002 -0.031591557 1.2980732e-38 299 266
-0.024231065 0.69099998 -0.031500384 1.2980015e-38 300 266
-0.022919573 0.68800002 -0.031363625 1.2980015e-38 301 266
-0.021713281 0.68800002 -0.031363625 1.2888538e-38 302 266
-0.020506985 0.68800002 -0.031363625 1.2888538e-38 303 266
-0.019272638 0.68699998 -0.031318039 1.2612314e-38 304 266
-0.018068098 0.68699998 -0.031318039 1.2704508e-38 305 266
-0.01686356 0.68699998 -0.031318039 1.270417e-38 306 266
-0.015636226 0.68599999 -0.031272452 1.2796366e-38 307 266
-0.01439136 0.68400002 -0.03118128 1.2520152e-38 308 266
-0.01319208 0.68400002 -0.03118128 1.2612348e-38 309 266
-0.0119928 0.68400002 -0.03118128 1.2337559e-38 310 266
-0.01079352 0.68400002 -0.03118128 1.2337559e-38 311 266
-0.0095942402 0.68400002 -0.03118128 1.2521224e-38 312 266
-0.0083949603 0.68400002 -0.03118128 1.2336473e-38 313 266
-0.0071956799 0.68400002 -0.03118128 1.233646e-38 314 266
-0.0059964 0.68400002 -0.03118128 1.2152069e-38 315 266
-0.0048111463 0.68599999 -0.031272452 1.2151702e-38 316 266
-0.00360836 0.68599999 -0.031272452 1.1967313e-38 317 266
-0.0024055731 0.68599999 -0.031272452 1.2241743e-38 318 266
-0.0012027866 0.68599999 -0.031272452 1.2149549e-38 319 266
0 0.68599999 -0.031272452 1.2240667e-38 320 266
0.0012027866 0.68599999 -0.031272452 1.2240667e-38 321 266
0.0024055731 0.68599999 -0.031272452 1.2332144e-38 322 266
0.00360836 0.68599999 -0.031272452 1.2332144e-38 323 266
0.0048111463 0.68599999 -0.031272452 1.2057355e-38 324 266
0.0060226996 0.68699998 -0.031318039 1.2057355e-38 325 266
0.0072272392 0.68699998 -0.031318039 1.2149908e-38 326 266
0.0084317802 0.68699998 -0.031318039 1.2149908e-38 327 266
0.0096363192 0.68699998 -0.031318039 1.233322e-38 328 266
0.010840859 0.68699998 -0.031318039 1.233322e-38 329 266
0.012045399 0.68699998 -0.031318039 1.2332861e-38 330 266
0.013269227 0.68800002 -0.031363625 1.2332861e-38 331 266
0.014538639 0.69099998 -0.031500384 1.2150267e-38 332 266
0.015795778 0.69300002 -0.031591557 1.2150267e-38 333 266
0.01701084 0.69300002 -0.031591557 1.2059149e-38 334 266
0.0182522 0.69400001 -0.031637147 1.2059149e-38 335 266
0.019525118 0.69599998 -0.031728316 1.2334296e-38 336 266
0.020745439 0.69599998 -0.031728316 1.2426492e-38 337 266
0.02199732 0.69700003 -0.03177391 1.2333603e-38 338 266
0.023252707 0.69800001 -0.031819493 1.2518353e-38 339 266
0.024546666 0.69999999 -0.031910665 1.2242501e-38 340 266
0.025810819 0.70099998 -0.031956252 1.2150306e-38 341 266
0.027039904 0.70099998 -0.031956252 1.1876615e-38 342 266
0.028349647 0.70300001 -0.032047424 1.4181506e-38 343 266
0.029582238 0.70300001 -0.032047424 1.6405045e-38 344 266
-0.038047329 0.69999999 -0.033137999 1.3357136e-38 289 267
-0.036819998 0.69999999 -0.033137999 1.4087803e-38 290 267
-0.035592664 0.69999999 -0.033137999 1.390341e-38 291 267
-0.034267146 0.69800001 -0.033043321 1.3536786e-38 292 267
-0.03299598 0.69700003 -0.03299598 1.3075447e-38 293 267
-0.031728316 0.69599998 -0.032948639 1.3167277e-38 294 267
-0.030420333 0.69400001 -0.032853961 1.2982886e-38 295 267
-0.029203519 0.69400001 -0.032853961 1.3257675e-38 296 267
-0.027986705 0.69400001 -0.032853961 1.3165479e-38 297 267
-0.026769891 0.69400001 -0.032853961 1.2981811e-38 298 267
-0.02551626 0.69300002 -0.03280662 1.2889616e-38 299 267
-0.024231065 0.69099998 -0.032711938 1.2981091e-38 300 267
-0.022986198 0.69 -0.032664597 1.2981091e-38 301 267
-0.021713281 0.68800002 -0.032569919 1.279742e-38 302 267
-0.020506985 0.68800002 -0.032569919 1.279742e-38 303 267
-0.019272638 0.68699998 -0.032522578 1.2612673e-38 304 267
-0.018068098 0.68699998 -0.032522578 1.2704867e-38 305 267
-0.01686356 0.68699998 -0.032522578 1.2429719e-38 306 267
-0.015636226 0.68599999 -0.032475237 1.2429719e-38 307 267
-0.01443344 0.68599999 -0.032475237 1.2429362e-38 308 267
-0.013230653 0.68599999 -0.032475237 1.2336807e-38 309 267
-0.012027865 0.68599999 -0.032475237 1.2337532e-38 310 267
-0.010825079 0.68599999 -0.032475237 1.2337532e-38 311 267
-0.0096222926 0.68599999 -0.032475237 1.2429009e-38 312 267
-0.0084195063 0.68599999 -0.032475237 1.2429009e-38 313 267
-0.0072167199 0.68599999 -0.032475237 1.2336813e-38 314 267
-0.0060139326 0.68599999 -0.032475237 1.2244259e-38 315 267
-0.0048111463 0.68599999 -0.032475237 1.1968748e-38 316 267
-0.00360836 0.68599999 -0.032475237 1.1876554e-38 317 267
-0.0024055731 0.68599999 -0.032475237 1.2151702e-38 318 267
-0.0012027866 0.68599999 -0.032475237 1.2059507e-38 319 267
0 0.68599999 -0.032475237 1.2059507e-38 320 267
0.0012027866 0.68599999 -0.032475237 1.187476e-38 321 267
0.0024090798 0.68699998 -0.032522578 1.2149908e-38 322 267
0.0036136196 0.68699998 -0.032522578 1.2149908e-38 323 267
0.0048181596 0.68699998 -0.032522578 1.2150625e-38 324 267
0.0060226996 0.68699998 -0.032522578 1.2150625e-38 325 267
0.0072272392 0.68699998 -0.032522578 1.2149549e-38 326 267
0.0084317802 0.68699998 -0.032522578 1.2149549e-38 327 267
0.0096363192 0.68699998 -0.032522578 1.2149549e-38 328 267
0.010840859 0.68699998 -0.032522578 1.2149549e-38 329 267
0.012062933 0.68800002 -0.032569919 1.2242102e-38 330 267
0.0133078 0.69 -0.032664597 1.2242102e-38 331 267
0.014580719 0.69300002 -0.03280662 1.205879e-38 332 267
0.015795778 0.69300002 -0.03280662 1.2150984e-38 333 267
0.017035386 0.69400001 -0.032853961 1.2150984e-38 334 267
0.0182522 0.69400001 -0.032853961 1.2335014e-38 335 267
0.019525118 0.69599998 -0.032948639 1.2334312e-38 336 267
0.020745439 0.69599998 -0.032948639 1.2334312e-38 337 267
0.02202888 0.69800001 -0.033043321 1.2242136e-38 338 267
0.023252707 0.69800001 -0.033043321 1.2518721e-38 339 267
0.024581732 0.70099998 -0.03318534 1.2245022e-38 340 267
0.025884461 0.70300001 -0.033280019 1.1599653e-38 341 267
0.027117053 0.70300001 -0.033280019 1.2892585e-38 342 267
0.028349647 0.70300001 -0.033280019 1.6487854e-38 343 267
0.029582238 0.70300001 -0.033280019 1.6867484e-38 344 267
-0.036977798 0.70300001 -0.034512613 1.4273661e-38 290 268
-0.035643511 0.70099998 -0.034414422 1.3536096e-38 291 268
-0.034365334 0.69999999 -0.034365334 1.3720095e-38 292 268
-0.033043321 0.69800001 -0.034267146 1.3443508e-38 293 268
-0.03177391 0.69700003 -0.034218054 1.3259471e-38 294 268
-0.030507999 0.69599998 -0.034168959 1.3075079e-38 295 268
-0.029287677 0.69599998 -0.034168959 1.3349871e-38 296 268
-0.027986705 0.69400001 -0.034070771 1.3257675e-38 297 268
-0.026769891 0.69400001 -0.034070771 1.3165121e-38 298 268
-0.02551626 0.69300002 -0.034021679 1.3165121e-38 299 268
-0.024231065 0.69099998 -0.033923492 1.3165121e-38 300 268
-0.022986198 0.69 -0.0338744 1.3072926e-38 301 268
-0.021713281 0.68800002 -0.033776212 1.279742e-38 302 268
-0.020506985 0.68800002 -0.033776212 1.279742e-38 303 268
-0.019272638 0.68699998 -0.033727121 1.2888538e-38 304 268
-0.018068098 0.68699998 -0.033727121 1.2888538e-38 305 268
-0.01686356 0.68699998 -0.033727121 1.261339e-38 306 268
-0.015659019 0.68699998 -0.033727121 1.261339e-38 307 268
-0.01443344 0.68599999 -0.033678025 1.2613031e-38 308 268
-0.013230653 0.68599999 -0.033678025 1.2613031e-38 309 268
-0.012027865 0.68599999 -0.033678025 1.2521913e-38 310 268
-0.010825079 0.68599999 -0.033678025 1.242936e-38 311 268
-0.0096222926 0.68599999 -0.033678025 1.2612673e-38 312 268
-0.0084195063 0.68599999 -0.033678025 1.2520478e-38 313 268
-0.0072167199 0.68599999 -0.033678025 1.2520837e-38 314 268
-0.0060139326 0.68599999 -0.033678025 1.2244255e-38 315 268
-0.0048111463 0.68599999 -0.033678025 1.2427926e-38 316 268
-0.0036136196 0.68699998 -0.033727121 1.2335731e-38 317 268
-0.0024055731 0.68599999 -0.033678025 1.2151702e-38 318 268
-0.0012027866 0.68599999 -0.033678025 1.2335731e-38 319 268
0 0.68699998 -0.033727121 1.2610879e-38 320 268
0.0012045399 0.68699998 -0.033727121 1.2426132e-38 321 268
0.0024090798 0.68699998 -0.033727121 1.2517609e-38 322 268
0.0036136196 0.68699998 -0.033727121 1.2517609e-38 323 268
0.0048181596 0.68699998 -0.033727121 1.2426132e-38 324 268
0.0060226996 0.68699998 -0.033727121 1.2241743e-38 325 268
0.0072377604 0.68800002 -0.033776212 1.2425414e-38 326 268
0.0084440531 0.68800002 -0.033776212 1.2425414e-38 327 268
0.0096783992 0.69 -0.0338744 1.2425056e-38 328 268
0.010888199 0.69 -0.0338744 1.2425056e-38 329 268
0.012115533 0.69099998 -0.033923492 1.2425414e-38 330 268
0.013327086 0.69099998 -0.033923492 1.2425414e-38 331 268
0.014580719 0.69300002 -0.034021679 1.2425414e-38 332 268
0.015795778 0.69300002 -0.034021679 1.2517609e-38 333 268
0.017035386 0.69400001 -0.034070771 1.2334659e-38 334 268
0.018304799 0.69599998 -0.034168959 1.2334659e-38 335 268
0.019553173 0.69700003 -0.034218054 1.2426507e-38 336 268
0.020805053 0.69800001 -0.034267146 1.2610899e-38 337 268
0.02202888 0.69800001 -0.034267146 1.2427605e-38 338 268
0.023319334 0.69999999 -0.034365334 1.2611997e-38 339 268
0.024651866 0.70300001 -0.034512613 1.2336871e-38 340 268
0.025884461 0.70300001 -0.034512613 1.2613459e-38 341 268
0.027117053 0.70300001 -0.034512613 1.4367735e-38 342 268
0.028349647 0.70300001 -0.034512613 1.8147754e-38 343 268
-0.036977798 0.70300001 -0.035745207 1.4830103e-38 290 269
-0.035643511 0.70099998 -0.035643511 1.298619e-38 291 269
-0.034365334 0.69999999 -0.035592664 1.3630067e-38 292 269
-0.033137999 0.69999999 -0.035592664 1.3076893e-38 293 269
-0.031819493 0.69800001 -0.035490975 1.3259843e-38 294 269
-0.030551834 0.69700003 -0.035440128 1.307545e-38 295 269
-0.029287677 0.69599998 -0.035389278 1.3350236e-38 296 269
-0.027986705 0.69400001 -0.035287585 1.3258041e-38 297 269
-0.026769891 0.69400001 -0.035287585 1.3440987e-38 298 269
-0.02551626 0.69300002 -0.035236739 1.3440987e-38 299 269
-0.024231065 0.69099998 -0.035135046 1.3073285e-38 300 269
-0.022986198 0.69 -0.035084199 1.3073285e-38 301 269
-0.021776399 0.69 -0.035084199 1.298145e-38 302 269
-0.020506985 0.68800002 -0.03498251 1.298145e-38 303 269
-0.019300694 0.68800002 -0.03498251 1.279742e-38 304 269
-0.018068098 0.68699998 -0.034931656 1.2705226e-38 305 269
-0.01686356 0.68699998 -0.034931656 1.2705226e-38 306 269
-0.015659019 0.68699998 -0.034931656 1.2705226e-38 307 269
-0.014454478 0.68699998 -0.034931656 1.2704867e-38 308 269
-0.013230653 0.68599999 -0.034880809 1.2612673e-38 309 269
-0.012027865 0.68599999 -0.034880809 1.2704867e-38 310 269
-0.010825079 0.68599999 -0.034880809 1.2704867e-38 311 269
-0.0096222926 0.68599999 -0.034880809 1.2705226e-38 312 269
-0.0084195063 0.68599999 -0.034880809 1.2613031e-38 313 269
-0.0072272392 0.68699998 -0.034931656 1.2521196e-38 314 269
-0.0060226996 0.68699998 -0.034931656 1.2521196e-38 315 269
-0.0048181596 0.68699998 -0.034931656 1.2520478e-38 316 269
-0.0036136196 0.68699998 -0.034931656 1.2428284e-38 317 269
-0.0024090798 0.68699998 -0.034931656 1.2335731e-38 318 269
-0.0012045399 0.68699998 -0.034931656 1.2427926e-38 319 269
0 0.68699998 -0.034931656 1.2427926e-38 320 269
0.0012045399 0.68699998 -0.034931656 1.2151702e-38 321 269
0.0024090798 0.68699998 -0.034931656 1.2518326e-38 322 269
0.0036136196 0.68699998 -0.034931656 1.2518326e-38 323 269
0.0048181596 0.68699998 -0.034931656 1.251725e-38 324 269
0.0060314666 0.68800002 -0.03498251 1.251725e-38 325 269
0.0072377604 0.68800002 -0.03498251 1.251725e-38 326 269
0.0084686 0.69 -0.035084199 1.251725e-38 327 269
0.0096783992 0.69 -0.035084199 1.251725e-38 328 269
0.010888199 0.69 -0.035084199 1.2424697e-38 329 269
0.012115533 0.69099998 -0.035135046 1.2425414e-38 330 269
0.013327086 0.69099998 -0.035135046 1.2517609e-38 331 269
0.014580719 0.69300002 -0.035236739 1.2333939e-38 332 269
0.015795778 0.69300002 -0.035236739 1.2426136e-38 333 269
0.017035386 0.69400001 -0.035287585 1.2334306e-38 334 269
0.018331099 0.69700003 -0.035440128 1.2426861e-38 335 269
0.019581227 0.69800001 -0.035490975 1.2519069e-38 336 269
0.020805053 0.69800001 -0.035490975 1.2611264e-38 337 269
0.02202888 0.69800001 -0.035490975 1.2520515e-38 338 269
0.023352645 0.70099998 -0.035643511 1.2428319e-38 339 269
0.024651866 0.70300001 -0.035745207 1.2521985e-38 340 269
0.025884461 0.70300001 -0.035745207 1.4642484e-38 341 269
-0.038210396 0.70300001 -0.036977798 1.5855482e-38 289 270
-0.036977798 0.70300001 -0.036977798 1.5109589e-38 290 270
-0.035745207 0.70300001 -0.036977798 1.2805058e-38 291 270
-0.034414422 0.70099998 -0.036872596 1.3629001e-38 292 270
-0.033137999 0.69999999 -0.036819998 1.3352054e-38 293 270
-0.031910665 0.69999999 -0.036819998 1.3352041e-38 294 270
-0.030595668 0.69800001 -0.0367148 1.3167291e-38 295 270
-0.02932976 0.69700003 -0.036662199 1.3350242e-38 296 270
-0.027986705 0.69400001 -0.036504399 1.3257688e-38 297 270
-0.026769891 0.69400001 -0.036504399 1.3440634e-38 298 270
-0.02551626 0.69300002 -0.036451802 1.3440634e-38 299 270
-0.024231065 0.69099998 -0.036346599 1.3164762e-38 300 270
-0.022986198 0.69 -0.036293998 1.3072568e-38 301 270
-0.021776399 0.69 -0.036293998 1.3072926e-38 302 270
-0.020506985 0.68800002 -0.0361888 1.3072926e-38 303 270
-0.019300694 0.68800002 -0.0361888 1.2980732e-38 304 270
-0.018068098 0.68699998 -0.036136195 1.2980732e-38 305 270
-0.01686356 0.68699998 -0.036136195 1.279742e-38 306 270
-0.015659019 0.68699998 -0.036136195 1.2705226e-38 307 270
-0.014454478 0.68699998 -0.036136195 1.2704867e-38 308 270
-0.013230653 0.68599999 -0.036083598 1.2704867e-38 309 270
-0.012027865 0.68599999 -0.036083598 1.2704867e-38 310 270
-0.010825079 0.68599999 -0.036083598 1.2797061e-38 311 270
-0.0096363192 0.68699998 -0.036136195 1.2704867e-38 312 270
-0.0084317802 0.68699998 -0.036136195 1.2704867e-38 313 270
-0.0072272392 0.68699998 -0.036136195 1.2704867e-38 314 270
-0.0060226996 0.68699998 -0.036136195 1.2704867e-38 315 270
-0.0048181596 0.68699998 -0.036136195 1.2704867e-38 316 270
-0.0036136196 0.68699998 -0.036136195 1.2520478e-38 317 270
-0.0024090798 0.68699998 -0.036136195 1.2428284e-38 318 270
-0.0012045399 0.68699998 -0.036136195 1.2428284e-38 319 270
0 0.68699998 -0.036136195 1.2519402e-38 320 270
0.0012045399 0.68699998 -0.036136195 1.2427208e-38 321 270
0.0024090798 0.68699998 -0.036136195 1.2610162e-38 322 270
0.0036136196 0.68699998 -0.036136195 1.2517967e-38 323 270
0.0048181596 0.68699998 -0.036136195 1.2609803e-38 324 270
0.0060314666 0.68800002 -0.0361888 1.2609803e-38 325 270
0.0072587994 0.69 -0.036293998 1.2609444e-38 326 270
0.0084686 0.69 -0.036293998 1.251725e-38 327 270
0.0096783992 0.69 -0.036293998 1.2424697e-38 328 270
0.01090398 0.69099998 -0.036346599 1.2516891e-38 329 270
0.012115533 0.69099998 -0.036346599 1.2517609e-38 330 270
0.01336566 0.69300002 -0.036451802 1.2517609e-38 331 270
0.014580719 0.69300002 -0.036451802 1.2517255e-38 332 270
0.015886955 0.69700003 -0.036662199 1.2609451e-38 333 270
0.017109027 0.69700003 -0.036662199 1.2425786e-38 334 270
0.018331099 0.69700003 -0.036662199 1.2702012e-38 335 270
0.019581227 0.69800001 -0.0367148 1.2519072e-38 336 270
0.020805053 0.69800001 -0.0367148 1.2611267e-38 337 270
0.02202888 0.69800001 -0.0367148 1.2245376e-38 338 270
0.023319334 0.69999999 -0.036819998 1.2061344e-38 339 270
0.024581732 0.70099998 -0.036872596 1.2800389e-38 340 270
-0.037030395 0.704 -0.038264744 1.5481268e-38 290 271
-0.035745207 0.70300001 -0.038210396 1.3176379e-38 291 271
-0.034414422 0.70099998 -0.038101684 1.3628313e-38 292 271
-0.03318534 0.70099998 -0.038101684 1.3167335e-38 293 271
-0.031910665 0.69999999 -0.038047329 1.3350985e-38 294 271
-0.030595668 0.69800001 -0.037938625 1.3166593e-38 295 271
-0.02932976 0.69700003 -0.037884273 1.3349533e-38 296 271
-0.028107686 0.69700003 -0.037884273 1.3257337e-38 297 271
-0.026769891 0.69400001 -0.037721213 1.3256969e-38 298 271
-0.025553079 0.69400001 -0.037721213 1.3256969e-38 299 271
-0.024301201 0.69300002 -0.037666857 1.3073285e-38 300 271
-0.023019511 0.69099998 -0.03755815 1.2981091e-38 301 271
-0.021807959 0.69099998 -0.03755815 1.3256597e-38 302 271
-0.020566599 0.69 -0.037503798 1.3164403e-38 303 271
-0.019356798 0.69 -0.037503798 1.2888538e-38 304 271
-0.018146999 0.69 -0.037503798 1.2980732e-38 305 271
-0.016888106 0.68800002 -0.037395094 1.2797061e-38 306 271
-0.015681813 0.68800002 -0.037395094 1.2704867e-38 307 271
-0.014475521 0.68800002 -0.037395094 1.2797061e-38 308 271
-0.013249939 0.68699998 -0.037340738 1.2797061e-38 309 271
-0.012045399 0.68699998 -0.037340738 1.2980373e-38 310 271
-0.010840859 0.68699998 -0.037340738 1.2980373e-38 311 271
-0.0096363192 0.68699998 -0.037340738 1.2888179e-38 312 271
-0.0084317802 0.68699998 -0.037340738 1.2980373e-38 313 271
-0.0072272392 0.68699998 -0.037340738 1.2797061e-38 314 271
-0.0060314666 0.68800002 -0.037395094 1.2704867e-38 315 271
-0.0048251734 0.68800002 -0.037395094 1.2796344e-38 316 271
-0.0036188802 0.68800002 -0.037395094 1.2704149e-38 317 271
-0.0024090798 0.68699998 -0.037340738 1.2427926e-38 318 271
-0.0012045399 0.68699998 -0.037340738 1.2427926e-38 319 271
0 0.68699998 -0.037340738 1.2426849e-38 320 271
0.0012045399 0.68699998 -0.037340738 1.2426849e-38 321 271
0.0024090798 0.68699998 -0.037340738 1.2517967e-38 322 271
0.0036136196 0.68699998 -0.037340738 1.2517967e-38 323 271
0.0048251734 0.68800002 -0.037395094 1.2609444e-38 324 271
0.0060489997 0.69 -0.037503798 1.2609444e-38 325 271
0.0072587994 0.69 -0.037503798 1.2516891e-38 326 271
0.008480873 0.69099998 -0.03755815 1.2516891e-38 327 271
0.0096924258 0.69099998 -0.03755815 1.2424697e-38 328 271
0.01090398 0.69099998 -0.03755815 1.2516891e-38 329 271
0.012150601 0.69300002 -0.037666857 1.2241026e-38 330 271
0.01336566 0.69300002 -0.037666857 1.2425056e-38 331 271
