# .PCD v.7 - Point Cloud Data file format
FIELDS x y z rgb imX imY
SIZE 4 4 4 4 4 4
TYPE F F F F F F
COUNT 1 1 1 1 1 1
WIDTH 851
HEIGHT 1
VIEWPOINT 0 0 0 1 0 0 0
POINTS 851
DATA ascii
-0.0013570799 0.77399999 0.032569919 1.5464651e-38 319 216
0 0.77399999 0.032569919 1.5464301e-38 320 216
0.0013570799 0.77399999 0.032569919 1.5464301e-38 321 216
0.0027141599 0.77399999 0.032569919 1.5739459e-38 322 216
0.0040712398 0.77399999 0.032569919 1.5739459e-38 323 216
0.0054423464 0.77600002 0.032654081 1.5647613e-38 324 216
0.0068204664 0.778 0.032738242 1.5370666e-38 325 216
0.0081845606 0.778 0.032738242 1.5094793e-38 326 216
0.0095486529 0.778 0.032738242 1.5002597e-38 327 216
0.010912746 0.778 0.032738242 1.3904216e-38 328 216
0.012276839 0.778 0.032738242 1.5471542e-38 329 216
-0.027527334 0.78500003 0.031656433 1.3906733e-38 300 217
-0.026150968 0.78500003 0.031656433 1.1325256e-38 301 217
-0.024711479 0.78299999 0.031575777 1.3345259e-38 302 217
-0.023279008 0.78100002 0.031495128 1.4175378e-38 303 217
-0.021881599 0.77999997 0.031454798 1.4818962e-38 304 217
-0.020513998 0.77999997 0.031454798 1.4818962e-38 305 217
-0.019048214 0.77600002 0.031293493 1.5094107e-38 306 217
-0.017687626 0.77600002 0.031293493 1.5186303e-38 307 217
-0.01632704 0.77600002 0.031293493 1.5279202e-38 308 217
-0.014966453 0.77600002 0.031293493 1.5279202e-38 309 217
-0.013605867 0.77600002 0.031293493 1.5647982e-38 310 217
-0.01224528 0.77600002 0.031293493 1.5740177e-38 311 217
-0.01085664 0.77399999 0.031212838 1.5832007e-38 312 217
-0.0094995592 0.77399999 0.031212838 1.6108234e-38 313 217
-0.0081424797 0.77399999 0.031212838 1.5923472e-38 314 217
-0.0068029333 0.77600002 0.031293493 1.5923472e-38 315 217
-0.0054283198 0.77399999 0.031212838 1.5740515e-38 316 217
-0.0040712398 0.77399999 0.031212838 1.5832711e-38 317 217
-0.0027141599 0.77399999 0.031212838 1.5832711e-38 318 217
-0.0013553266 0.773 0.03117251 1.5832711e-38 319 217
0 0.773 0.03117251 1.5833061e-38 320 217
0.0013570799 0.77399999 0.031212838 1.5740866e-38 321 217
0.0027141599 0.77399999 0.031212838 1.6200039e-38 322 217
0.0040712398 0.77399999 0.031212838 1.5923811e-38 323 217
0.0054283198 0.77399999 0.031212838 1.6014577e-38 324 217
0.0068029333 0.77600002 0.031293493 1.5830546e-38 325 217
0.0081635201 0.77600002 0.031293493 1.5647246e-38 326 217
0.009524107 0.77600002 0.031293493 1.5555051e-38 327 217
0.010884693 0.77600002 0.031293493 1.4543434e-38 328 217
0.01224528 0.77600002 0.031293493 1.4543434e-38 329 217
0.013605867 0.77600002 0.031293493 1.3627999e-38 330 217
0.015005025 0.778 0.031374145 1.547191e-38 331 217
-0.030280067 0.78500003 0.030280067 1.4834476e-38 298 218
-0.0289037 0.78500003 0.030280067 1.1330682e-38 299 218
-0.027527334 0.78500003 0.030280067 1.2794256e-38 300 218
-0.026084339 0.78299999 0.03020292 1.2886451e-38 301 218
-0.024648361 0.78100002 0.030125774 1.3898433e-38 302 218
-0.023189586 0.778 0.03001005 1.4267574e-38 303 218
-0.021825492 0.778 0.03001005 1.4818597e-38 304 218
-0.020461399 0.778 0.03001005 1.4910792e-38 305 218
-0.019048214 0.77600002 0.029932907 1.5094458e-38 306 218
-0.01764204 0.77399999 0.029855758 1.5278849e-38 307 218
-0.016284959 0.77399999 0.029855758 1.5279202e-38 308 218
-0.014927879 0.77399999 0.029855758 1.5371398e-38 309 218
-0.013570799 0.77399999 0.029855758 1.5647626e-38 310 218
-0.01221372 0.77399999 0.029855758 1.574018e-38 311 218
-0.01085664 0.77399999 0.029855758 1.6014967e-38 312 218
-0.0094995592 0.77399999 0.029855758 1.6107162e-38 313 218
-0.0081424797 0.77399999 0.029855758 1.5832007e-38 314 218
-0.0067853997 0.77399999 0.029855758 1.5832007e-38 315 218
-0.0054072798 0.77100003 0.029740039 1.5924553e-38 316 218
-0.0040554604 0.77100003 0.029740039 1.5924553e-38 317 218
-0.0027036399 0.77100003 0.029740039 1.6016026e-38 318 218
-0.00135182 0.77100003 0.029740039 1.6108222e-38 319 218
0 0.773 0.029817186 1.6108569e-38 320 218
0.0013553266 0.773 0.029817186 1.6201123e-38 321 218
0.0027106532 0.773 0.029817186 1.629259e-38 322 218
0.0040659797 0.773 0.029817186 1.6016005e-38 323 218
0.0054213065 0.773 0.029817186 1.610677e-38 324 218
0.0067853997 0.77399999 0.029855758 1.5830543e-38 325 218
0.0081635201 0.77600002 0.029932907 1.5738713e-38 326 218
0.009524107 0.77600002 0.029932907 1.5646517e-38 327 218
0.010884693 0.77600002 0.029932907 1.5004748e-38 328 218
0.01224528 0.77600002 0.029932907 1.5004748e-38 329 218
0.013605867 0.77600002 0.029932907 1.4362285e-38 330 218
0.014966453 0.77600002 0.029932907 1.4638872e-38 331 218
0.01632704 0.77600002 0.029932907 1.2805816e-38 332 218
-0.034496833 0.787 0.02897734 1.862389e-38 295 219
-0.033032801 0.78500003 0.0289037 1.8158922e-38 296 219
-0.031575777 0.78299999 0.028830061 1.3917925e-38 297 219
-0.03020292 0.78299999 0.028830061 1.2152852e-38 298 219
-0.028830061 0.78299999 0.028830061 1.113834e-38 299 219
-0.027457198 0.78299999 0.028830061 1.3160515e-38 300 219
-0.026017714 0.78100002 0.028756421 1.389808e-38 301 219
-0.024616797 0.77999997 0.028719598 1.3991e-38 302 219
-0.023129974 0.77600002 0.028572321 1.4083195e-38 303 219
-0.021769386 0.77600002 0.028572321 1.4817878e-38 304 219
-0.0204088 0.77600002 0.028572321 1.5094105e-38 305 219
-0.019048214 0.77600002 0.028572321 1.5186651e-38 306 219
-0.01764204 0.77399999 0.028498679 1.5278846e-38 307 219
-0.016284959 0.77399999 0.028498679 1.5279568e-38 308 219
-0.014927879 0.77399999 0.028498679 1.5279568e-38 309 219
-0.013570799 0.77399999 0.028498679 1.51881e-38 310 219
-0.01221372 0.77399999 0.028498679 1.51881e-38 311 219
-0.010842613 0.773 0.028461859 1.5464679e-38 312 219
-0.0094872871 0.773 0.028461859 1.5464679e-38 313 219
-0.0081319595 0.773 0.028461859 1.574018e-38 314 219
-0.0067766332 0.773 0.028461859 1.574018e-38 315 219
-0.0053932532 0.76899999 0.028314579 1.5831651e-38 316 219
-0.0040449398 0.76899999 0.028314579 1.5831651e-38 317 219
-0.0026966266 0.76899999 0.028314579 1.5832005e-38 318 219
-0.00135182 0.77100003 0.028388219 1.5832005e-38 319 219
0 0.77100003 0.028388219 1.620077e-38 320 219
0.00135182 0.77100003 0.028388219 1.6292966e-38 321 219
0.0027036399 0.77100003 0.028388219 1.6476616e-38 322 219
0.0040554604 0.77100003 0.028388219 1.6292225e-38 323 219
0.0054072798 0.77100003 0.028388219 1.6381549e-38 324 219
0.0067853997 0.77399999 0.028498679 1.6289353e-38 325 219
0.0081424797 0.77399999 0.028498679 1.592201e-38 326 219
0.0094995592 0.77399999 0.028498679 1.6014206e-38 327 219
0.01085664 0.77399999 0.028498679 1.5373152e-38 328 219
0.01224528 0.77600002 0.028572321 1.5649739e-38 329 219
0.013605867 0.77600002 0.028572321 1.5099815e-38 330 219
0.014966453 0.77600002 0.028572321 1.4454446e-38 331 219
0.01632704 0.77600002 0.028572321 1.3165186e-38 332 219
0.017733213 0.778 0.028645959 1.3810556e-38 333 219
0.019097306 0.778 0.028645959 1.3643507e-38 334 219
-0.035876706 0.787 0.027597465 1.8069267e-38 294 220
-0.034496833 0.787 0.027597465 1.5303398e-38 295 220
-0.033032801 0.78500003 0.027527334 1.3264977e-38 296 220
-0.031575777 0.78299999 0.027457198 1.1328869e-38 297 220
-0.03020292 0.78299999 0.027457198 1.2426912e-38 298 220
-0.028830061 0.78299999 0.027457198 1.3164836e-38 299 220
-0.027387068 0.78100002 0.027387068 1.3806966e-38 300 220
-0.025984399 0.77999997 0.027351998 1.371477e-38 301 220
-0.024490559 0.77600002 0.027211733 1.426542e-38 302 220
-0.02307036 0.77399999 0.027141599 1.4634203e-38 303 220
-0.021713279 0.77399999 0.027141599 1.5001543e-38 304 220
-0.020356199 0.77399999 0.027141599 1.5185935e-38 305 220
-0.018999118 0.77399999 0.027141599 1.5186656e-38 306 220
-0.01764204 0.77399999 0.027141599 1.5371047e-38 307 220
-0.016284959 0.77399999 0.027141599 1.5095904e-38 308 220
-0.014908593 0.773 0.027106533 1.5003707e-38 309 220
-0.013553266 0.773 0.027106533 1.5186303e-38 310 220
-0.012197939 0.773 0.027106533 1.5278499e-38 311 220
-0.01081456 0.77100003 0.027036399 1.5371768e-38 312 220
-0.0094627403 0.77100003 0.027036399 1.5556159e-38 313 220
-0.0080898795 0.76899999 0.026966266 1.583202e-38 314 220
-0.0067415666 0.76899999 0.026966266 1.5463598e-38 315 220
-0.0053932532 0.76899999 0.026966266 1.5646543e-38 316 220
-0.0040449398 0.76899999 0.026966266 1.5830575e-38 317 220
-0.0026966266 0.76899999 0.026966266 1.5830205e-38 318 220
-0.0013483133 0.76899999 0.026966266 1.6198988e-38 319 220
0 0.76899999 0.026966266 1.638408e-38 320 220
0.00135182 0.77100003 0.027036399 1.6937254e-38 321 220
0.0027036399 0.77100003 0.027036399 1.6569533e-38 322 220
0.0040554604 0.77100003 0.027036399 1.6384783e-38 323 220
0.0054072798 0.77100003 0.027036399 1.610712e-38 324 220
0.0067590997 0.77100003 0.027036399 1.6014924e-38 325 220
0.0081319595 0.773 0.027106533 1.56483e-38 326 220
0.0094995592 0.77399999 0.027141599 1.5832331e-38 327 220
0.01085664 0.77399999 0.027141599 1.5283465e-38 328 220
0.01221372 0.77399999 0.027141599 1.5467496e-38 329 220
0.013605867 0.77600002 0.027211733 1.5100162e-38 330 220
0.014966453 0.77600002 0.027211733 1.5007967e-38 331 220
0.01632704 0.77600002 0.027211733 1.4914361e-38 332 220
0.017687626 0.77600002 0.027211733 1.4729969e-38 333 220
0.019048214 0.77600002 0.027211733 1.1793446e-38 334 220
0.0204088 0.77600002 0.027211733 1.4559316e-38 335 220
-0.03725658 0.787 0.026217593 1.788777e-38 293 221
-0.035876706 0.787 0.026217593 1.6039147e-38 294 221
-0.034409165 0.78500003 0.026150968 1.299705e-38 295 221
-0.032948639 0.78299999 0.026084339 1.2612025e-38 296 221
-0.031495128 0.78100002 0.026017714 1.2243603e-38 297 221
-0.030125774 0.78100002 0.026017714 1.3163384e-38 298 221
-0.028756421 0.78100002 0.026017714 1.3439973e-38 299 221
-0.027351998 0.77999997 0.025984399 1.3440697e-38 300 221
-0.025917772 0.778 0.025917772 1.3440697e-38 301 221
-0.024490559 0.77600002 0.025851147 1.4266139e-38 302 221
-0.02307036 0.77399999 0.025784519 1.4450532e-38 303 221
-0.021713279 0.77399999 0.025784519 1.5001909e-38 304 221
-0.020356199 0.77399999 0.025784519 1.5094105e-38 305 221
-0.018999118 0.77399999 0.025784519 1.5462164e-38 306 221
-0.01764204 0.77399999 0.025784519 1.555436e-38 307 221
-0.016284959 0.77399999 0.025784519 1.5371045e-38 308 221
-0.014908593 0.773 0.025751207 1.5371045e-38 309 221
-0.013553266 0.773 0.025751207 1.5096256e-38 310 221
-0.012134819 0.76899999 0.025617953 1.5096256e-38 311 221
-0.010786506 0.76899999 0.025617953 1.4821115e-38 312 221
-0.0094381925 0.76899999 0.025617953 1.4821115e-38 313 221
-0.00806884 0.76700002 0.025551327 1.4363009e-38 314 221
-0.006724033 0.76700002 0.025551327 1.4270455e-38 315 221
-0.0053792265 0.76700002 0.025551327 1.4178259e-38 316 221
-0.00403442 0.76700002 0.025551327 1.4363009e-38 317 221
-0.0026966266 0.76899999 0.025617953 1.4914733e-38 318 221
-0.0013483133 0.76899999 0.025617953 1.5006928e-38 319 221
0 0.76899999 0.025617953 1.6110017e-38 320 221
0.0013483133 0.76899999 0.025617953 1.6386603e-38 321 221
0.0026966266 0.76899999 0.025617953 1.675249e-38 322 221
0.0040449398 0.76899999 0.025617953 1.6476263e-38 323 221
0.0053932532 0.76899999 0.025617953 1.6567014e-38 324 221
0.0067590997 0.77100003 0.02568458 1.6567014e-38 325 221
0.0081109209 0.77100003 0.02568458 1.5832684e-38 326 221
0.0094872871 0.773 0.025751207 1.5924881e-38 327 221
0.010842613 0.773 0.025751207 1.555897e-38 328 221
0.012197939 0.773 0.025751207 1.5651524e-38 329 221
0.013570799 0.77399999 0.025784519 1.5651168e-38 330 221
0.014927879 0.77399999 0.025784519 1.5558973e-38 331 221
0.016284959 0.77399999 0.025784519 1.5190926e-38 332 221
0.017687626 0.77600002 0.025851147 1.4638111e-38 333 221
0.018999118 0.77399999 0.025784519 1.3352818e-38 334 221
0.020356199 0.77399999 0.025784519 1.4090383e-38 335 221
0.021825492 0.778 0.025917772 1.3459117e-38 336 221
-0.037161902 0.78500003 0.0247746 1.6411921e-38 293 222
-0.035785533 0.78500003 0.0247746 1.2162964e-38 294 222
-0.034321502 0.78299999 0.024711479 1.0503803e-38 295 222
-0.032948639 0.78299999 0.024711479 1.2981171e-38 296 222
-0.031495128 0.78100002 0.024648361 1.2981171e-38 297 222
-0.030087199 0.77999997 0.024616797 1.3438906e-38 298 222
-0.028719598 0.77999997 0.024616797 1.3438906e-38 299 222
-0.027281865 0.778 0.024553679 1.3624372e-38 300 222
-0.025851147 0.77600002 0.024490559 1.3808403e-38 301 222
-0.02442744 0.77399999 0.02442744 1.4358335e-38 302 222
-0.023040552 0.773 0.024395877 1.4543086e-38 303 222
-0.021685226 0.773 0.024395877 1.5185584e-38 304 222
-0.0203299 0.773 0.024395877 1.5461811e-38 305 222
-0.018999118 0.77399999 0.02442744 1.5463244e-38 306 222
-0.017619247 0.773 0.024395877 1.5647276e-38 307 222
-0.016263919 0.773 0.024395877 1.5465388e-38 308 222
-0.01487002 0.77100003 0.02433276 1.5465388e-38 309 222
-0.013518199 0.77100003 0.02433276 1.5465386e-38 310 222
-0.012134819 0.76899999 0.024269639 1.5189159e-38 311 222
-0.010786506 0.76899999 0.024269639 1.500406e-38 312 222
-0.0094136465 0.76700002 0.024206521 1.481931e-38 313 222
-0.00806884 0.76700002 0.024206521 1.2987275e-38 314 222
-0.006724033 0.76700002 0.024206521 1.3171667e-38 315 222
-0.0053792265 0.76700002 0.024206521 1.3630127e-38 316 222
-0.00403442 0.76700002 0.024206521 1.3722323e-38 317 222
-0.0026896133 0.76700002 0.024206521 1.4182575e-38 318 222
-0.0013448066 0.76700002 0.024206521 1.427513e-38 319 222
0 0.76899999 0.024269639 1.6202229e-38 320 222
0.0013483133 0.76899999 0.024269639 1.6386979e-38 321 222
0.0026966266 0.76899999 0.024269639 1.6845055e-38 322 222
0.0040449398 0.76899999 0.024269639 1.6661024e-38 323 222
0.0053932532 0.76899999 0.024269639 1.6659575e-38 324 222
0.0067415666 0.76899999 0.024269639 1.6567379e-38 325 222
0.0081109209 0.77100003 0.02433276 1.5833411e-38 326 222
0.0094627403 0.77100003 0.02433276 1.5833411e-38 327 222
0.01081456 0.77100003 0.02433276 1.5834486e-38 328 222
0.012197939 0.773 0.024395877 1.5834486e-38 329 222
0.013553266 0.773 0.024395877 1.5651534e-38 330 222
0.014908593 0.773 0.024395877 1.5559339e-38 331 222
0.016263919 0.773 0.024395877 1.5099809e-38 332 222
0.01764204 0.77399999 0.02442744 1.5099809e-38 333 222
0.018999118 0.77399999 0.02442744 1.4916884e-38 334 222
0.020356199 0.77399999 0.02442744 1.4824688e-38 335 222
0.021769386 0.77600002 0.024490559 1.2899084e-38 336 222
0.023129974 0.77600002 0.024490559 1.5849704e-38 337 222
-0.037067216 0.78299999 0.02333862 1.392191e-38 293 223
-0.035694357 0.78299999 0.02333862 1.1511831e-38 294 223
-0.034233831 0.78100002 0.023279008 1.1235603e-38 295 223
-0.032864477 0.78100002 0.023279008 1.3074085e-38 296 223
-0.031454798 0.77999997 0.023249198 1.298189e-38 297 223
-0.03001005 0.778 0.023189586 1.3255957e-38 298 223
-0.028572321 0.77600002 0.023129974 1.3255957e-38 299 223
-0.027141599 0.77399999 0.02307036 1.3715489e-38 300 223
-0.025784519 0.77399999 0.02307036 1.3807685e-38 301 223
-0.02442744 0.77399999 0.02307036 1.4451251e-38 302 223
-0.023040552 0.773 0.023040552 1.4636001e-38 303 223
-0.021685226 0.773 0.023040552 1.5002985e-38 304 223
-0.0203299 0.773 0.023040552 1.5371768e-38 305 223
-0.018974574 0.773 0.023040552 1.5647632e-38 306 223
-0.017619247 0.773 0.023040552 1.5739827e-38 307 223
-0.016221842 0.77100003 0.02298094 1.5649058e-38 308 223
-0.01487002 0.77100003 0.02298094 1.5741254e-38 309 223
-0.013518199 0.77100003 0.02298094 1.5557581e-38 310 223
-0.012134819 0.76899999 0.022921326 1.5189159e-38 311 223
-0.010758453 0.76700002 0.022861714 1.4636719e-38 312 223
-0.0094136465 0.76700002 0.022861714 1.4360134e-38 313 223
-0.00806884 0.76700002 0.022861714 1.2802888e-38 314 223
-0.006724033 0.76700002 0.022861714 1.317167e-38 315 223
-0.0053792265 0.76700002 0.022861714 1.3081991e-38 316 223
-0.00403442 0.76700002 0.022861714 1.3174187e-38 317 223
-0.0026896133 0.76700002 0.022861714 1.3264216e-38 318 223
-0.0013448066 0.76700002 0.022861714 1.3079824e-38 319 223
0 0.76700002 0.022861714 1.6022154e-38 320 223
0.0013448066 0.76700002 0.022861714 1.6206904e-38 321 223
0.0026896133 0.76700002 0.022861714 1.6847209e-38 322 223
0.00403442 0.76700002 0.022861714 1.6570982e-38 323 223
0.0053792265 0.76700002 0.022861714 1.6660647e-38 324 223
0.0067415666 0.76899999 0.022921326 1.6476616e-38 325 223
0.0080898795 0.76899999 0.022921326 1.6200395e-38 326 223
0.0094381925 0.76899999 0.022921326 1.6200395e-38 327 223
0.010786506 0.76899999 0.022921326 1.5741935e-38 328 223
0.01216638 0.77100003 0.02298094 1.583413e-38 329 223
0.013518199 0.77100003 0.02298094 1.555862e-38 330 223
0.01487002 0.77100003 0.02298094 1.555862e-38 331 223
0.016221842 0.77100003 0.02298094 1.5283475e-38 332 223
0.017619247 0.773 0.023040552 1.5376029e-38 333 223
0.018974574 0.773 0.023040552 1.4917938e-38 334 223
0.0203299 0.773 0.023040552 1.4825742e-38 335 223
0.021713279 0.77399999 0.02307036 1.3814171e-38 336 223
0.02307036 0.77399999 0.02307036 1.5289301e-38 337 223
-0.038341891 0.78100002 0.021909652 1.3830066e-38 292 224
-0.036972538 0.78100002 0.021909652 1.0787612e-38 293 224
-0.035603184 0.78100002 0.021909652 1.1601143e-38 294 224
-0.034233831 0.78100002 0.021909652 1.2062121e-38 295 224
-0.032822397 0.77999997 0.021881599 1.2889338e-38 296 224
-0.031374145 0.778 0.021825492 1.2705307e-38 297 224
-0.029932907 0.77600002 0.021769386 1.3163764e-38 298 224
-0.028572321 0.77600002 0.021769386 1.3163764e-38 299 224
-0.027141599 0.77399999 0.021713279 1.362294e-38 300 224
-0.025751207 0.773 0.021685226 1.3807331e-38 301 224
-0.024395877 0.773 0.021685226 1.4267941e-38 302 224
-0.02298094 0.77100003 0.021629119 1.4636363e-38 303 224
-0.021629119 0.77100003 0.021629119 1.500406e-38 304 224
-0.0203299 0.773 0.021685226 1.5188453e-38 305 224
-0.018974574 0.773 0.021685226 1.5371768e-38 306 224
-0.01757366 0.77100003 0.021629119 1.5463963e-38 307 224
-0.016221842 0.77100003 0.021629119 1.5648708e-38 308 224
-0.014831445 0.76899999 0.021573013 1.5740903e-38 309 224
-0.013483133 0.76899999 0.021573013 1.583237e-38 310 224
-0.01210326 0.76700002 0.021516906 1.5371751e-38 311 224
-0.010758453 0.76700002 0.021516906 1.4361209e-38 312 224
-0.0094136465 0.76700002 0.021516906 1.4084623e-38 313 224
-0.0080583189 0.76599997 0.021488851 1.2343001e-38 314 224
-0.0067152665 0.76599997 0.021488851 1.2619947e-38 315 224
-0.0053722127 0.76599997 0.021488851 1.2347323e-38 316 224
-0.0040291594 0.76599997 0.021488851 1.2347323e-38 317 224
-0.0026896133 0.76700002 0.021516906 1.2619197e-38 318 224
-0.0013448066 0.76700002 0.021516906 1.1973828e-38 319 224
0 0.76700002 0.021516906 1.6300156e-38 320 224
0.0013448066 0.76700002 0.021516906 1.6760775e-38 321 224
0.0026896133 0.76700002 0.021516906 1.7124869e-38 322 224
0.00403442 0.76700002 0.021516906 1.6663891e-38 323 224
0.0053792265 0.76700002 0.021516906 1.6753199e-38 324 224
0.006724033 0.76700002 0.021516906 1.6384417e-38 325 224
0.00806884 0.76700002 0.021516906 1.6475184e-38 326 224
0.0094136465 0.76700002 0.021516906 1.6475184e-38 327 224
0.010786506 0.76899999 0.021573013 1.5741219e-38 328 224
0.012134819 0.76899999 0.021573013 1.5741219e-38 329 224
0.013483133 0.76899999 0.021573013 1.5466074e-38 330 224
0.01487002 0.77100003 0.021629119 1.5466074e-38 331 224
0.016221842 0.77100003 0.021629119 1.5284199e-38 332 224
0.01757366 0.77100003 0.021629119 1.5284199e-38 333 224
0.018974574 0.773 0.021685226 1.4916863e-38 334 224
0.0203299 0.773 0.021685226 1.4916863e-38 335 224
0.021713279 0.77399999 0.021713279 1.4455922e-38 336 224
0.02307036 0.77399999 0.021713279 1.4363727e-38 337 224
-0.039812941 0.78299999 0.0205929 1.6504838e-38 291 225
-0.038341891 0.78100002 0.020540299 1.1062029e-38 292 225
-0.036972538 0.78100002 0.020540299 9.4025095e-39 293 225
-0.035603184 0.78100002 0.020540299 1.2152149e-38 294 225
-0.034189999 0.77999997 0.020513998 1.2428377e-38 295 225
-0.032738242 0.778 0.020461399 1.2796424e-38 296 225
-0.031293493 0.77600002 0.0204088 1.2704227e-38 297 225
-0.029932907 0.77600002 0.0204088 1.3254881e-38 298 225
-0.028498679 0.77399999 0.020356199 1.3162684e-38 299 225
-0.027141599 0.77399999 0.020356199 1.3622574e-38 300 225
-0.025751207 0.773 0.0203299 1.3806966e-38 301 225
-0.024395877 0.773 0.0203299 1.4267574e-38 302 225
-0.02298094 0.77100003 0.020277301 1.4635998e-38 303 225
-0.021629119 0.77100003 0.020277301 1.5186653e-38 304 225
-0.020277301 0.77100003 0.020277301 1.5371045e-38 305 225
-0.018925481 0.77100003 0.020277301 1.5370693e-38 306 225
-0.01757366 0.77100003 0.020277301 1.5463247e-38 307 225
-0.016179759 0.76899999 0.0202247 1.5831667e-38 308 225
-0.014831445 0.76899999 0.0202247 1.6016417e-38 309 225
-0.013448066 0.76700002 0.020172099 1.5741256e-38 310 225
-0.01210326 0.76700002 0.020172099 1.5649061e-38 311 225
-0.010758453 0.76700002 0.020172099 1.5095884e-38 312 225
-0.0094136465 0.76700002 0.020172099 1.4173928e-38 313 225
-0.0080583189 0.76599997 0.020145798 1.1605421e-38 314 225
-0.0067152665 0.76599997 0.020145798 1.1973843e-38 315 225
-0.0053581866 0.764 0.020093199 1.169943e-38 316 225
-0.0040186401 0.764 0.020093199 1.1515038e-38 317 225
-0.0026861064 0.76599997 0.020145798 1.2156777e-38 318 225
-0.0013430532 0.76599997 0.020145798 1.2341168e-38 319 225
0 0.76599997 0.020145798 1.6391273e-38 320 225
0.0013430532 0.76599997 0.020145798 1.6851892e-38 321 225
0.0026861064 0.76599997 0.020145798 1.7216712e-38 322 225
0.0040291594 0.76599997 0.020145798 1.6940125e-38 323 225
0.0053722127 0.76599997 0.020145798 1.6936885e-38 324 225
0.006724033 0.76700002 0.020172099 1.6660297e-38 325 225
0.00806884 0.76700002 0.020172099 1.6383717e-38 326 225
0.0094136465 0.76700002 0.020172099 1.6383717e-38 327 225
0.010758453 0.76700002 0.020172099 1.5740863e-38 328 225
0.01210326 0.76700002 0.020172099 1.5740863e-38 329 225
0.013483133 0.76899999 0.0202247 1.5466074e-38 330 225
0.014831445 0.76899999 0.0202247 1.5373877e-38 331 225
0.016221842 0.77100003 0.020277301 1.5191282e-38 332 225
0.01757366 0.77100003 0.020277301 1.5283478e-38 333 225
0.018974574 0.773 0.0203299 1.4916134e-38 334 225
0.0203299 0.773 0.0203299 1.4916134e-38 335 225
0.021713279 0.77399999 0.020356199 1.4732124e-38 336 225
0.02307036 0.77399999 0.020356199 1.4271146e-38 337 225
0.02442744 0.77399999 0.020356199 1.3080231e-38 338 225
0.025851147 0.77600002 0.0204088 1.5938656e-38 339 225
-0.039812941 0.78299999 0.019220039 1.4383983e-38 291 226
-0.038341891 0.78100002 0.019170946 1.0503818e-38 292 226
-0.036972538 0.78100002 0.019170946 1.0226872e-38 293 226
-0.035603184 0.78100002 0.019170946 1.2888266e-38 294 226
-0.034189999 0.77999997 0.0191464 1.279607e-38 295 226
-0.032738242 0.778 0.019097306 1.3161965e-38 296 226
-0.031293493 0.77600002 0.019048214 1.3254161e-38 297 226
-0.029855758 0.77399999 0.018999118 1.3530026e-38 298 226
-0.028498679 0.77399999 0.018999118 1.343747e-38 299 226
-0.027106533 0.773 0.018974574 1.362294e-38 300 226
-0.025751207 0.773 0.018974574 1.362294e-38 301 226
-0.02433276 0.77100003 0.018925481 1.3806978e-38 302 226
-0.02298094 0.77100003 0.018925481 1.4083925e-38 303 226
-0.021573013 0.76899999 0.018876385 1.4636016e-38 304 226
-0.0202247 0.76899999 0.018876385 1.4728212e-38 305 226
-0.018876385 0.76899999 0.018876385 1.5556159e-38 306 226
-0.017528072 0.76899999 0.018876385 1.5648355e-38 307 226
-0.016179759 0.76899999 0.018876385 1.601677e-38 308 226
-0.014792874 0.76700002 0.018827293 1.601677e-38 309 226
-0.013448066 0.76700002 0.018827293 1.610859e-38 310 226
-0.012087479 0.76599997 0.018802745 1.59242e-38 311 226
-0.010744425 0.76599997 0.018802745 1.5830909e-38 312 226
-0.0094013726 0.76599997 0.018802745 1.5001148e-38 313 226
-0.0080583189 0.76599997 0.018802745 1.2797458e-38 314 226
-0.006697733 0.764 0.018753653 1.2889653e-38 315 226
-0.0053581866 0.764 0.018753653 1.2339389e-38 316 226
-0.0040186401 0.764 0.018753653 1.252378e-38 317 226
-0.0026790933 0.764 0.018753653 1.3075855e-38 318 226
-0.0013395466 0.764 0.018753653 1.3352802e-38 319 226
0 0.76599997 0.018802745 1.6666415e-38 320 226
0.0013430532 0.76599997 0.018802745 1.6850806e-38 321 226
0.0026790933 0.764 0.018753653 1.7216346e-38 322 226
0.0040186401 0.764 0.018753653 1.6939758e-38 323 226
0.0053722127 0.76599997 0.018802745 1.7120906e-38 324 226
0.0067152665 0.76599997 0.018802745 1.6752124e-38 325 226
0.0080583189 0.76599997 0.018802745 1.6659928e-38 326 226
0.0094013726 0.76599997 0.018802745 1.6475537e-38 327 226
0.010758453 0.76700002 0.018827293 1.6016361e-38 328 226
0.01210326 0.76700002 0.018827293 1.6016361e-38 329 226
0.013448066 0.76700002 0.018827293 1.555647e-38 330 226
0.014831445 0.76899999 0.018876385 1.5648666e-38 331 226
0.016179759 0.76899999 0.018876385 1.5098379e-38 332 226
0.017528072 0.76899999 0.018876385 1.5190576e-38 333 226
0.018925481 0.77100003 0.018925481 1.4732474e-38 334 226
0.0203299 0.773 0.018974574 1.4640277e-38 335 226
0.021713279 0.77399999 0.018999118 1.4640277e-38 336 226
0.02307036 0.77399999 0.018999118 1.4271496e-38 337 226
0.02442744 0.77399999 0.018999118 1.3352467e-38 338 226
0.025851147 0.77600002 0.019048214 1.4643206e-38 339 226
0.027211733 0.77600002 0.019048214 1.4565114e-38 340 226
-0.0411858 0.78299999 0.017847179 1.5212652e-38 290 227
-0.039711244 0.78100002 0.017801592 1.1524826e-38 291 227
-0.038341891 0.78100002 0.017801592 1.1050502e-38 292 227
-0.036972538 0.78100002 0.017801592 1.1050502e-38 293 227
-0.035557598 0.77999997 0.017778799 1.3162684e-38 294 227
-0.034102332 0.778 0.017733213 1.2978294e-38 295 227
-0.032654081 0.77600002 0.017687626 1.3161596e-38 296 227
-0.031212838 0.77399999 0.01764204 1.3345627e-38 297 227
-0.029855758 0.77399999 0.01764204 1.353002e-38 298 227
-0.028461859 0.773 0.017619247 1.3622574e-38 299 227
-0.027106533 0.773 0.017619247 1.3805887e-38 300 227
-0.02568458 0.77100003 0.01757366 1.35293e-38 301 227
-0.02433276 0.77100003 0.01757366 1.3987407e-38 302 227
-0.022861714 0.76700002 0.017482487 1.4356189e-38 303 227
-0.021516906 0.76700002 0.017482487 1.4726042e-38 304 227
-0.0202247 0.76899999 0.017528072 1.5556162e-38 305 227
-0.018876385 0.76899999 0.017528072 1.5557231e-38 306 227
-0.017528072 0.76899999 0.017528072 1.5926374e-38 307 227
-0.01613768 0.76700002 0.017482487 1.6110402e-38 308 227
-0.014792874 0.76700002 0.017482487 1.5926371e-38 309 227
-0.013430533 0.76599997 0.017459691 1.6016767e-38 310 227
-0.01205592 0.764 0.017414106 1.6016767e-38 311 227
-0.010716373 0.764 0.017414106 1.5557578e-38 312 227
-0.0093768267 0.764 0.017414106 1.5189156e-38 313 227
-0.0080372803 0.764 0.017414106 1.5187354e-38 314 227
-0.006697733 0.764 0.017414106 1.5095158e-38 315 227
-0.0053581866 0.764 0.017414106 1.3169487e-38 316 227
-0.0040186401 0.764 0.017414106 1.3169487e-38 317 227
-0.0026790933 0.764 0.017414106 1.4825762e-38 318 227
-0.0013395466 0.764 0.017414106 1.5471131e-38 319 227
0 0.764 0.017414106 1.7033768e-38 320 227
0.0013395466 0.764 0.017414106 1.7125964e-38 321 227
0.0026790933 0.764 0.017414106 1.7216712e-38 322 227
0.0040186401 0.764 0.017414106 1.7124516e-38 323 227
0.0053581866 0.764 0.017414106 1.6939039e-38 324 227
0.0067152665 0.76599997 0.017459691 1.6754289e-38 325 227
0.0080583189 0.76599997 0.017459691 1.6476982e-38 326 227
0.0094013726 0.76599997 0.017459691 1.6384786e-38 327 227
0.010744425 0.76599997 0.017459691 1.6016008e-38 328 227
0.01210326 0.76700002 0.017482487 1.5923811e-38 329 227
0.013448066 0.76700002 0.017482487 1.555647e-38 330 227
0.014831445 0.76899999 0.017528072 1.5464274e-38 331 227
0.016179759 0.76899999 0.017528072 1.5004745e-38 332 227
0.017528072 0.76899999 0.017528072 1.5096941e-38 333 227
0.018925481 0.77100003 0.01757366 1.5098016e-38 334 227
0.020277301 0.77100003 0.01757366 1.5005461e-38 335 227
0.021685226 0.773 0.017619247 1.4730672e-38 336 227
0.02307036 0.77399999 0.01764204 1.4730672e-38 337 227
0.024490559 0.77600002 0.017687626 1.3904547e-38 338 227
0.025851147 0.77600002 0.017687626 1.3166982e-38 339 227
0.027211733 0.77600002 0.017687626 1.2353843e-38 340 227
0.028572321 0.77600002 0.017687626 1.6779232e-38 341 227
-0.041080598 0.78100002 0.016432239 1.2816634e-38 290 228
-0.039711244 0.78100002 0.016432239 8.8522224e-39 291 228
-0.038292799 0.77999997 0.016411198 1.1230921e-38 292 228
-0.036925197 0.77999997 0.016411198 1.1507148e-38 293 228
-0.035557598 0.77999997 0.016411198 1.3069048e-38 294 228
-0.034102332 0.778 0.016369121 1.3069048e-38 295 228
-0.032654081 0.77600002 0.01632704 1.3344906e-38 296 228
-0.031212838 0.77399999 0.016284959 1.3621853e-38 297 228
-0.029817186 0.773 0.016263919 1.389843e-38 298 228
-0.028388219 0.77100003 0.016221842 1.3990984e-38 299 228
-0.026966266 0.76899999 0.016179759 1.4449088e-38 300 228
-0.025551327 0.76700002 0.01613768 1.4541284e-38 301 228
-0.024206521 0.76700002 0.01613768 1.4451253e-38 302 228
-0.022861714 0.76700002 0.01613768 1.4912592e-38 303 228
-0.021516906 0.76700002 0.01613768 1.5556512e-38 304 228
-0.020172099 0.76700002 0.01613768 1.5924934e-38 305 228
-0.018876385 0.76899999 0.016179759 1.5926368e-38 306 228
-0.017482487 0.76700002 0.01613768 1.6110758e-38 307 228
-0.01613768 0.76700002 0.01613768 1.601749e-38 308 228
-0.014773586 0.76599997 0.016116638 1.5740903e-38 309 228
-0.013430533 0.76599997 0.016116638 1.5742693e-38 310 228
-0.01205592 0.764 0.016074561 1.5835247e-38 311 228
-0.010716373 0.764 0.016074561 1.6110017e-38 312 228
-0.0093768267 0.764 0.016074561 1.6017821e-38 313 228
-0.0080372803 0.764 0.016074561 1.6199338e-38 314 228
-0.006697733 0.764 0.016074561 1.6568121e-38 315 228
-0.0053441599 0.76200002 0.01603248 1.6018188e-38 316 228
-0.0040081199 0.76200002 0.01603248 1.574196e-38 317 228
-0.00267208 0.76200002 0.01603248 1.6571714e-38 318 228
-0.00133604 0.76200002 0.01603248 1.7033052e-38 319 228
0 0.764 0.016074561 1.6941925e-38 320 228
0.0013395466 0.764 0.016074561 1.7034121e-38 321 228
0.00267208 0.76200002 0.01603248 1.7217068e-38 322 228
0.0040081199 0.76200002 0.01603248 1.7032676e-38 323 228
0.0053581866 0.764 0.016074561 1.7123067e-38 324 228
0.0067152665 0.76599997 0.016116638 1.6754645e-38 325 228
0.0080583189 0.76599997 0.016116638 1.666065e-38 326 228
0.0094013726 0.76599997 0.016116638 1.6384064e-38 327 228
0.010744425 0.76599997 0.016116638 1.6199676e-38 328 228
0.012087479 0.76599997 0.016116638 1.610712e-38 329 228
0.013448066 0.76700002 0.01613768 1.5831246e-38 330 228
0.014792874 0.76700002 0.01613768 1.5739051e-38 331 228
0.016179759 0.76899999 0.016179759 1.5371004e-38 332 228
0.017528072 0.76899999 0.016179759 1.5371004e-38 333 228
0.018876385 0.76899999 0.016179759 1.5095509e-38 334 228
0.020277301 0.77100003 0.016221842 1.5003313e-38 335 228
0.021685226 0.773 0.016263919 1.4361546e-38 336 228
0.02307036 0.77399999 0.016284959 1.4453742e-38 337 228
0.02442744 0.77399999 0.016284959 1.3995651e-38 338 228
0.025851147 0.77600002 0.01632704 1.3350281e-38 339 228
0.027211733 0.77600002 0.01632704 1.262213e-38 340 228
0.028572321 0.77600002 0.01632704 1.6678739e-38 341 228
-0.041080598 0.78100002 0.015062887 1.1244976e-38 290 229
-0.039711244 0.78100002 0.015062887 8.2947172e-39 291 229
-0.038292799 0.77999997 0.0150436 1.2148905e-38 292 229
-0.036925197 0.77999997 0.0150436 1.2425493e-38 293 229
-0.035466425 0.778 0.015005025 1.297613e-38 294 229
-0.034102332 0.778 0.015005025 1.3160161e-38 295 229
-0.032569919 0.77399999 0.014927879 1.3344543e-38 296 229
-0.03117251 0.773 0.014908593 1.3712965e-38 297 229
-0.029740039 0.77100003 0.01487002 1.3991703e-38 298 229
-0.028314579 0.76899999 0.014831445 1.4083899e-38 299 229
-0.026896132 0.76700002 0.014792874 1.4634549e-38 300 229
-0.025551327 0.76700002 0.014792874 1.4911496e-38 301 229
-0.024206521 0.76700002 0.014792874 1.5465739e-38 302 229
-0.022861714 0.76700002 0.014792874 1.6111108e-38 303 229
-0.021516906 0.76700002 0.014792874 1.6109668e-38 304 229
-0.020172099 0.76700002 0.014792874 1.6109668e-38 305 229
-0.018827293 0.76700002 0.014792874 1.5741622e-38 306 229
-0.017482487 0.76700002 0.014792874 1.5741622e-38 307 229
-0.016116638 0.76599997 0.014773586 1.5739474e-38 308 229
-0.014735013 0.764 0.014735013 1.5463247e-38 309 229
-0.013395466 0.764 0.014735013 1.5741978e-38 310 229
-0.01205592 0.764 0.014735013 1.6202598e-38 311 229
-0.01068832 0.76200002 0.01469644 1.6386623e-38 312 229
-0.0093522798 0.76200002 0.01469644 1.6294427e-38 313 229
-0.0080372803 0.764 0.014735013 1.6662843e-38 314 229
-0.0066801999 0.76200002 0.01469644 1.7123462e-38 315 229
-0.0053441599 0.76200002 0.01469644 1.7031254e-38 316 229
-0.0040081199 0.76200002 0.01469644 1.712345e-38 317 229
-0.00267208 0.76200002 0.01469644 1.7677693e-38 318 229
-0.00133604 0.76200002 0.01469644 1.7769888e-38 319 229
0 0.76200002 0.01469644 1.7217786e-38 320 229
0.00133604 0.76200002 0.01469644 1.7217786e-38 321 229
0.00267208 0.76200002 0.01469644 1.7217068e-38 322 229
0.0040081199 0.76200002 0.01469644 1.7124872e-38 323 229
0.0053441599 0.76200002 0.01469644 1.71238e-38 324 229
0.006697733 0.764 0.014735013 1.6754657e-38 325 229
0.0080583189 0.76599997 0.014773586 1.6476628e-38 326 229
0.0094013726 0.76599997 0.014773586 1.6200042e-38 327 229
0.010744425 0.76599997 0.014773586 1.6198956e-38 328 229
0.012087479 0.76599997 0.014773586 1.6106401e-38 329 229
0.013430533 0.76599997 0.014773586 1.5739767e-38 330 229
0.014792874 0.76700002 0.014792874 1.5555376e-38 331 229
0.01613768 0.76700002 0.014792874 1.5278794e-38 332 229
0.017482487 0.76700002 0.014792874 1.518624e-38 333 229
0.018876385 0.76899999 0.014831445 1.5186611e-38 334 229
0.020277301 0.77100003 0.01487002 1.4910385e-38 335 229
0.021685226 0.773 0.014908593 1.4359379e-38 336 229
0.02307036 0.77399999 0.014927879 1.4635605e-38 337 229
0.02442744 0.77399999 0.014927879 1.390344e-38 338 229
0.025851147 0.77600002 0.014966453 1.3626493e-38 339 229
0.027211733 0.77600002 0.014966453 1.3170245e-38 340 229
0.028572321 0.77600002 0.014966453 1.5659526e-38 341 229
0.03001005 0.778 0.015005025 1.5306645e-38 342 229
-0.041027997 0.77999997 0.013675999 1.0689283e-38 290 230
-0.039660398 0.77999997 0.013675999 8.8453701e-39 291 230
-0.038292799 0.77999997 0.013675999 1.2518039e-38 292 230
-0.036830518 0.778 0.013640933 1.2518039e-38 293 230
-0.035375252 0.77600002 0.013605867 1.297613e-38 294 230
-0.034014668 0.77600002 0.013605867 1.297613e-38 295 230
-0.032569919 0.77399999 0.013570799 1.3252713e-38 296 230
-0.031091858 0.77100003 0.013518199 1.35293e-38 297 230
-0.029740039 0.77100003 0.013518199 1.4173941e-38 298 230
-0.028314579 0.76899999 0.013483133 1.4911864e-38 299 230
-0.026896132 0.76700002 0.013448066 1.5279555e-38 300 230
-0.025551327 0.76700002 0.013448066 1.5463948e-38 301 230
-0.024174958 0.76599997 0.013430533 1.5741234e-38 302 230
-0.022831906 0.76599997 0.013430533 1.6017821e-38 303 230
-0.021488851 0.76599997 0.013430533 1.5741963e-38 304 230
-0.020145798 0.76599997 0.013430533 1.5649408e-38 305 230
-0.018802745 0.76599997 0.013430533 1.5647276e-38 306 230
-0.017459691 0.76599997 0.013430533 1.5739471e-38 307 230
-0.016074561 0.764 0.013395466 1.5463966e-38 308 230
-0.01469644 0.76200002 0.0133604 1.5648357e-38 309 230
-0.0133604 0.76200002 0.0133604 1.5652301e-38 310 230
-0.01202436 0.76200002 0.0133604 1.6021085e-38 311 230
-0.01068832 0.76200002 0.0133604 1.6479898e-38 312 230
-0.0093522798 0.76200002 0.0133604 1.6479898e-38 313 230
-0.0080162399 0.76200002 0.0133604 1.6572444e-38 314 230
-0.0066801999 0.76200002 0.0133604 1.6756475e-38 315 230
-0.0053441599 0.76200002 0.0133604 1.6939419e-38 316 230
-0.0040081199 0.76200002 0.0133604 1.7031973e-38 317 230
-0.00267208 0.76200002 0.0133604 1.7401109e-38 318 230
-0.00133604 0.76200002 0.0133604 1.7677337e-38 319 230
0 0.76200002 0.0133604 1.7585491e-38 320 230
0.00133604 0.76200002 0.0133604 1.7309263e-38 321 230
0.00267208 0.76200002 0.0133604 1.7217068e-38 322 230
0.0040081199 0.76200002 0.0133604 1.7032676e-38 323 230
0.0053441599 0.76200002 0.0133604 1.6755739e-38 324 230
0.006697733 0.764 0.013395466 1.6294402e-38 325 230
0.0080162399 0.76200002 0.0133604 1.6475559e-38 326 230
0.0093522798 0.76200002 0.0133604 1.6198972e-38 327 230
0.010716373 0.764 0.013395466 1.6106407e-38 328 230
0.012087479 0.76599997 0.013430533 1.6013852e-38 329 230
0.013430533 0.76599997 0.013430533 1.5922363e-38 330 230
0.014773586 0.76599997 0.013430533 1.5830167e-38 331 230
0.01613768 0.76700002 0.013448066 1.5462104e-38 332 230
0.017482487 0.76700002 0.013448066 1.5185877e-38 333 230
0.018827293 0.76700002 0.013448066 1.4910385e-38 334 230
0.0202247 0.76899999 0.013483133 1.481783e-38 335 230
0.021685226 0.773 0.013553266 1.4450495e-38 336 230
0.02307036 0.77399999 0.013570799 1.4450495e-38 337 230
0.02442744 0.77399999 0.013570799 1.3809805e-38 338 230
0.025851147 0.77600002 0.013605867 1.3809805e-38 339 230
0.027211733 0.77600002 0.013605867 1.2893288e-38 340 230
0.028572321 0.77600002 0.013605867 1.390708e-38 341 230
0.03001005 0.778 0.013640933 1.4842776e-38 342 230
-0.042395595 0.77999997 0.012308398 1.0972742e-38 289 231
-0.041027997 0.77999997 0.012308398 1.0225789e-38 290 231
-0.039660398 0.77999997 0.012308398 9.7644523e-39 291 231
-0.038096428 0.77600002 0.01224528 1.2335092e-38 292 231
-0.036735836 0.77600002 0.01224528 1.2150701e-38 293 231
-0.035375252 0.77600002 0.01224528 1.2883933e-38 294 231
-0.033927001 0.77399999 0.01221372 1.297613e-38 295 231
-0.032527838 0.773 0.012197939 1.3344911e-38 296 231
-0.031091858 0.77100003 0.01216638 1.3805531e-38 297 231
-0.029740039 0.77100003 0.01216638 1.4083543e-38 298 231
-0.028314579 0.76899999 0.012134819 1.5005859e-38 299 231
-0.026896132 0.76700002 0.01210326 1.5924919e-38 300 231
-0.025551327 0.76700002 0.01210326 1.5740528e-38 301 231
-0.024174958 0.76599997 0.012087479 1.5649408e-38 302 231
-0.022831906 0.76599997 0.012087479 1.5741963e-38 303 231
-0.021432746 0.764 0.01205592 1.5557228e-38 304 231
-0.020093199 0.764 0.01205592 1.5281001e-38 305 231
-0.018802745 0.76599997 0.012087479 1.5279219e-38 306 231
-0.017414106 0.764 0.01205592 1.5371415e-38 307 231
-0.01603248 0.76200002 0.01202436 1.5097702e-38 308 231
-0.01469644 0.76200002 0.01202436 1.5466483e-38 309 231
-0.0133604 0.76200002 0.01202436 1.5653024e-38 310 231
-0.01202436 0.76200002 0.01202436 1.6021806e-38 311 231
-0.01068832 0.76200002 0.01202436 1.6296951e-38 312 231
-0.0093400059 0.76099998 0.012008579 1.6389147e-38 313 231
-0.0080057196 0.76099998 0.012008579 1.6481693e-38 314 231
-0.0066714329 0.76099998 0.012008579 1.6665724e-38 315 231
-0.0053371461 0.76099998 0.012008579 1.694015e-38 316 231
-0.0040028598 0.76099998 0.012008579 1.7032346e-38 317 231
-0.0026685731 0.76099998 0.012008579 1.7033788e-38 318 231
-0.00133604 0.76200002 0.01202436 1.7218179e-38 319 231
0 0.76099998 0.012008579 1.7401832e-38 320 231
0.0013342865 0.76099998 0.012008579 1.7309276e-38 321 231
0.00267208 0.76200002 0.01202436 1.6942279e-38 322 231
0.0040081199 0.76200002 0.01202436 1.6573497e-38 323 231
0.0053441599 0.76200002 0.01202436 1.6753938e-38 324 231
0.0066801999 0.76200002 0.01202436 1.647735e-38 325 231
0.0080162399 0.76200002 0.01202436 1.6291165e-38 326 231
0.0093522798 0.76200002 0.01202436 1.6106773e-38 327 231
0.010716373 0.764 0.01205592 1.5739066e-38 328 231
0.01205592 0.764 0.01205592 1.5646871e-38 329 231
0.013395466 0.764 0.01205592 1.5646146e-38 330 231
0.014773586 0.76599997 0.012087479 1.5553951e-38 331 231
0.01613768 0.76700002 0.01210326 1.5278792e-38 332 231
0.017482487 0.76700002 0.01210326 1.5186596e-38 333 231
0.018827293 0.76700002 0.01210326 1.4726707e-38 334 231
0.0202247 0.76899999 0.012134819 1.445048e-38 335 231
0.021685226 0.773 0.012197939 1.4174629e-38 336 231
0.023040552 0.773 0.012197939 1.4174629e-38 337 231
0.02442744 0.77399999 0.01221372 1.353323e-38 338 231
0.025851147 0.77600002 0.01224528 1.3901653e-38 339 231
0.027211733 0.77600002 0.01224528 1.2983686e-38 340 231
0.028572321 0.77600002 0.01224528 1.3075882e-38 341 231
0.03001005 0.778 0.012276839 1.428671e-38 342 231
-0.042286891 0.778 0.010912746 9.2217336e-39 289 232
-0.040922798 0.778 0.010912746 1.068208e-38 290 232
-0.039558705 0.778 0.010912746 1.0497687e-38 291 232
-0.038096428 0.77600002 0.010884693 1.2425846e-38 292 232
-0.036735836 0.77600002 0.010884693 1.2333649e-38 293 232
-0.03528408 0.77399999 0.01085664 1.2791738e-38 294 232
-0.033927001 0.77399999 0.01085664 1.2883933e-38 295 232
-0.032527838 0.773 0.010842613 1.362077e-38 296 232
-0.031091858 0.77100003 0.01081456 1.4173943e-38 297 232
-0.029740039 0.77100003 0.01081456 1.4636351e-38 298 232
-0.028314579 0.76899999 0.010786506 1.528172e-38 299 232
-0.026896132 0.76700002 0.010758453 1.5650133e-38 300 232
-0.025551327 0.76700002 0.010758453 1.5465383e-38 301 232
-0.024174958 0.76599997 0.010744425 1.5832723e-38 302 232
-0.022831906 0.76599997 0.010744425 1.5832723e-38 303 232
-0.021432746 0.764 0.010716373 1.5464314e-38 304 232
-0.020093199 0.764 0.010716373 1.5279921e-38 305 232
-0.018753653 0.764 0.010716373 1.4912587e-38 306 232
-0.017414106 0.764 0.010716373 1.509662e-38 307 232
-0.01603248 0.76200002 0.01068832 1.5282442e-38 308 232
-0.01469644 0.76200002 0.01068832 1.5374638e-38 309 232
-0.0133604 0.76200002 0.01068832 1.592709e-38 310 232
-0.012008579 0.76099998 0.010674292 1.6019285e-38 311 232
-0.010674292 0.76099998 0.010674292 1.6203677e-38 312 232
-0.0093400059 0.76099998 0.010674292 1.6480263e-38 313 232
-0.0080057196 0.76099998 0.010674292 1.6665727e-38 314 232
-0.0066714329 0.76099998 0.010674292 1.6665727e-38 315 232
-0.0053371461 0.76099998 0.010674292 1.6940872e-38 316 232
-0.0040028598 0.76099998 0.010674292 1.7033067e-38 317 232
-0.0026685731 0.76099998 0.010674292 1.7217457e-38 318 232
-0.0013342865 0.76099998 0.010674292 1.7586238e-38 319 232
0 0.76099998 0.010674292 1.7401123e-38 320 232
0.0013342865 0.76099998 0.010674292 1.7308926e-38 321 232
0.0026685731 0.76099998 0.010674292 1.6941572e-38 322 232
0.0040028598 0.76099998 0.010674292 1.6480594e-38 323 232
0.0053371461 0.76099998 0.010674292 1.6477347e-38 324 232
0.0066801999 0.76200002 0.01068832 1.6108925e-38 325 232
0.0080162399 0.76200002 0.01068832 1.5923455e-38 326 232
0.0093522798 0.76200002 0.01068832 1.5831259e-38 327 232
0.01068832 0.76200002 0.01068832 1.5646871e-38 328 232
0.01205592 0.764 0.010716373 1.5370285e-38 329 232
0.013395466 0.764 0.010716373 1.5461756e-38 330 232
0.014735013 0.764 0.010716373 1.5461756e-38 331 232
0.01613768 0.76700002 0.010758453 1.518589e-38 332 232
0.017482487 0.76700002 0.010758453 1.5001498e-38 333 232
0.018827293 0.76700002 0.010758453 1.4725635e-38 334 232
0.020172099 0.76700002 0.010758453 1.4541242e-38 335 232
0.021629119 0.77100003 0.01081456 1.3990233e-38 336 232
0.023040552 0.773 0.010842613 1.3990233e-38 337 232
0.02442744 0.77399999 0.01085664 1.3531426e-38 338 232
0.025851147 0.77600002 0.010884693 1.3716177e-38 339 232
0.027211733 0.77600002 0.010884693 1.344248e-38 340 232
0.028645959 0.778 0.010912746 1.325773e-38 341 232
0.03001005 0.778 0.010912746 1.3731719e-38 342 232
0.031374145 0.778 0.010912746 1.7696131e-38 343 232
-0.042286891 0.778 0.0095486529 8.576346e-39 289 233
-0.040922798 0.778 0.0095486529 1.1138723e-38 290 233
-0.039558705 0.778 0.0095486529 1.1230918e-38 291 233
-0.038096428 0.77600002 0.009524107 1.2149982e-38 292 233
-0.036735836 0.77600002 0.009524107 1.2057785e-38 293 233
-0.03528408 0.77399999 0.0094995592 1.2698833e-38 294 233
-0.033927001 0.77399999 0.0094995592 1.297578e-38 295 233
-0.032527838 0.773 0.0094872871 1.3437823e-38 296 233
-0.031091858 0.77100003 0.0094627403 1.3990997e-38 297 233
-0.029740039 0.77100003 0.0094627403 1.4635635e-38 298 233
-0.028314579 0.76899999 0.0094381925 1.5096253e-38 299 233
-0.026896132 0.76700002 0.0094136465 1.5097326e-38 300 233
-0.025551327 0.76700002 0.0094136465 1.5281717e-38 301 233
-0.024174958 0.76599997 0.0094013726 1.5647982e-38 302 233
-0.022772292 0.764 0.0093768267 1.5740177e-38 303 233
-0.02137664 0.76200002 0.0093522798 1.546467e-38 304 233
-0.0200406 0.76200002 0.0093522798 1.546467e-38 305 233
-0.01870456 0.76200002 0.0093522798 1.5097326e-38 306 233
-0.01736852 0.76200002 0.0093522798 1.5281717e-38 307 233
-0.01603248 0.76200002 0.0093522798 1.5189169e-38 308 233
-0.01469644 0.76200002 0.0093522798 1.5373919e-38 309 233
-0.0133604 0.76200002 0.0093522798 1.5375012e-38 310 233
-0.012008579 0.76099998 0.0093400059 1.5651597e-38 311 233
-0.010674292 0.76099998 0.0093400059 1.5560478e-38 312 233
-0.0093400059 0.76099998 0.0093400059 1.5836705e-38 313 233
-0.0080057196 0.76099998 0.0093400059 1.6665374e-38 314 233
-0.0066714329 0.76099998 0.0093400059 1.6757569e-38 315 233
-0.0053371461 0.76099998 0.0093400059 1.6665371e-38 316 233
-0.0040028598 0.76099998 0.0093400059 1.6665371e-38 317 233
-0.0026685731 0.76099998 0.0093400059 1.6757572e-38 318 233
-0.00133078 0.759 0.00931546 1.6849769e-38 319 233
0 0.759 0.00931546 1.7032717e-38 320 233
0.0013342865 0.76099998 0.0093400059 1.6940163e-38 321 233
0.0026685731 0.76099998 0.0093400059 1.6756475e-38 322 233
0.0040028598 0.76099998 0.0093400059 1.6111105e-38 323 233
0.0053371461 0.76099998 0.0093400059 1.620077e-38 324 233
0.0066801999 0.76200002 0.0093522798 1.5831628e-38 325 233
0.0080162399 0.76200002 0.0093522798 1.5647947e-38 326 233
0.0093522798 0.76200002 0.0093522798 1.537136e-38 327 233
0.01068832 0.76200002 0.0093522798 1.5371004e-38 328 233
0.01202436 0.76200002 0.0093522798 1.5278808e-38 329 233
0.0133604 0.76200002 0.0093522798 1.5186255e-38 330 233
0.014735013 0.764 0.0093768267 1.5186255e-38 331 233
0.016074561 0.764 0.0093768267 1.4910031e-38 332 233
0.017459691 0.76599997 0.0094013726 1.4725281e-38 333 233
0.018802745 0.76599997 0.0094013726 1.4449776e-38 334 233
0.020145798 0.76599997 0.0094013726 1.4265025e-38 335 233
0.021573013 0.76899999 0.0094381925 1.3989164e-38 336 233
0.02298094 0.77100003 0.0094627403 1.3896968e-38 337 233
0.02442744 0.77399999 0.0094995592 1.3438527e-38 338 233
0.025851147 0.77600002 0.009524107 1.3715474e-38 339 233
0.027211733 0.77600002 0.009524107 1.3166278e-38 340 233
0.028645959 0.778 0.0095486529 1.2981887e-38 341 233
0.03001005 0.778 0.0095486529 1.3727052e-38 342 233
0.031374145 0.778 0.0095486529 1.7506715e-38 343 233
-0.042395595 0.77999997 0.0082055992 9.1266457e-39 289 234
-0.040922798 0.778 0.0081845606 1.1506426e-38 290 234
-0.039457016 0.77600002 0.0081635201 1.1229839e-38 291 234
-0.037998237 0.77399999 0.0081424797 1.214817e-38 292 234
-0.036641158 0.77399999 0.0081424797 1.2424397e-38 293 234
-0.03528408 0.77399999 0.0081424797 1.2974684e-38 294 234
-0.033927001 0.77399999 0.0081424797 1.3343108e-38 295 234
-0.032527838 0.773 0.0081319595 1.3988463e-38 296 234
-0.031091858 0.77100003 0.0081109209 1.4449441e-38 297 234
-0.02966289 0.76899999 0.0080898795 1.4909694e-38 298 234
-0.02824094 0.76700002 0.00806884 1.5001891e-38 299 234
-0.026896132 0.76700002 0.00806884 1.5279552e-38 300 234
-0.025518013 0.76599997 0.0080583189 1.5279552e-38 301 234
-0.024174958 0.76599997 0.0080583189 1.555506e-38 302 234
-0.022772292 0.764 0.0080372803 1.5647616e-38 303 234
-0.02137664 0.76200002 0.0080162399 1.5648335e-38 304 234
-0.0200406 0.76200002 0.0080162399 1.5648335e-38 305 234
-0.01870456 0.76200002 0.0080162399 1.5097323e-38 306 234
-0.01736852 0.76200002 0.0080162399 1.5097323e-38 307 234
-0.016011439 0.76099998 0.0080057196 1.5189522e-38 308 234
-0.014677152 0.76099998 0.0080057196 1.5189522e-38 309 234
-0.013342866 0.76099998 0.0080057196 1.528172e-38 310 234
-0.012008579 0.76099998 0.0080057196 1.5466112e-38 311 234
-0.010674292 0.76099998 0.0080057196 1.5649424e-38 312 234
-0.0093400059 0.76099998 0.0080057196 1.5649424e-38 313 234
-0.0080057196 0.76099998 0.0080057196 1.6019283e-38 314 234
-0.0066714329 0.76099998 0.0080057196 1.6204033e-38 315 234
-0.0053371461 0.76099998 0.0080057196 1.6570657e-38 316 234
-0.0040028598 0.76099998 0.0080057196 1.6755408e-38 317 234
-0.0026685731 0.76099998 0.0080057196 1.6662854e-38 318 234
-0.00133078 0.759 0.0079846792 1.629443e-38 319 234
0 0.759 0.0079846792 1.7028751e-38 320 234
0.00133078 0.759 0.0079846792 1.7581566e-38 321 234
0.0026685731 0.76099998 0.0080057196 1.6756122e-38 322 234
0.0040028598 0.76099998 0.0080057196 1.5834526e-38 323 234
0.0053371461 0.76099998 0.0080057196 1.5829837e-38 324 234
0.0066714329 0.76099998 0.0080057196 1.5737641e-38 325 234
0.0080057196 0.76099998 0.0080057196 1.55536e-38 326 234
