# .PCD v.7 - Point Cloud Data file format
FIELDS x y z rgb imX imY
SIZE 4 4 4 4 4 4
TYPE F F F F F F
COUNT 1 1 1 1 1 1
WIDTH 829
HEIGHT 1
VIEWPOINT 0 0 0 1 0 0 0
POINTS 829
DATA ascii
0.017133573 0.69800001 -0.04405776 1.4541589e-38 334 276
0.0183574 0.69800001 -0.04405776 1.4634145e-38 335 276
0.019637333 0.69999999 -0.044183996 1.4357927e-38 336 276
0.020864666 0.69999999 -0.044183996 1.454232e-38 337 276
0.022091998 0.69999999 -0.044183996 1.4542691e-38 338 276
0.023319334 0.69999999 -0.044183996 1.4727082e-38 339 276
0.024581732 0.70099998 -0.044247117 1.4635605e-38 340 276
0.025810819 0.70099998 -0.044247117 1.4727802e-38 341 276
0.027117053 0.70300001 -0.04437336 1.445194e-38 342 276
0.028389972 0.704 -0.044436477 1.4636333e-38 343 276
0.029624319 0.704 -0.044436477 1.4636704e-38 344 276
0.030946331 0.70599997 -0.044562716 1.4821095e-38 345 276
0.032184184 0.70599997 -0.044562716 1.4545953e-38 346 276
0.033469379 0.70700002 -0.044625837 1.4545953e-38 347 276
0.034758076 0.708 -0.044688959 1.4270445e-38 348 276
0.036101133 0.70999998 -0.044815198 1.4177891e-38 349 276
0.037398599 0.71100003 -0.044878319 1.3904547e-38 350 276
0.038645219 0.71100003 -0.044878319 1.4181133e-38 351 276
0.039891839 0.71100003 -0.044878319 1.4273719e-38 352 276
-0.028793238 0.71399999 -0.046319555 1.2610603e-38 297 277
-0.026179021 0.71100003 -0.046124939 1.343888e-38 299 277
-0.024897331 0.70999998 -0.046060063 1.4082789e-38 300 277
-0.023585839 0.708 -0.045930319 1.3990233e-38 301 277
-0.022344479 0.708 -0.045930319 1.4632367e-38 302 277
-0.021103119 0.708 -0.045930319 1.4632367e-38 303 277
-0.019833706 0.70700002 -0.045865446 1.4815682e-38 304 277
-0.018594101 0.70700002 -0.045865446 1.4907878e-38 305 277
-0.017329946 0.70599997 -0.04580057 1.4815332e-38 306 277
-0.016046507 0.704 -0.045670826 1.4999723e-38 307 277
-0.014791119 0.70300001 -0.04560595 1.4724934e-38 308 277
-0.013558527 0.70300001 -0.04560595 1.481713e-38 309 277
-0.012290866 0.70099998 -0.045476202 1.4818555e-38 310 277
-0.011045999 0.69999999 -0.04541133 1.491075e-38 311 277
-0.0098186666 0.69999999 -0.04541133 1.4910385e-38 312 277
-0.0085913334 0.69999999 -0.04541133 1.481783e-38 313 277
-0.0073429602 0.69800001 -0.045281585 1.481783e-38 314 277
-0.006119133 0.69800001 -0.045281585 1.481783e-38 315 277
-0.0048953067 0.69800001 -0.045281585 1.4726353e-38 316 277
-0.0036714801 0.69800001 -0.045281585 1.4542322e-38 317 277
-0.0024476533 0.69800001 -0.045281585 1.4724916e-38 318 277
-0.0012238267 0.69800001 -0.045281585 1.4908947e-38 319 277
0 0.69700003 -0.045216713 1.4542322e-38 320 277
0.0012220733 0.69700003 -0.045216713 1.4450127e-38 321 277
0.0024441467 0.69700003 -0.045216713 1.4633086e-38 322 277
0.0036609597 0.69599998 -0.045151837 1.454089e-38 323 277
0.0048812795 0.69599998 -0.045151837 1.454089e-38 324 277
0.0061015999 0.69599998 -0.045151837 1.454089e-38 325 277
0.0073219193 0.69599998 -0.045151837 1.4357574e-38 326 277
0.0085422397 0.69599998 -0.045151837 1.4265378e-38 327 277
0.0097625591 0.69599998 -0.045151837 1.4357927e-38 328 277
0.010982879 0.69599998 -0.045151837 1.4357927e-38 329 277
0.0122032 0.69599998 -0.045151837 1.4450477e-38 330 277
0.013423519 0.69599998 -0.045151837 1.4450477e-38 331 277
0.014643839 0.69599998 -0.045151837 1.4450474e-38 332 277
0.015886955 0.69700003 -0.045216713 1.4450474e-38 333 277
0.017133573 0.69800001 -0.045281585 1.4450477e-38 334 277
0.0183574 0.69800001 -0.045281585 1.435828e-38 335 277
0.019581227 0.69800001 -0.045281585 1.4357927e-38 336 277
0.020805053 0.69800001 -0.045281585 1.4450124e-38 337 277
0.022091998 0.69999999 -0.04541133 1.4450492e-38 338 277
0.023319334 0.69999999 -0.04541133 1.4634884e-38 339 277
0.024546666 0.69999999 -0.04541133 1.445229e-38 340 277
0.025773998 0.69999999 -0.04541133 1.445229e-38 341 277
0.027039904 0.70099998 -0.045476202 1.4452293e-38 342 277
0.028349647 0.70300001 -0.04560595 1.454449e-38 343 277
0.029582238 0.70300001 -0.04560595 1.436119e-38 344 277
0.030858666 0.704 -0.045670826 1.4453386e-38 345 277
0.032184184 0.70599997 -0.04580057 1.4360837e-38 346 277
0.033422034 0.70599997 -0.04580057 1.4360837e-38 347 277
0.034758076 0.708 -0.045930319 1.4085329e-38 348 277
0.036101133 0.70999998 -0.046060063 1.4085329e-38 349 277
0.037398599 0.71100003 -0.046124939 1.3903823e-38 350 277
0.038645219 0.71100003 -0.046124939 1.4272607e-38 351 277
0.039891839 0.71100003 -0.046124939 1.4181878e-38 352 277
0.041138459 0.71100003 -0.046124939 1.5933236e-38 353 277
-0.030171359 0.71700001 -0.04777132 1.2886454e-38 296 278
-0.028793238 0.71399999 -0.047571439 1.297865e-38 297 278
-0.02754136 0.71399999 -0.047571439 1.3806573e-38 298 278
-0.026179021 0.71100003 -0.047371563 1.3806573e-38 299 278
-0.024897331 0.70999998 -0.047304932 1.3990233e-38 300 278
-0.023585839 0.708 -0.047171678 1.3990233e-38 301 278
-0.022312919 0.70700002 -0.047105055 1.4265025e-38 302 278
-0.021073313 0.70700002 -0.047105055 1.4265025e-38 303 278
-0.019833706 0.70700002 -0.047105055 1.4264306e-38 304 278
-0.018567799 0.70599997 -0.047038425 1.435686e-38 305 278
-0.017329946 0.70599997 -0.047038425 1.4356507e-38 306 278
-0.016046507 0.704 -0.046905171 1.454054e-38 307 278
-0.014791119 0.70300001 -0.046838548 1.4356872e-38 308 278
-0.013558527 0.70300001 -0.046838548 1.4449426e-38 309 278
-0.012290866 0.70099998 -0.046705291 1.4450492e-38 310 278
-0.011045999 0.69999999 -0.046638668 1.4542688e-38 311 278
-0.0098186666 0.69999999 -0.046638668 1.4542322e-38 312 278
-0.0085913334 0.69999999 -0.046638668 1.4450127e-38 313 278
-0.0073429602 0.69800001 -0.046505414 1.4541969e-38 314 278
-0.006119133 0.69800001 -0.046505414 1.4449774e-38 315 278
-0.0048953067 0.69800001 -0.046505414 1.4540893e-38 316 278
-0.0036714801 0.69800001 -0.046505414 1.4540893e-38 317 278
-0.0024476533 0.69800001 -0.046505414 1.4449776e-38 318 278
-0.0012238267 0.69800001 -0.046505414 1.4449776e-38 319 278
0 0.69800001 -0.046505414 1.4357941e-38 320 278
0.0012220733 0.69700003 -0.046438783 1.417391e-38 321 278
0.0024441467 0.69700003 -0.046438783 1.4356858e-38 322 278
0.00366622 0.69700003 -0.046438783 1.4356858e-38 323 278
0.0048882933 0.69700003 -0.046438783 1.4265378e-38 324 278
0.0061103669 0.69700003 -0.046438783 1.4265378e-38 325 278
0.0073219193 0.69599998 -0.046372157 1.4174615e-38 326 278
0.0085422397 0.69599998 -0.046372157 1.4082419e-38 327 278
0.0097345067 0.69400001 -0.046238903 1.4265728e-38 328 278
0.01095132 0.69400001 -0.046238903 1.4265728e-38 329 278
0.0122032 0.69599998 -0.046372157 1.4265734e-38 330 278
0.013423519 0.69599998 -0.046372157 1.435793e-38 331 278
0.014643839 0.69599998 -0.046372157 1.4265378e-38 332 278
0.015886955 0.69700003 -0.046438783 1.4265378e-38 333 278
0.017133573 0.69800001 -0.046505414 1.3990589e-38 334 278
0.0183574 0.69800001 -0.046505414 1.3898393e-38 335 278
0.019581227 0.69800001 -0.046505414 1.4082066e-38 336 278
0.020805053 0.69800001 -0.046505414 1.4358294e-38 337 278
0.02202888 0.69800001 -0.046505414 1.4267177e-38 338 278
0.023252707 0.69800001 -0.046505414 1.4451927e-38 339 278
0.024546666 0.69999999 -0.046638668 1.4635603e-38 340 278
0.025773998 0.69999999 -0.046638668 1.4451571e-38 341 278
0.027001332 0.69999999 -0.046638668 1.4268625e-38 342 278
0.028268991 0.70099998 -0.046705291 1.4268625e-38 343 278
0.029582238 0.70300001 -0.046838548 1.4085329e-38 344 278
0.030814834 0.70300001 -0.046838548 1.4085329e-38 345 278
0.032093015 0.704 -0.046905171 1.4083899e-38 346 278
0.033422034 0.70599997 -0.047038425 1.3991703e-38 347 278
0.034708988 0.70700002 -0.047105055 1.3808032e-38 348 278
0.036101133 0.70999998 -0.047304932 1.3992782e-38 349 278
0.037345998 0.70999998 -0.047304932 1.3627604e-38 350 278
0.038645219 0.71100003 -0.047371563 1.3996746e-38 351 278
0.039891839 0.71100003 -0.047371563 1.3997128e-38 352 278
0.041138459 0.71100003 -0.047371563 1.5933236e-38 353 278
0.042385083 0.71100003 -0.047371563 1.6774547e-38 354 278
-0.030171359 0.71700001 -0.04902846 1.3991724e-38 296 279
-0.028914221 0.71700001 -0.04902846 1.3899527e-38 297 279
-0.02754136 0.71399999 -0.048823316 1.3899139e-38 298 279
-0.026179021 0.71100003 -0.048618179 1.3622552e-38 299 279
-0.024897331 0.70999998 -0.048549797 1.3896966e-38 300 279
-0.023585839 0.708 -0.048413038 1.3896966e-38 301 279
-0.022312919 0.70700002 -0.048344657 1.4080634e-38 302 279
-0.021073313 0.70700002 -0.048344657 1.3896603e-38 303 279
-0.019805651 0.70599997 -0.048276275 1.4079912e-38 304 279
-0.018567799 0.70599997 -0.048276275 1.4172466e-38 305 279
-0.017329946 0.70599997 -0.048276275 1.426358e-38 306 279
-0.016046507 0.704 -0.048139516 1.4447972e-38 307 279
-0.014812159 0.704 -0.048139516 1.4265012e-38 308 279
-0.013558527 0.70300001 -0.048071139 1.4357208e-38 309 279
-0.012290866 0.70099998 -0.047934376 1.4357924e-38 310 279
-0.011061779 0.70099998 -0.047934376 1.4357924e-38 311 279
-0.0098186666 0.69999999 -0.047865998 1.4541592e-38 312 279
-0.0085913334 0.69999999 -0.047865998 1.4541592e-38 313 279
-0.0073429602 0.69800001 -0.047729239 1.4357208e-38 314 279
-0.006119133 0.69800001 -0.047729239 1.4265012e-38 315 279
-0.0048953067 0.69800001 -0.047729239 1.4447253e-38 316 279
-0.0036714801 0.69800001 -0.047729239 1.4447253e-38 317 279
-0.0024476533 0.69800001 -0.047729239 1.4447255e-38 318 279
-0.0012238267 0.69800001 -0.047729239 1.4723482e-38 319 279
0 0.69800001 -0.047729239 1.4447974e-38 320 279
0.0012238267 0.69800001 -0.047729239 1.4447974e-38 321 279
0.0024441467 0.69700003 -0.047660861 1.4172829e-38 322 279
0.00366622 0.69700003 -0.047660861 1.4265025e-38 323 279
0.0048812795 0.69599998 -0.047592476 1.4082782e-38 324 279
0.0061015999 0.69599998 -0.047592476 1.4082782e-38 325 279
0.0073219193 0.69599998 -0.047592476 1.4082416e-38 326 279
0.0085422397 0.69599998 -0.047592476 1.4082416e-38 327 279
0.0097345067 0.69400001 -0.047455717 1.4173889e-38 328 279
0.01095132 0.69400001 -0.047455717 1.4081334e-38 329 279
0.0122032 0.69599998 -0.047592476 1.408134e-38 330 279
0.013423519 0.69599998 -0.047592476 1.408134e-38 331 279
0.014643839 0.69599998 -0.047592476 1.4080265e-38 332 279
0.015886955 0.69700003 -0.047660861 1.4080265e-38 333 279
0.017109027 0.69700003 -0.047660861 1.3896953e-38 334 279
0.0183574 0.69800001 -0.047729239 1.3896953e-38 335 279
0.019581227 0.69800001 -0.047729239 1.4172461e-38 336 279
0.020805053 0.69800001 -0.047729239 1.4265015e-38 337 279
0.02202888 0.69800001 -0.047729239 1.4358647e-38 338 279
0.023252707 0.69800001 -0.047729239 1.4358647e-38 339 279
0.024476532 0.69800001 -0.047729239 1.4359726e-38 340 279
0.025773998 0.69999999 -0.047865998 1.4267531e-38 341 279
0.027001332 0.69999999 -0.047865998 1.4267896e-38 342 279
0.028268991 0.70099998 -0.047934376 1.4267896e-38 343 279
0.029498078 0.70099998 -0.047934376 1.4175347e-38 344 279
0.030814834 0.70300001 -0.048071139 1.4175347e-38 345 279
0.032093015 0.704 -0.048139516 1.4082083e-38 346 279
0.033422034 0.70599997 -0.048276275 1.4082083e-38 347 279
0.034708988 0.70700002 -0.048344657 1.3623625e-38 348 279
0.036101133 0.70999998 -0.048549797 1.3808017e-38 349 279
0.037345998 0.70999998 -0.048549797 1.3718711e-38 350 279
0.038590867 0.70999998 -0.048549797 1.3995297e-38 351 279
0.039835732 0.70999998 -0.048549797 1.3721617e-38 352 279
0.041138459 0.71100003 -0.048618179 1.5842475e-38 353 279
0.042385083 0.71100003 -0.048618179 1.6591957e-38 354 279
-0.03012928 0.71600002 -0.050215468 1.3902051e-38 296 280
-0.028873893 0.71600002 -0.050215468 1.3441073e-38 297 280
-0.02754136 0.71399999 -0.050075196 1.3990263e-38 298 280
-0.026179021 0.71100003 -0.049864799 1.362112e-38 299 280
-0.024897331 0.70999998 -0.049794663 1.3896252e-38 300 280
-0.023585839 0.708 -0.049654398 1.3896252e-38 301 280
-0.022312919 0.70700002 -0.049584266 1.380477e-38 302 280
-0.021073313 0.70700002 -0.049584266 1.380477e-38 303 280
-0.019805651 0.70599997 -0.04951413 1.3896247e-38 304 280
-0.018567799 0.70599997 -0.04951413 1.3896247e-38 305 280
-0.017329946 0.70599997 -0.04951413 1.3896247e-38 306 280
-0.016046507 0.704 -0.049373865 1.4172832e-38 307 280
-0.014812159 0.704 -0.049373865 1.3989517e-38 308 280
-0.013558527 0.70300001 -0.049303733 1.3989517e-38 309 280
-0.012325933 0.70300001 -0.049303733 1.3990589e-38 310 280
-0.011061779 0.70099998 -0.049163464 1.3898393e-38 311 280
-0.0098186666 0.69999999 -0.049093332 1.4082066e-38 312 280
-0.0085913334 0.69999999 -0.049093332 1.398987e-38 313 280
-0.0073429602 0.69800001 -0.048953064 1.4080634e-38 314 280
-0.006119133 0.69800001 -0.048953064 1.3896603e-38 315 280
-0.0048882933 0.69700003 -0.048882935 1.3804054e-38 316 280
-0.00366622 0.69700003 -0.048882935 1.3804054e-38 317 280
-0.0024441467 0.69700003 -0.048882935 1.3804422e-38 318 280
-0.0012220733 0.69700003 -0.048882935 1.3896618e-38 319 280
0 0.69800001 -0.048953064 1.3988814e-38 320 280
0.0012220733 0.69700003 -0.048882935 1.3896618e-38 321 280
0.0024441467 0.69700003 -0.048882935 1.3990239e-38 322 280
0.0036609597 0.69599998 -0.048812799 1.4082436e-38 323 280
0.0048812795 0.69599998 -0.048812799 1.3807996e-38 324 280
0.0061015999 0.69599998 -0.048812799 1.3623606e-38 325 280
0.0073008798 0.69400001 -0.048672531 1.3807277e-38 326 280
0.0085176928 0.69400001 -0.048672531 1.3714722e-38 327 280
0.0097345067 0.69400001 -0.048672531 1.3714004e-38 328 280
0.01095132 0.69400001 -0.048672531 1.3714004e-38 329 280
0.012168133 0.69400001 -0.048672531 1.3622527e-38 330 280
0.013423519 0.69599998 -0.048812799 1.3622527e-38 331 280
0.014643839 0.69599998 -0.048812799 1.3622883e-38 332 280
0.015886955 0.69700003 -0.048882935 1.3622883e-38 333 280
0.017109027 0.69700003 -0.048882935 1.3347022e-38 334 280
0.0183574 0.69800001 -0.048953064 1.3347022e-38 335 280
0.019581227 0.69800001 -0.048953064 1.3622179e-38 336 280
0.020805053 0.69800001 -0.048953064 1.3714375e-38 337 280
0.02202888 0.69800001 -0.048953064 1.3898768e-38 338 280
0.023252707 0.69800001 -0.048953064 1.3898768e-38 339 280
0.024476532 0.69800001 -0.048953064 1.389984e-38 340 280
0.025773998 0.69999999 -0.049093332 1.3992035e-38 341 280
0.027001332 0.69999999 -0.049093332 1.3992035e-38 342 280
0.028268991 0.70099998 -0.049163464 1.389984e-38 343 280
0.029498078 0.70099998 -0.049163464 1.3623976e-38 344 280
0.030814834 0.70300001 -0.049303733 1.3623976e-38 345 280
0.032093015 0.704 -0.049373865 1.3623623e-38 346 280
0.033422034 0.70599997 -0.04951413 1.3623623e-38 347 280
0.034708988 0.70700002 -0.049584266 1.3165171e-38 348 280
0.036101133 0.70999998 -0.049794663 1.3441398e-38 349 280
0.037345998 0.70999998 -0.049794663 1.3259903e-38 350 280
0.038590867 0.70999998 -0.049794663 1.3812718e-38 351 280
0.039835732 0.70999998 -0.049794663 1.3721267e-38 352 280
0.041138459 0.71100003 -0.049864799 1.6302744e-38 353 280
0.042385083 0.71100003 -0.049864799 1.6959662e-38 354 280
-0.03012928 0.71600002 -0.051470853 1.3441793e-38 296 281
-0.028873893 0.71600002 -0.051470853 1.3533989e-38 297 281
-0.02754136 0.71399999 -0.05132708 1.3898436e-38 298 281
-0.026179021 0.71100003 -0.051111419 1.362185e-38 299 281
-0.024897331 0.70999998 -0.051039528 1.3804066e-38 300 281
-0.023585839 0.708 -0.050895758 1.3804066e-38 301 281
-0.022312919 0.70700002 -0.050823875 1.3804776e-38 302 281
-0.021073313 0.70700002 -0.050823875 1.3804776e-38 303 281
-0.019833706 0.70700002 -0.050823875 1.3896249e-38 304 281
-0.018567799 0.70599997 -0.050751984 1.3804054e-38 305 281
-0.017329946 0.70599997 -0.050751984 1.3896247e-38 306 281
-0.016046507 0.704 -0.050608214 1.3804051e-38 307 281
-0.014812159 0.704 -0.050608214 1.3987363e-38 308 281
-0.013558527 0.70300001 -0.050536323 1.4079918e-38 309 281
-0.012325933 0.70300001 -0.050536323 1.4080631e-38 310 281
-0.011061779 0.70099998 -0.050392549 1.4173185e-38 311 281
-0.0098326923 0.70099998 -0.050392549 1.4080631e-38 312 281
-0.0085913334 0.69999999 -0.050320663 1.38966e-38 313 281
-0.0073429602 0.69800001 -0.050176892 1.3987719e-38 314 281
-0.006119133 0.69800001 -0.050176892 1.3895524e-38 315 281
-0.0048882933 0.69700003 -0.050105009 1.3711491e-38 316 281
-0.00366622 0.69700003 -0.050105009 1.3711491e-38 317 281
-0.0024441467 0.69700003 -0.050105009 1.3711138e-38 318 281
-0.0012220733 0.69700003 -0.050105009 1.389517e-38 319 281
0 0.69800001 -0.050176892 1.3895173e-38 320 281
0.0012220733 0.69700003 -0.050105009 1.4263956e-38 321 281
0.0024441467 0.69700003 -0.050105009 1.3897687e-38 322 281
0.0036609597 0.69599998 -0.050033119 1.408208e-38 323 281
0.0048812795 0.69599998 -0.050033119 1.3806568e-38 324 281
0.0061015999 0.69599998 -0.050033119 1.3806568e-38 325 281
0.0073008798 0.69400001 -0.049889345 1.3622174e-38 326 281
0.0085176928 0.69400001 -0.049889345 1.3622174e-38 327 281
0.0097345067 0.69400001 -0.049889345 1.3530331e-38 328 281
0.01095132 0.69400001 -0.049889345 1.3530331e-38 329 281
0.012168133 0.69400001 -0.049889345 1.3621808e-38 330 281
0.013423519 0.69599998 -0.050033119 1.3529612e-38 331 281
0.014643839 0.69599998 -0.050033119 1.3528896e-38 332 281
0.015886955 0.69700003 -0.050105009 1.3712927e-38 333 281
0.017109027 0.69700003 -0.050105009 1.3253749e-38 334 281
0.0183574 0.69800001 -0.050176892 1.3253749e-38 335 281
0.019581227 0.69800001 -0.050176892 1.3437066e-38 336 281
0.020805053 0.69800001 -0.050176892 1.3529262e-38 337 281
0.02202888 0.69800001 -0.050176892 1.362146e-38 338 281
0.023252707 0.69800001 -0.050176892 1.3897687e-38 339 281
0.024476532 0.69800001 -0.050176892 1.3623979e-38 340 281
0.025773998 0.69999999 -0.050320663 1.3623979e-38 341 281
0.027001332 0.69999999 -0.050320663 1.3623976e-38 342 281
0.028268991 0.70099998 -0.050392549 1.3623976e-38 343 281
0.029582238 0.70300001 -0.050536323 1.3623611e-38 344 281
0.030858666 0.704 -0.050608214 1.3623611e-38 345 281
0.032093015 0.704 -0.050608214 1.3623979e-38 346 281
0.033422034 0.70599997 -0.050751984 1.3623979e-38 347 281
0.034708988 0.70700002 -0.050823875 1.3440679e-38 348 281
0.03599944 0.708 -0.050895758 1.3532875e-38 349 281
0.037398599 0.71100003 -0.051111419 1.335173e-38 350 281
0.038645219 0.71100003 -0.051111419 1.3627957e-38 351 281
0.039891839 0.71100003 -0.051111419 1.3628705e-38 352 281
0.041138459 0.71100003 -0.051111419 1.6947748e-38 353 281
0.042385083 0.71100003 -0.051111419 1.6960027e-38 354 281
-0.031384666 0.71600002 -0.052726239 1.2716493e-38 295 282
-0.03012928 0.71600002 -0.052726239 1.3624382e-38 296 282
-0.028793238 0.71399999 -0.052578956 1.3716938e-38 297 282
-0.027502786 0.713 -0.052505318 1.3990628e-38 298 282
-0.026179021 0.71100003 -0.052358042 1.3530009e-38 299 282
-0.024897331 0.70999998 -0.052284397 1.3621473e-38 300 282
-0.023585839 0.708 -0.052137118 1.3529277e-38 301 282
-0.022312919 0.70700002 -0.05206348 1.380442e-38 302 282
-0.021073313 0.70700002 -0.05206348 1.380442e-38 303 282
-0.019833706 0.70700002 -0.05206348 1.3804057e-38 304 282
-0.018567799 0.70599997 -0.051989835 1.3711502e-38 305 282
-0.017329946 0.70599997 -0.051989835 1.389517e-38 306 282
-0.016046507 0.704 -0.051842559 1.389517e-38 307 282
-0.014812159 0.704 -0.051842559 1.3804051e-38 308 282
-0.013558527 0.70300001 -0.051768921 1.3896247e-38 309 282
-0.012290866 0.70099998 -0.051621638 1.3897321e-38 310 282
-0.011061779 0.70099998 -0.051621638 1.3897321e-38 311 282
-0.0098186666 0.69999999 -0.051547997 1.3896966e-38 312 282
-0.0085913334 0.69999999 -0.051547997 1.3712574e-38 313 282
-0.0073429602 0.69800001 -0.051400717 1.3895524e-38 314 282
-0.006119133 0.69800001 -0.051400717 1.3895524e-38 315 282
-0.0048953067 0.69800001 -0.051400717 1.3619658e-38 316 282
-0.0036714801 0.69800001 -0.051400717 1.3619658e-38 317 282
-0.0024476533 0.69800001 -0.051400717 1.3526756e-38 318 282
-0.0012238267 0.69800001 -0.051400717 1.3618952e-38 319 282
0 0.69800001 -0.051400717 1.3528561e-38 320 282
0.0012220733 0.69700003 -0.051327083 1.3620757e-38 321 282
0.0024441467 0.69700003 -0.051327083 1.3438161e-38 322 282
0.0036609597 0.69599998 -0.051253434 1.3530356e-38 323 282
0.0048812795 0.69599998 -0.051253434 1.3621826e-38 324 282
0.0061015999 0.69599998 -0.051253434 1.3621826e-38 325 282
0.0073008798 0.69400001 -0.051106159 1.3438508e-38 326 282
0.0085176928 0.69400001 -0.051106159 1.3346313e-38 327 282
0.0097345067 0.69400001 -0.051106159 1.3346666e-38 328 282
0.01095132 0.69400001 -0.051106159 1.3346666e-38 329 282
0.012168133 0.69400001 -0.051106159 1.3253754e-38 330 282
0.013423519 0.69599998 -0.051253434 1.3253754e-38 331 282
0.014643839 0.69599998 -0.051253434 1.3344869e-38 332 282
0.015886955 0.69700003 -0.051327083 1.3437066e-38 333 282
0.017109027 0.69700003 -0.051327083 1.3162272e-38 334 282
0.018331099 0.69700003 -0.051327083 1.3254467e-38 335 282
0.019553173 0.69700003 -0.051327083 1.3161919e-38 336 282
0.020805053 0.69800001 -0.051400717 1.3254473e-38 337 282
0.02202888 0.69800001 -0.051400717 1.3346318e-38 338 282
0.023252707 0.69800001 -0.051400717 1.3438514e-38 339 282
0.024476532 0.69800001 -0.051400717 1.3348113e-38 340 282
0.025773998 0.69999999 -0.051547997 1.3348113e-38 341 282
0.027001332 0.69999999 -0.051547997 1.3531426e-38 342 282
0.028268991 0.70099998 -0.051621638 1.343923e-38 343 282
0.029582238 0.70300001 -0.051768921 1.3530707e-38 344 282
0.030858666 0.704 -0.051842559 1.3622902e-38 345 282
0.032093015 0.704 -0.051842559 1.3531428e-38 346 282
0.033422034 0.70599997 -0.051989835 1.3531428e-38 347 282
0.034708988 0.70700002 -0.05206348 1.3257016e-38 348 282
0.03599944 0.708 -0.052137118 1.3625439e-38 349 282
0.037398599 0.71100003 -0.052358042 1.3444297e-38 350 282
0.038645219 0.71100003 -0.052358042 1.3536493e-38 351 282
0.039891839 0.71100003 -0.052358042 1.3627635e-38 352 282
0.041138459 0.71100003 -0.052358042 1.7776079e-38 353 282
0.042385083 0.71100003 -0.052358042 1.7052226e-38 354 282
-0.032640055 0.71600002 -0.053981625 1.6405761e-38 294 283
-0.031384666 0.71600002 -0.053981625 1.3086718e-38 295 283
-0.030045118 0.71399999 -0.053830836 1.3624385e-38 296 283
-0.028793238 0.71399999 -0.053830836 1.3716582e-38 297 283
-0.027502786 0.713 -0.053755447 1.3990628e-38 298 283
-0.026179021 0.71100003 -0.053604662 1.3622206e-38 299 283
-0.024897331 0.70999998 -0.053529263 1.3621473e-38 300 283
-0.023652466 0.70999998 -0.053529263 1.3529277e-38 301 283
-0.022312919 0.70700002 -0.053303085 1.3621107e-38 302 283
-0.021073313 0.70700002 -0.053303085 1.3621107e-38 303 283
-0.019833706 0.70700002 -0.053303085 1.3804773e-38 304 283
-0.018567799 0.70599997 -0.053227689 1.3712577e-38 305 283
-0.017329946 0.70599997 -0.053227689 1.3804051e-38 306 283
-0.016046507 0.704 -0.053076904 1.3711855e-38 307 283
-0.014812159 0.704 -0.053076904 1.3804407e-38 308 283
-0.013558527 0.70300001 -0.053001512 1.3804407e-38 309 283
-0.012290866 0.70099998 -0.052850723 1.3805126e-38 310 283
-0.011061779 0.70099998 -0.052850723 1.3805126e-38 311 283
-0.0098186666 0.69999999 -0.052775331 1.380477e-38 312 283
-0.0085913334 0.69999999 -0.052775331 1.3712574e-38 313 283
-0.0073639993 0.69999999 -0.052775331 1.3804051e-38 314 283
-0.006119133 0.69800001 -0.052624546 1.3711855e-38 315 283
-0.0048953067 0.69800001 -0.052624546 1.3711502e-38 316 283
-0.0036714801 0.69800001 -0.052624546 1.3619305e-38 317 283
-0.0024476533 0.69800001 -0.052624546 1.3435643e-38 318 283
-0.0012238267 0.69800001 -0.052624546 1.352784e-38 319 283
0 0.69800001 -0.052624546 1.3528561e-38 320 283
0.0012220733 0.69700003 -0.052549154 1.3620757e-38 321 283
0.0024441467 0.69700003 -0.052549154 1.3438164e-38 322 283
0.0036609597 0.69599998 -0.052473757 1.3438164e-38 323 283
0.0048812795 0.69599998 -0.052473757 1.3438161e-38 324 283
0.0061015999 0.69599998 -0.052473757 1.3438161e-38 325 283
0.0073008798 0.69400001 -0.052322973 1.3253767e-38 326 283
0.0085176928 0.69400001 -0.052322973 1.3253767e-38 327 283
0.0097345067 0.69400001 -0.052322973 1.3345597e-38 328 283
0.01095132 0.69400001 -0.052322973 1.3345597e-38 329 283
0.012168133 0.69400001 -0.052322973 1.3161201e-38 330 283
0.013423519 0.69599998 -0.052473757 1.3253398e-38 331 283
0.014643839 0.69599998 -0.052473757 1.3253754e-38 332 283
0.015886955 0.69700003 -0.052549154 1.334595e-38 333 283
0.017109027 0.69700003 -0.052549154 1.3071511e-38 334 283
0.018331099 0.69700003 -0.052549154 1.2978957e-38 335 283
0.019553173 0.69700003 -0.052549154 1.2978239e-38 336 283
0.020775247 0.69700003 -0.052549154 1.3162272e-38 337 283
0.02202888 0.69800001 -0.052624546 1.3254117e-38 338 283
0.023252707 0.69800001 -0.052624546 1.3346313e-38 339 283
0.024476532 0.69800001 -0.052624546 1.3163366e-38 340 283
0.025773998 0.69999999 -0.052775331 1.3163366e-38 341 283
0.027001332 0.69999999 -0.052775331 1.3621473e-38 342 283
0.028268991 0.70099998 -0.052850723 1.3621473e-38 343 283
0.029582238 0.70300001 -0.053001512 1.3530356e-38 344 283
0.030858666 0.704 -0.053076904 1.3622552e-38 345 283
0.032093015 0.704 -0.053076904 1.3347763e-38 346 283
0.033422034 0.70599997 -0.053227689 1.343996e-38 347 283
0.034659892 0.70599997 -0.053227689 1.3440692e-38 348 283
0.036101133 0.70999998 -0.053529263 1.3717637e-38 349 283
0.037345998 0.70999998 -0.053529263 1.3444297e-38 350 283
0.038590867 0.70999998 -0.053529263 1.3351743e-38 351 283
0.039891839 0.71100003 -0.053604662 1.3628355e-38 352 283
0.041138459 0.71100003 -0.053604662 1.8053385e-38 353 283
0.042385083 0.71100003 -0.053604662 1.7236617e-38 354 283
-0.032640055 0.71600002 -0.055237014 1.6315008e-38 294 284
-0.031384666 0.71600002 -0.055237014 1.3272911e-38 295 284
-0.030045118 0.71399999 -0.05508272 1.3349596e-38 296 284
-0.028793238 0.71399999 -0.05508272 1.3349596e-38 297 284
-0.027502786 0.713 -0.055005573 1.3991703e-38 298 284
-0.026179021 0.71100003 -0.054851279 1.3622922e-38 299 284
-0.024897331 0.70999998 -0.054774132 1.3621476e-38 300 284
-0.023585839 0.708 -0.054619838 1.3621476e-38 301 284
-0.022312919 0.70700002 -0.054542694 1.3712221e-38 302 284
-0.021073313 0.70700002 -0.054542694 1.3712221e-38 303 284
-0.019833706 0.70700002 -0.054542694 1.3712574e-38 304 284
-0.018567799 0.70599997 -0.054465543 1.3528543e-38 305 284
-0.017329946 0.70599997 -0.054465543 1.3528543e-38 306 284
-0.016046507 0.704 -0.054311249 1.3712574e-38 307 284
-0.014812159 0.704 -0.054311249 1.3711855e-38 308 284
-0.013558527 0.70300001 -0.054234106 1.3711855e-38 309 284
-0.012325933 0.70300001 -0.054234106 1.3529265e-38 310 284
-0.011061779 0.70099998 -0.054079808 1.343671e-38 311 284
-0.0098326923 0.70099998 -0.054079808 1.352819e-38 312 284
-0.0085913334 0.69999999 -0.054002665 1.352819e-38 313 284
-0.0073639993 0.69999999 -0.054002665 1.3435993e-38 314 284
-0.006119133 0.69800001 -0.053848371 1.352819e-38 315 284
-0.0048953067 0.69800001 -0.053848371 1.3435996e-38 316 284
-0.0036714801 0.69800001 -0.053848371 1.3343441e-38 317 284
-0.0024476533 0.69800001 -0.053848371 1.3344166e-38 318 284
-0.0012238267 0.69800001 -0.053848371 1.3436363e-38 319 284
0 0.69700003 -0.053771228 1.3161218e-38 320 284
0.0012220733 0.69700003 -0.053771228 1.3438164e-38 321 284
0.0024441467 0.69700003 -0.053771228 1.3346331e-38 322 284
0.0036609597 0.69599998 -0.053694077 1.3346331e-38 323 284
0.0048812795 0.69599998 -0.053694077 1.3345609e-38 324 284
0.0061015999 0.69599998 -0.053694077 1.3253414e-38 325 284
0.0073008798 0.69400001 -0.053539783 1.3161215e-38 326 284
0.0085176928 0.69400001 -0.053539783 1.325377e-38 327 284
0.0097345067 0.69400001 -0.053539783 1.3070454e-38 328 284
0.01095132 0.69400001 -0.053539783 1.2978259e-38 329 284
0.012168133 0.69400001 -0.053539783 1.2794941e-38 330 284
0.013423519 0.69599998 -0.053694077 1.2794941e-38 331 284
0.014643839 0.69599998 -0.053694077 1.2977886e-38 332 284
0.015886955 0.69700003 -0.053771228 1.2977886e-38 333 284
0.017109027 0.69700003 -0.053771228 1.2978242e-38 334 284
0.018331099 0.69700003 -0.053771228 1.2978242e-38 335 284
0.019553173 0.69700003 -0.053771228 1.288569e-38 336 284
0.020775247 0.69700003 -0.053771228 1.2977886e-38 337 284
0.02202888 0.69800001 -0.053848371 1.3161921e-38 338 284
0.023252707 0.69800001 -0.053848371 1.3161921e-38 339 284
0.024476532 0.69800001 -0.053848371 1.3161568e-38 340 284
0.025773998 0.69999999 -0.054002665 1.3161568e-38 341 284
0.027001332 0.69999999 -0.054002665 1.325377e-38 342 284
0.028268991 0.70099998 -0.054079808 1.325377e-38 343 284
0.029582238 0.70300001 -0.054234106 1.3346684e-38 344 284
0.030858666 0.704 -0.054311249 1.343888e-38 345 284
0.032093015 0.704 -0.054311249 1.3347407e-38 346 284
0.033422034 0.70599997 -0.054465543 1.3623994e-38 347 284
0.034659892 0.70599997 -0.054465543 1.3258098e-38 348 284
0.036101133 0.70999998 -0.054774132 1.3442848e-38 349 284
0.037345998 0.70999998 -0.054774132 1.353649e-38 350 284
0.038590867 0.70999998 -0.054774132 1.3352099e-38 351 284
0.039891839 0.71100003 -0.054851279 1.3444684e-38 352 284
0.041138459 0.71100003 -0.054851279 1.8423246e-38 353 284
-0.032640055 0.71600002 -0.056492399 1.705221e-38 294 285
-0.031384666 0.71600002 -0.056492399 1.410159e-38 295 285
-0.03012928 0.71600002 -0.056492399 1.3534705e-38 296 285
-0.028793238 0.71399999 -0.0563346 1.3350674e-38 297 285
-0.02754136 0.71399999 -0.0563346 1.4084252e-38 298 285
-0.026252659 0.713 -0.056255698 1.3623275e-38 299 285
-0.024897331 0.70999998 -0.056018997 1.3897337e-38 300 285
-0.023585839 0.708 -0.055861197 1.362111e-38 301 285
-0.022312919 0.70700002 -0.055782299 1.3804776e-38 302 285
-0.021073313 0.70700002 -0.055782299 1.3712221e-38 303 285
-0.019833706 0.70700002 -0.055782299 1.3253398e-38 304 285
-0.018567799 0.70599997 -0.055703394 1.3253398e-38 305 285
-0.017329946 0.70599997 -0.055703394 1.3436713e-38 306 285
-0.016046507 0.704 -0.055545598 1.3436713e-38 307 285
-0.014812159 0.704 -0.055545598 1.3528193e-38 308 285
-0.013577812 0.704 -0.055545598 1.3528193e-38 309 285
-0.012325933 0.70300001 -0.0554667 1.3528193e-38 310 285
-0.011061779 0.70099998 -0.055308893 1.3528193e-38 311 285
-0.0098326923 0.70099998 -0.055308893 1.3344163e-38 312 285
-0.0085913334 0.69999999 -0.055229999 1.3344163e-38 313 285
-0.0073639993 0.69999999 -0.055229999 1.3253048e-38 314 285
-0.006119133 0.69800001 -0.0550722 1.3160851e-38 315 285
-0.0048953067 0.69800001 -0.0550722 1.3160495e-38 316 285
-0.0036714801 0.69800001 -0.0550722 1.3160495e-38 317 285
-0.0024476533 0.69800001 -0.0550722 1.3161218e-38 318 285
-0.0012238267 0.69800001 -0.0550722 1.3253414e-38 319 285
0 0.69700003 -0.054993302 1.3070823e-38 320 285
0.0012220733 0.69700003 -0.054993302 1.3163019e-38 321 285
0.0024406398 0.69599998 -0.054914396 1.3255211e-38 322 285
0.0036609597 0.69599998 -0.054914396 1.3163016e-38 323 285
0.0048672534 0.69400001 -0.054756597 1.3070817e-38 324 285
0.0060840664 0.69400001 -0.054756597 1.2978622e-38 325 285
0.0073008798 0.69400001 -0.054756597 1.3070454e-38 326 285
0.0085176928 0.69400001 -0.054756597 1.3070454e-38 327 285
0.0097345067 0.69400001 -0.054756597 1.2978975e-38 328 285
0.01095132 0.69400001 -0.054756597 1.2978975e-38 329 285
0.012168133 0.69400001 -0.054756597 1.2702744e-38 330 285
0.013423519 0.69599998 -0.054914396 1.2702744e-38 331 285
0.014643839 0.69599998 -0.054914396 1.2793861e-38 332 285
0.015886955 0.69700003 -0.054993302 1.2793861e-38 333 285
0.017109027 0.69700003 -0.054993302 1.2701668e-38 334 285
0.018331099 0.69700003 -0.054993302 1.2701668e-38 335 285
0.019553173 0.69700003 -0.054993302 1.2517997e-38 336 285
0.020775247 0.69700003 -0.054993302 1.2610551e-38 337 285
0.02202888 0.69800001 -0.0550722 1.2793507e-38 338 285
0.023252707 0.69800001 -0.0550722 1.2793507e-38 339 285
0.024476532 0.69800001 -0.0550722 1.2884987e-38 340 285
0.025773998 0.69999999 -0.055229999 1.2884987e-38 341 285
0.027001332 0.69999999 -0.055229999 1.2978259e-38 342 285
0.028268991 0.70099998 -0.055308893 1.316265e-38 343 285
0.029582238 0.70300001 -0.0554667 1.3347037e-38 344 285
0.030858666 0.704 -0.055545598 1.3439233e-38 345 285
0.032093015 0.704 -0.055545598 1.3348481e-38 346 285
0.033422034 0.70599997 -0.055703394 1.3440676e-38 347 285
0.034659892 0.70599997 -0.055703394 1.3350294e-38 348 285
0.03599944 0.708 -0.055861197 1.3535045e-38 349 285
0.037345998 0.70999998 -0.056018997 1.3537212e-38 350 285
0.038590867 0.70999998 -0.056018997 1.3352462e-38 351 285
0.039891839 0.71100003 -0.056097899 1.3996058e-38 352 285
-0.032640055 0.71600002 -0.057747785 1.8526264e-38 294 286
-0.031384666 0.71600002 -0.057747785 1.502247e-38 295 286
-0.03012928 0.71600002 -0.057747785 1.3627259e-38 296 286
-0.028793238 0.71399999 -0.057586476 1.3534705e-38 297 286
-0.02754136 0.71399999 -0.057586476 1.3901305e-38 298 286
-0.026252659 0.713 -0.057505824 1.3808751e-38 299 286
-0.025002534 0.713 -0.057505824 1.3805864e-38 300 286
-0.023652466 0.70999998 -0.057263866 1.3713669e-38 301 286
-0.022312919 0.70700002 -0.057021905 1.3621105e-38 302 286
-0.021073313 0.70700002 -0.057021905 1.3528909e-38 303 286
-0.019833706 0.70700002 -0.057021905 1.343671e-38 304 286
-0.018567799 0.70599997 -0.056941248 1.343671e-38 305 286
-0.017329946 0.70599997 -0.056941248 1.3436713e-38 306 286
-0.016092092 0.70599997 -0.056941248 1.3344516e-38 307 286
-0.014812159 0.704 -0.056779943 1.3528193e-38 308 286
-0.013577812 0.704 -0.056779943 1.3435996e-38 309 286
-0.012325933 0.70300001 -0.056699295 1.334416e-38 310 286
-0.011061779 0.70099998 -0.056537982 1.334416e-38 311 286
-0.0098326923 0.70099998 -0.056537982 1.3344166e-38 312 286
-0.0085913334 0.69999999 -0.056457333 1.3344166e-38 313 286
-0.0073639993 0.69999999 -0.056457333 1.2977539e-38 314 286
-0.006119133 0.69800001 -0.056296028 1.2885343e-38 315 286
-0.0048953067 0.69800001 -0.056296028 1.3251965e-38 316 286
-0.0036714801 0.69800001 -0.056296028 1.3251965e-38 317 286
-0.0024476533 0.69800001 -0.056296028 1.2977539e-38 318 286
-0.0012238267 0.69800001 -0.056296028 1.3253767e-38 319 286
0 0.69700003 -0.056215372 1.297755e-38 320 286
0.0012220733 0.69700003 -0.056215372 1.3438527e-38 321 286
0.0024406398 0.69599998 -0.056134716 1.2980069e-38 322 286
0.0036609597 0.69599998 -0.056134716 1.2980069e-38 323 286
0.0048672534 0.69400001 -0.055973411 1.2979706e-38 324 286
0.0060840664 0.69400001 -0.055973411 1.2887152e-38 325 286
0.0073008798 0.69400001 -0.055973411 1.3070454e-38 326 286
0.0085176928 0.69400001 -0.055973411 1.3070454e-38 327 286
0.0097345067 0.69400001 -0.055973411 1.3070805e-38 328 286
0.01095132 0.69400001 -0.055973411 1.2978609e-38 329 286
0.012168133 0.69400001 -0.055973411 1.297646e-38 330 286
0.013423519 0.69599998 -0.056134716 1.297646e-38 331 286
0.014643839 0.69599998 -0.056134716 1.2792789e-38 332 286
0.015864158 0.69599998 -0.056134716 1.2700593e-38 333 286
0.017109027 0.69700003 -0.056215372 1.2608395e-38 334 286
0.018331099 0.69700003 -0.056215372 1.2516199e-38 335 286
0.019553173 0.69700003 -0.056215372 1.2425082e-38 336 286
0.020775247 0.69700003 -0.056215372 1.2517278e-38 337 286
0.02202888 0.69800001 -0.056296028 1.2700946e-38 338 286
0.023252707 0.69800001 -0.056296028 1.2700946e-38 339 286
0.024476532 0.69800001 -0.056296028 1.2793498e-38 340 286
0.025773998 0.69999999 -0.056457333 1.2885693e-38 341 286
0.027001332 0.69999999 -0.056457333 1.2977886e-38 342 286
0.028349647 0.70300001 -0.056699295 1.3254473e-38 343 286
0.029582238 0.70300001 -0.056699295 1.3256634e-38 344 286
0.030858666 0.704 -0.056779943 1.3441385e-38 345 286
0.032093015 0.704 -0.056779943 1.316589e-38 346 286
0.033422034 0.70599997 -0.056941248 1.3442477e-38 347 286
0.034659892 0.70599997 -0.056941248 1.3350294e-38 348 286
0.03599944 0.708 -0.057102561 1.3535045e-38 349 286
0.037345998 0.70999998 -0.057263866 1.3444647e-38 350 286
0.038590867 0.70999998 -0.057263866 1.3444647e-38 351 286
-0.031384666 0.71600002 -0.059003171 1.5761474e-38 295 287
-0.03012928 0.71600002 -0.059003171 1.3721251e-38 296 287
-0.028793238 0.71399999 -0.058838356 1.3352467e-38 297 287
-0.02754136 0.71399999 -0.058838356 1.4178244e-38 298 287
-0.026252659 0.713 -0.058755953 1.3901656e-38 299 287
-0.025002534 0.713 -0.058755953 1.4174634e-38 300 287
-0.023685781 0.71100003 -0.058591139 1.3897687e-38 301 287
-0.022312919 0.70700002 -0.05826151 1.3529978e-38 302 287
-0.021073313 0.70700002 -0.05826151 1.3345947e-38 303 287
-0.019833706 0.70700002 -0.05826151 1.3161921e-38 304 287
-0.018567799 0.70599997 -0.058179103 1.3161921e-38 305 287
-0.017329946 0.70599997 -0.058179103 1.3161568e-38 306 287
-0.016092092 0.70599997 -0.058179103 1.3161568e-38 307 287
-0.014812159 0.704 -0.058014292 1.3160851e-38 308 287
-0.013577812 0.704 -0.058014292 1.3160851e-38 309 287
-0.012325933 0.70300001 -0.057931885 1.3160851e-38 310 287
-0.011061779 0.70099998 -0.057767071 1.3068655e-38 311 287
-0.0098326923 0.70099998 -0.057767071 1.3160495e-38 312 287
-0.0085913334 0.69999999 -0.05768466 1.3160495e-38 313 287
-0.0073639993 0.69999999 -0.05768466 1.2884987e-38 314 287
-0.006119133 0.69800001 -0.057519849 1.2884987e-38 315 287
-0.0048953067 0.69800001 -0.057519849 1.2885343e-38 316 287
-0.0036714801 0.69800001 -0.057519849 1.2885343e-38 317 287
-0.0024476533 0.69800001 -0.057519849 1.2885709e-38 318 287
-0.0012238267 0.69800001 -0.057519849 1.2977906e-38 319 287
0 0.69800001 -0.057519849 1.2795325e-38 320 287
0.0012220733 0.69700003 -0.05743745 1.2887521e-38 321 287
0.0024441467 0.69700003 -0.05743745 1.279748e-38 322 287
0.0036609597 0.69599998 -0.057355035 1.2704924e-38 323 287
0.0048812795 0.69599998 -0.057355035 1.2704559e-38 324 287
0.0061015999 0.69599998 -0.057355035 1.2612363e-38 325 287
0.0073008798 0.69400001 -0.057190225 1.2796026e-38 326 287
0.0085176928 0.69400001 -0.057190225 1.2611994e-38 327 287
0.0097345067 0.69400001 -0.057190225 1.2885703e-38 328 287
0.01095132 0.69400001 -0.057190225 1.2793507e-38 329 287
0.012168133 0.69400001 -0.057190225 1.2700962e-38 330 287
0.013423519 0.69599998 -0.057355035 1.2700962e-38 331 287
0.014643839 0.69599998 -0.057355035 1.2516928e-38 332 287
0.015864158 0.69599998 -0.057355035 1.2424732e-38 333 287
0.017084479 0.69599998 -0.057355035 1.2425085e-38 334 287
0.018331099 0.69700003 -0.05743745 1.2332889e-38 335 287
0.019553173 0.69700003 -0.05743745 1.2332889e-38 336 287
0.020775247 0.69700003 -0.05743745 1.2425085e-38 337 287
0.02202888 0.69800001 -0.057519849 1.2426157e-38 338 287
0.023252707 0.69800001 -0.057519849 1.2518353e-38 339 287
0.024546666 0.69999999 -0.05768466 1.2610548e-38 340 287
0.025773998 0.69999999 -0.05768466 1.2610548e-38 341 287
0.027039904 0.70099998 -0.057767071 1.2978609e-38 342 287
0.028349647 0.70300001 -0.057931885 1.3439227e-38 343 287
0.029624319 0.704 -0.058014292 1.3165519e-38 344 287
0.030858666 0.704 -0.058014292 1.3257714e-38 345 287
0.032184184 0.70599997 -0.058179103 1.3350281e-38 346 287
0.033516716 0.708 -0.058343921 1.3442477e-38 347 287
0.034758076 0.708 -0.058343921 1.3351377e-38 348 287
0.036101133 0.70999998 -0.058508728 1.3627604e-38 349 287
0.037345998 0.70999998 -0.058508728 1.3720155e-38 350 287
-0.031384666 0.71600002 -0.06025856 1.6684517e-38 295 288
-0.030045118 0.71399999 -0.060090236 1.4368784e-38 296 288
-0.028793238 0.71399999 -0.060090236 1.3170601e-38 297 288
-0.02754136 0.71399999 -0.060090236 1.4270811e-38 298 288
-0.026252659 0.713 -0.060006075 1.4178615e-38 299 288
-0.025002534 0.713 -0.060006075 1.408353e-38 300 288
-0.023685781 0.71100003 -0.059837762 1.3899139e-38 301 288
-0.022344479 0.708 -0.059585281 1.3438511e-38 302 288
-0.021103119 0.708 -0.059585281 1.3346315e-38 303 288
-0.019833706 0.70700002 -0.059501119 1.3161568e-38 304 288
-0.018567799 0.70599997 -0.059416957 1.3161568e-38 305 288
-0.017329946 0.70599997 -0.059416957 1.3160851e-38 306 288
-0.016092092 0.70599997 -0.059416957 1.3068655e-38 307 288
-0.014812159 0.704 -0.059248637 1.306865e-38 308 288
-0.013577812 0.704 -0.059248637 1.306865e-38 309 288
-0.012325933 0.70300001 -0.059164476 1.3252318e-38 310 288
-0.011061779 0.70099998 -0.058996156 1.3068287e-38 311 288
-0.0098326923 0.70099998 -0.058996156 1.306865e-38 312 288
-0.0085913334 0.69999999 -0.058911994 1.306865e-38 313 288
-0.0073639993 0.69999999 -0.058911994 1.297646e-38 314 288
-0.0061366665 0.69999999 -0.058911994 1.297646e-38 315 288
-0.0048953067 0.69800001 -0.058743682 1.2700593e-38 316 288
-0.0036714801 0.69800001 -0.058743682 1.2792789e-38 317 288
-0.0024476533 0.69800001 -0.058743682 1.2700959e-38 318 288
-0.0012238267 0.69800001 -0.058743682 1.2885709e-38 319 288
0 0.69800001 -0.058743682 1.2611647e-38 320 288
0.0012220733 0.69700003 -0.05865952 1.2887874e-38 321 288
0.0024441467 0.69700003 -0.05865952 1.2704561e-38 322 288
0.0036609597 0.69599998 -0.058575355 1.2704561e-38 323 288
0.0048812795 0.69599998 -0.058575355 1.2612363e-38 324 288
0.0061015999 0.69599998 -0.058575355 1.2520167e-38 325 288
0.0073219193 0.69599998 -0.058575355 1.2702758e-38 326 288
0.0085422397 0.69599998 -0.058575355 1.2702758e-38 327 288
0.0097345067 0.69400001 -0.058407038 1.2610198e-38 328 288
0.01095132 0.69400001 -0.058407038 1.2518002e-38 329 288
0.0122032 0.69599998 -0.058575355 1.2517281e-38 330 288
0.013423519 0.69599998 -0.058575355 1.2517281e-38 331 288
0.014643839 0.69599998 -0.058575355 1.2517281e-38 332 288
0.015864158 0.69599998 -0.058575355 1.2425085e-38 333 288
0.017084479 0.69599998 -0.058575355 1.2425082e-38 334 288
0.018331099 0.69700003 -0.05865952 1.2425082e-38 335 288
0.019553173 0.69700003 -0.05865952 1.2425438e-38 336 288
0.020775247 0.69700003 -0.05865952 1.2332884e-38 337 288
0.02202888 0.69800001 -0.058743682 1.2425435e-38 338 288
0.023252707 0.69800001 -0.058743682 1.2517631e-38 339 288
0.024546666 0.69999999 -0.058911994 1.2793858e-38 340 288
0.025773998 0.69999999 -0.058911994 1.2886412e-38 341 288
0.027039904 0.70099998 -0.058996156 1.3071524e-38 342 288
0.028389972 0.704 -0.059248637 1.3348111e-38 343 288
0.029624319 0.704 -0.059248637 1.3165165e-38 344 288
0.030946331 0.70599997 -0.059416957 1.3441751e-38 345 288
0.032184184 0.70599997 -0.059416957 1.3350647e-38 346 288
0.033516716 0.708 -0.059585281 1.3442843e-38 347 288
0.034758076 0.708 -0.059585281 1.3535764e-38 348 288
0.036101133 0.70999998 -0.059753593 1.3535764e-38 349 288
0.037398599 0.71100003 -0.059837762 1.362689e-38 350 288
-0.031296998 0.71399999 -0.061342116 1.7792309e-38 295 289
-0.030045118 0.71399999 -0.061342116 1.602975e-38 296 289
-0.028793238 0.71399999 -0.061342116 1.3540828e-38 297 289
-0.02754136 0.71399999 -0.061342116 1.4363724e-38 298 289
-0.026289478 0.71399999 -0.061342116 1.39953e-38 299 289
-0.025002534 0.713 -0.061256204 1.4176445e-38 300 289
-0.023685781 0.71100003 -0.061084379 1.3715468e-38 301 289
-0.022344479 0.708 -0.060826641 1.3163369e-38 302 289
-0.021103119 0.708 -0.060826641 1.3071173e-38 303 289
-0.019833706 0.70700002 -0.060740728 1.297755e-38 304 289
-0.018594101 0.70700002 -0.060740728 1.2885353e-38 305 289
-0.017329946 0.70599997 -0.060654808 1.2977903e-38 306 289
-0.016092092 0.70599997 -0.060654808 1.2885706e-38 307 289
-0.014812159 0.704 -0.060482983 1.2793861e-38 308 289
-0.013577812 0.704 -0.060482983 1.2793861e-38 309 289
-0.012325933 0.70300001 -0.06039707 1.2885337e-38 310 289
-0.01109334 0.70300001 -0.06039707 1.2793142e-38 311 289
-0.0098326923 0.70099998 -0.060225245 1.2793145e-38 312 289
-0.0086036054 0.70099998 -0.060225245 1.2793145e-38 313 289
-0.0073639993 0.69999999 -0.060139328 1.2792791e-38 314 289
-0.0061366665 0.69999999 -0.060139328 1.2700596e-38 315 289
-0.0049093333 0.69999999 -0.060139328 1.2517284e-38 316 289
-0.0036714801 0.69800001 -0.059967503 1.2701315e-38 317 289
-0.0024476533 0.69800001 -0.059967503 1.2518002e-38 318 289
-0.0012238267 0.69800001 -0.059967503 1.2702394e-38 319 289
0 0.69800001 -0.059967503 1.2336852e-38 320 289
0.0012220733 0.69700003 -0.05988159 1.2429048e-38 321 289
0.0024441467 0.69700003 -0.05988159 1.2429048e-38 322 289
0.00366622 0.69700003 -0.05988159 1.2429048e-38 323 289
0.0048812795 0.69599998 -0.059795678 1.2520165e-38 324 289
0.0061015999 0.69599998 -0.059795678 1.2427969e-38 325 289
0.0073219193 0.69599998 -0.059795678 1.2519446e-38 326 289
0.0085422397 0.69599998 -0.059795678 1.2427249e-38 327 289
0.0097625591 0.69599998 -0.059795678 1.2518718e-38 328 289
0.010982879 0.69599998 -0.059795678 1.2334687e-38 329 289
0.0122032 0.69599998 -0.059795678 1.2517997e-38 330 289
0.013423519 0.69599998 -0.059795678 1.2517997e-38 331 289
0.014643839 0.69599998 -0.059795678 1.2517278e-38 332 289
0.015864158 0.69599998 -0.059795678 1.2517278e-38 333 289
0.017109027 0.69700003 -0.05988159 1.2333603e-38 334 289
0.018331099 0.69700003 -0.05988159 1.2333603e-38 335 289
0.019553173 0.69700003 -0.05988159 1.233324e-38 336 289
0.020775247 0.69700003 -0.05988159 1.2425435e-38 337 289
0.02202888 0.69800001 -0.059967503 1.2426154e-38 338 289
0.023252707 0.69800001 -0.059967503 1.251835e-38 339 289
0.024546666 0.69999999 -0.060139328 1.2702744e-38 340 289
0.025773998 0.69999999 -0.060139328 1.2978972e-38 341 289
0.027039904 0.70099998 -0.060225245 1.2980057e-38 342 289
0.028389972 0.704 -0.060482983 1.3348481e-38 343 289
0.029708479 0.70599997 -0.060654808 1.3441398e-38 344 289
0.030946331 0.70599997 -0.060654808 1.3625789e-38 345 289
0.032229774 0.70700002 -0.060740728 1.3534678e-38 346 289
0.033516716 0.708 -0.060826641 1.3810906e-38 347 289
0.034758076 0.708 -0.060826641 1.362796e-38 348 289
0.036101133 0.70999998 -0.060998458 1.362796e-38 349 289
-0.030045118 0.71399999 -0.062593997 1.7507401e-38 296 290
-0.028793238 0.71399999 -0.062593997 1.4003967e-38 297 290
-0.02754136 0.71399999 -0.062593997 1.4086414e-38 298 290
-0.026289478 0.71399999 -0.062593997 1.4271164e-38 299 290
-0.025002534 0.713 -0.062506333 1.4268645e-38 300 290
-0.023752406 0.713 -0.062506333 1.3807666e-38 301 290
-0.022344479 0.708 -0.062068 1.2980069e-38 302 290
-0.021103119 0.708 -0.062068 1.2795678e-38 303 290
-0.019833706 0.70700002 -0.061980337 1.288536e-38 304 290
-0.018594101 0.70700002 -0.061980337 1.3069751e-38 305 290
-0.017329946 0.70599997 -0.061892662 1.2795312e-38 306 290
-0.016092092 0.70599997 -0.061892662 1.2610561e-38 307 290
-0.014812159 0.704 -0.061717331 1.2793507e-38 308 290
-0.013577812 0.704 -0.061717331 1.2701312e-38 309 290
-0.012343466 0.704 -0.061717331 1.2793145e-38 310 290
-0.01109334 0.70300001 -0.061629668 1.2793145e-38 311 290
-0.0098607466 0.70300001 -0.061629668 1.2700949e-38 312 290
-0.0086036054 0.70099998 -0.06145433 1.2700949e-38 313 290
-0.0073745195 0.70099998 -0.06145433 1.2517281e-38 314 290
-0.0061366665 0.69999999 -0.061366666 1.2517281e-38 315 290
-0.0049093333 0.69999999 -0.061366666 1.2242492e-38 316 290
-0.0036819996 0.69999999 -0.061366666 1.2242492e-38 317 290
-0.0024476533 0.69800001 -0.061191335 1.2518e-38 318 290
-0.0012238267 0.69800001 -0.061191335 1.2610195e-38 319 290
0 0.69800001 -0.061191335 1.2336125e-38 320 290
0.0012220733 0.69700003 -0.061103668 1.2520518e-38 321 290
0.0024441467 0.69700003 -0.061103668 1.2428319e-38 322 290
0.00366622 0.69700003 -0.061103668 1.2520515e-38 323 290
0.0048882933 0.69700003 -0.061103668 1.2428322e-38 324 290
0.0061015999 0.69599998 -0.061015997 1.2336125e-38 325 290
0.0073219193 0.69599998 -0.061015997 1.2427605e-38 326 290
0.0085422397 0.69599998 -0.061015997 1.233505e-38 327 290
0.0097625591 0.69599998 -0.061015997 1.2335759e-38 328 290
0.010982879 0.69599998 -0.061015997 1.2243205e-38 329 290
0.0122032 0.69599998 -0.061015997 1.2242486e-38 330 290
0.013423519 0.69599998 -0.061015997 1.2242486e-38 331 290
0.014643839 0.69599998 -0.061015997 1.2517634e-38 332 290
0.015864158 0.69599998 -0.061015997 1.2517634e-38 333 290
0.017109027 0.69700003 -0.061103668 1.2517631e-38 334 290
0.018331099 0.69700003 -0.061103668 1.2425435e-38 335 290
0.019553173 0.69700003 -0.061103668 1.2425435e-38 336 290
0.020805053 0.69800001 -0.061191335 1.2701662e-38 337 290
0.02202888 0.69800001 -0.061191335 1.2519072e-38 338 290
0.023319334 0.69999999 -0.061366666 1.2611267e-38 339 290
0.024546666 0.69999999 -0.061366666 1.2703111e-38 340 290
0.025810819 0.70099998 -0.06145433 1.2980057e-38 341 290
0.027117053 0.70300001 -0.061629668 1.3072974e-38 342 290
0.028470624 0.70599997 -0.061892662 1.3257367e-38 343 290
0.029708479 0.70599997 -0.061892662 1.3349928e-38 344 290
0.030990168 0.70700002 -0.061980337 1.3534678e-38 345 290
0.032229774 0.70700002 -0.061980337 1.3626885e-38 346 290
0.033516716 0.708 -0.062068 1.3719439e-38 347 290
0.034856264 0.70999998 -0.062243331 1.3811998e-38 348 290
