# .PCD v.7 - Point Cloud Data file format
FIELDS x y z rgb imX imY
SIZE 4 4 4 4 4 4
TYPE F F F F F F
COUNT 1 1 1 1 1 1
WIDTH 829
HEIGHT 1
VIEWPOINT 0 0 0 1 0 0 0
POINTS 829
DATA ascii
-0.010982879 0.69599998 -0.051253434 1.5371022e-38 311 282
-0.0097345067 0.69400001 -0.051106159 1.5372104e-38 312 282
-0.0085054198 0.69300002 -0.051032521 1.5648332e-38 313 282
-0.0072693196 0.69099998 -0.050885238 1.5281708e-38 314 282
-0.0060489997 0.69 -0.050811596 1.4820369e-38 315 282
-0.0048251734 0.68800002 -0.050664321 1.4356174e-38 316 282
-0.0036188802 0.68800002 -0.050664321 1.361825e-38 317 282
-0.0024125867 0.68800002 -0.050664321 1.3252363e-38 318 282
-0.0012062934 0.68800002 -0.050664321 1.3344558e-38 319 282
0 0.68800002 -0.050664321 1.3527871e-38 320 282
0.0012045399 0.68699998 -0.050590675 1.3343839e-38 321 282
0.0024090798 0.68699998 -0.050590675 1.3710095e-38 322 282
0.0036136196 0.68699998 -0.050590675 1.3710095e-38 323 282
0.0048111463 0.68599999 -0.050517038 1.3435657e-38 324 282
0.0059964 0.68400002 -0.050369758 1.3343461e-38 325 282
0.0071956799 0.68400002 -0.050369758 1.3160146e-38 326 282
0.0083826864 0.68300003 -0.05029612 1.3067949e-38 327 282
0.0095802136 0.68300003 -0.05029612 1.3250542e-38 328 282
0.01077774 0.68300003 -0.05029612 1.3066151e-38 329 282
0.011975267 0.68300003 -0.05029612 1.3065801e-38 330 282
0.013172794 0.68300003 -0.05029612 1.288177e-38 331 282
0.014370319 0.68300003 -0.05029612 1.260699e-38 332 282
0.015567848 0.68300003 -0.05029612 1.260699e-38 333 282
0.016789921 0.68400002 -0.050369758 1.2331848e-38 334 282
0.0179892 0.68400002 -0.050369758 1.2147817e-38 335 282
0.019160427 0.68300003 -0.05029612 1.2055619e-38 336 282
0.020357953 0.68300003 -0.05029612 1.1871226e-38 337 282
0.02158704 0.68400002 -0.050369758 1.187087e-38 338 282
0.022786319 0.68400002 -0.050369758 1.1686479e-38 339 282
0.0239856 0.68400002 -0.050369758 1.1777958e-38 340 282
0.025184879 0.68400002 -0.050369758 1.1593208e-38 341 282
0.02638416 0.68400002 -0.050369758 1.1868709e-38 342 282
0.027583439 0.68400002 -0.050369758 1.1776154e-38 343 282
0.02878272 0.68400002 -0.050369758 1.1683592e-38 344 282
0.030069664 0.68599999 -0.050517038 1.1683592e-38 345 282
0.031272452 0.68599999 -0.050517038 1.1408453e-38 346 282
0.032522578 0.68699998 -0.050590675 1.1592846e-38 347 282
0.033727121 0.68699998 -0.050590675 1.1685054e-38 348 282
0.034931656 0.68699998 -0.050590675 1.2146032e-38 349 282
0.0361888 0.68800002 -0.050664321 1.2882148e-38 350 282
0.037395094 0.68800002 -0.050664321 1.2974344e-38 351 282
0.038713597 0.69 -0.050811596 1.3252357e-38 352 282
0.0399234 0.69 -0.050811596 1.3252357e-38 353 282
0.041133199 0.69 -0.050811596 1.343746e-38 354 282
0.042527102 0.69300002 -0.051032521 1.3529656e-38 355 282
0.043742158 0.69300002 -0.051032521 1.35293e-38 356 282
0.045022093 0.69400001 -0.051106159 1.3805887e-38 357 282
0.046372157 0.69599998 -0.051253434 1.362259e-38 358 282
0.047592476 0.69599998 -0.051253434 1.3899177e-38 359 282
0.048882935 0.69700003 -0.051327083 1.3079165e-38 360 282
0.050176892 0.69800001 -0.051400717 1.65826e-38 361 282
0.051400717 0.69800001 -0.051400717 1.8806839e-38 362 282
-0.024686933 0.704 -0.053076904 1.9919664e-38 300 283
-0.023452586 0.704 -0.053076904 1.9458686e-38 301 283
-0.022218239 0.704 -0.053076904 1.6120529e-38 302 283
-0.020983893 0.704 -0.053076904 1.1786976e-38 303 283
-0.019749546 0.704 -0.053076904 1.4268291e-38 304 283
-0.018436298 0.70099998 -0.052850723 1.4268291e-38 305 283
-0.017207211 0.70099998 -0.052850723 1.4358319e-38 306 283
-0.015955333 0.69999999 -0.052775331 1.4358319e-38 307 283
-0.01468592 0.69800001 -0.052624546 1.4910047e-38 308 283
-0.013442807 0.69700003 -0.052549154 1.5002244e-38 309 283
-0.0122032 0.69599998 -0.052473757 1.5094793e-38 310 283
-0.01095132 0.69400001 -0.052322973 1.5094793e-38 311 283
-0.0097204801 0.69300002 -0.05224758 1.5095158e-38 312 283
-0.0085054198 0.69300002 -0.05224758 1.527955e-38 313 283
-0.0072587994 0.69 -0.052021399 1.509624e-38 314 283
-0.0060489997 0.69 -0.052021399 1.4727099e-38 315 283
-0.0048251734 0.68800002 -0.051870614 1.4263971e-38 316 283
-0.0036188802 0.68800002 -0.051870614 1.3803353e-38 317 283
-0.0024125867 0.68800002 -0.051870614 1.3344187e-38 318 283
-0.0012062934 0.68800002 -0.051870614 1.3344187e-38 319 283
0 0.68800002 -0.051870614 1.3527855e-38 320 283
0.0012045399 0.68699998 -0.051795214 1.3435659e-38 321 283
0.0024090798 0.68699998 -0.051795214 1.3618606e-38 322 283
0.00360836 0.68599999 -0.051719822 1.3526409e-38 323 283
0.0047971201 0.68400002 -0.051569041 1.3343094e-38 324 283
0.0059964 0.68400002 -0.051569041 1.3250898e-38 325 283
0.0071956799 0.68400002 -0.051569041 1.3066154e-38 326 283
0.0083826864 0.68300003 -0.051493648 1.2881764e-38 327 283
0.0095802136 0.68300003 -0.051493648 1.2789574e-38 328 283
0.01077774 0.68300003 -0.051493648 1.2697018e-38 329 283
0.011975267 0.68300003 -0.051493648 1.2697024e-38 330 283
0.013172794 0.68300003 -0.051493648 1.2789221e-38 331 283
0.014370319 0.68300003 -0.051493648 1.2422599e-38 332 283
0.015567848 0.68300003 -0.051493648 1.2514795e-38 333 283
0.016765373 0.68300003 -0.051493648 1.1964142e-38 334 283
0.017962901 0.68300003 -0.051493648 1.1871945e-38 335 283
0.019160427 0.68300003 -0.051493648 1.1871942e-38 336 283
0.020357953 0.68300003 -0.051493648 1.1595715e-38 337 283
0.02155548 0.68300003 -0.051493648 1.168576e-38 338 283
0.022786319 0.68400002 -0.051569041 1.1501369e-38 339 283
0.0239856 0.68400002 -0.051569041 1.1500293e-38 340 283
0.025184879 0.68400002 -0.051569041 1.1315901e-38 341 283
0.02638416 0.68400002 -0.051569041 1.1407734e-38 342 283
0.027583439 0.68400002 -0.051569041 1.131518e-38 343 283
0.02878272 0.68400002 -0.051569041 1.1223337e-38 344 283
0.030069664 0.68599999 -0.051719822 1.1223337e-38 345 283
0.031272452 0.68599999 -0.051719822 1.1131507e-38 346 283
0.032522578 0.68699998 -0.051795214 1.1223703e-38 347 283
0.033727121 0.68699998 -0.051795214 1.1590696e-38 348 283
0.034931656 0.68699998 -0.051795214 1.2051315e-38 349 283
0.036136195 0.68699998 -0.051795214 1.1778321e-38 350 283
0.037395094 0.68800002 -0.051870614 1.2055268e-38 351 283
0.038601387 0.68800002 -0.051870614 1.2516595e-38 352 283
0.0399234 0.69 -0.052021399 1.2793184e-38 353 283
0.041133199 0.69 -0.052021399 1.307012e-38 354 283
0.042404365 0.69099998 -0.052096792 1.3162315e-38 355 283
0.043742158 0.69300002 -0.05224758 1.3254511e-38 356 283
0.045022093 0.69400001 -0.052322973 1.3346708e-38 357 283
0.046372157 0.69599998 -0.052473757 1.3438553e-38 358 283
0.047592476 0.69599998 -0.052473757 1.371478e-38 359 283
0.048882935 0.69700003 -0.052549154 1.2800777e-38 360 283
0.050176892 0.69800001 -0.052624546 1.6396407e-38 361 283
0.051400717 0.69800001 -0.052624546 1.871357e-38 362 283
-0.023452586 0.704 -0.054311249 1.8343709e-38 301 284
-0.022218239 0.704 -0.054311249 1.4923069e-38 302 284
-0.020983893 0.704 -0.054311249 1.13278e-38 303 284
-0.019749546 0.704 -0.054311249 1.4084626e-38 304 284
-0.018488899 0.70300001 -0.054234106 1.3900233e-38 305 284
-0.017207211 0.70099998 -0.054079808 1.3898786e-38 306 284
-0.015909746 0.69800001 -0.053848371 1.380659e-38 307 284
-0.01466488 0.69700003 -0.053771228 1.4449073e-38 308 284
-0.013423519 0.69599998 -0.053694077 1.4817495e-38 309 284
-0.012168133 0.69400001 -0.053539783 1.4817848e-38 310 284
-0.01095132 0.69400001 -0.053539783 1.4817848e-38 311 284
-0.0097204801 0.69300002 -0.053462639 1.4726735e-38 312 284
-0.008480873 0.69099998 -0.053308345 1.4726735e-38 313 284
-0.0072587994 0.69 -0.053231198 1.4726379e-38 314 284
-0.0060314666 0.68800002 -0.053076908 1.4449792e-38 315 284
-0.0048251734 0.68800002 -0.053076908 1.3988461e-38 316 284
-0.0036188802 0.68800002 -0.053076908 1.3711874e-38 317 284
-0.0024125867 0.68800002 -0.053076908 1.3252342e-38 318 284
-0.0012045399 0.68699998 -0.052999757 1.3344896e-38 319 284
0 0.68699998 -0.052999757 1.3435657e-38 320 284
0.0012045399 0.68699998 -0.052999757 1.3343461e-38 321 284
0.0024055731 0.68599999 -0.05292261 1.3343094e-38 322 284
0.00360836 0.68599999 -0.05292261 1.3250898e-38 323 284
0.0047971201 0.68400002 -0.05276832 1.3157984e-38 324 284
0.0059964 0.68400002 -0.05276832 1.3065429e-38 325 284
0.0071851597 0.68300003 -0.052691177 1.2880689e-38 326 284
0.0083826864 0.68300003 -0.052691177 1.2604104e-38 327 284
0.0095802136 0.68300003 -0.052691177 1.2235694e-38 328 284
0.010761959 0.68199998 -0.052614026 1.2419725e-38 329 284
0.011957732 0.68199998 -0.052614026 1.2236413e-38 330 284
0.013153506 0.68199998 -0.052614026 1.2420804e-38 331 284
0.014370319 0.68300003 -0.052691177 1.1963422e-38 332 284
0.015567848 0.68300003 -0.052691177 1.1963422e-38 333 284
0.016765373 0.68300003 -0.052691177 1.1596078e-38 334 284
0.017962901 0.68300003 -0.052691177 1.1503883e-38 335 284
0.019160427 0.68300003 -0.052691177 1.1595359e-38 336 284
0.020357953 0.68300003 -0.052691177 1.1318773e-38 337 284
0.02155548 0.68300003 -0.052691177 1.1592492e-38 338 284
0.022753006 0.68300003 -0.052691177 1.1315904e-38 339 284
0.023950534 0.68300003 -0.052691177 1.1132233e-38 340 284
0.02514806 0.68300003 -0.052691177 1.1040037e-38 341 284
0.026345588 0.68300003 -0.052691177 1.1131507e-38 342 284
0.027543113 0.68300003 -0.052691177 1.0947476e-38 343 284
0.02878272 0.68400002 -0.05276832 1.0763797e-38 344 284
0.029982001 0.68400002 -0.05276832 1.0763797e-38 345 284
0.03118128 0.68400002 -0.05276832 1.0580131e-38 346 284
0.032475237 0.68599999 -0.05292261 1.0764883e-38 347 284
0.033727121 0.68699998 -0.052999757 1.076453e-38 348 284
0.034931656 0.68699998 -0.052999757 1.1132952e-38 349 284
0.036136195 0.68699998 -0.052999757 1.1408819e-38 350 284
0.037395094 0.68800002 -0.053076908 1.1777603e-38 351 284
0.038601387 0.68800002 -0.053076908 1.1873025e-38 352 284
0.039807681 0.68800002 -0.053076908 1.2241448e-38 353 284
0.041133199 0.69 -0.053231198 1.2609864e-38 354 284
0.042404365 0.69099998 -0.053308345 1.270206e-38 355 284
0.043742158 0.69300002 -0.053462639 1.3069048e-38 356 284
0.045022093 0.69400001 -0.053539783 1.3345274e-38 357 284
0.046238903 0.69400001 -0.053539783 1.334636e-38 358 284
0.047592476 0.69599998 -0.053694077 1.3714783e-38 359 284
0.048882935 0.69700003 -0.053771228 1.2523472e-38 360 284
0.050105009 0.69700003 -0.053771228 1.5750319e-38 361 284
0.051327083 0.69700003 -0.053771228 1.8803965e-38 362 284
-0.023452586 0.704 -0.055545598 1.7512145e-38 301 285
-0.022218239 0.704 -0.055545598 1.4560038e-38 302 285
-0.020983893 0.704 -0.055545598 1.0595625e-38 303 285
-0.019721493 0.70300001 -0.0554667 1.3807313e-38 304 285
-0.018436298 0.70099998 -0.055308893 1.3807313e-38 305 285
-0.017207211 0.70099998 -0.055308893 1.3255217e-38 306 285
-0.015909746 0.69800001 -0.0550722 1.3255217e-38 307 285
-0.01466488 0.69700003 -0.054993302 1.3712968e-38 308 285
-0.013423519 0.69599998 -0.054914396 1.3897361e-38 309 285
-0.012168133 0.69400001 -0.054756597 1.3897714e-38 310 285
-0.010935539 0.69300002 -0.054677699 1.3989909e-38 311 285
-0.0096924258 0.69099998 -0.054519895 1.3807313e-38 312 285
-0.008480873 0.69099998 -0.054519895 1.3715118e-38 313 285
-0.0072377604 0.68800002 -0.054283202 1.3990265e-38 314 285
-0.0060314666 0.68800002 -0.054283202 1.3805514e-38 315 285
-0.0048251734 0.68800002 -0.054283202 1.3804069e-38 316 285
-0.0036188802 0.68800002 -0.054283202 1.3711874e-38 317 285
-0.0024090798 0.68699998 -0.054204296 1.3252698e-38 318 285
-0.0012045399 0.68699998 -0.054204296 1.3344893e-38 319 285
0 0.68699998 -0.054204296 1.343601e-38 320 285
0.0012027866 0.68599999 -0.054125395 1.3343813e-38 321 285
0.0023985601 0.68400002 -0.053967599 1.3250895e-38 322 285
0.00359784 0.68400002 -0.053967599 1.3066504e-38 323 285
0.0047901068 0.68300003 -0.053888701 1.2973237e-38 324 285
0.0059876335 0.68300003 -0.053888701 1.288104e-38 325 285
0.0071851597 0.68300003 -0.053888701 1.2694867e-38 326 285
0.0083826864 0.68300003 -0.053888701 1.2510476e-38 327 285
0.0095802136 0.68300003 -0.053888701 1.1776524e-38 328 285
0.010761959 0.68199998 -0.053809796 1.1592492e-38 329 285
0.011957732 0.68199998 -0.053809796 1.1502097e-38 330 285
0.013153506 0.68199998 -0.053809796 1.1686129e-38 331 285
0.01434928 0.68199998 -0.053809796 1.1319864e-38 332 285
0.015567848 0.68300003 -0.053888701 1.1319864e-38 333 285
0.016765373 0.68300003 -0.053888701 1.113547e-38 334 285
0.017962901 0.68300003 -0.053888701 1.113547e-38 335 285
0.019160427 0.68300003 -0.053888701 1.1134754e-38 336 285
0.020357953 0.68300003 -0.053888701 1.0858166e-38 337 285
0.02155548 0.68300003 -0.053888701 1.1132236e-38 338 285
0.022753006 0.68300003 -0.053888701 1.1132236e-38 339 285
0.023950534 0.68300003 -0.053888701 1.1041109e-38 340 285
0.02514806 0.68300003 -0.053888701 1.0948914e-38 341 285
0.026345588 0.68300003 -0.053888701 1.1131858e-38 342 285
0.027543113 0.68300003 -0.053888701 1.0947825e-38 343 285
0.02878272 0.68400002 -0.053967599 1.0580838e-38 344 285
0.029982001 0.68400002 -0.053967599 1.0580838e-38 345 285
0.03118128 0.68400002 -0.053967599 1.0581201e-38 346 285
0.032475237 0.68599999 -0.054125395 1.0673756e-38 347 285
0.033727121 0.68699998 -0.054204296 1.0673047e-38 348 285
0.034931656 0.68699998 -0.054204296 1.0765602e-38 349 285
0.036136195 0.68699998 -0.054204296 1.1132955e-38 350 285
0.037340738 0.68699998 -0.054204296 1.1502097e-38 351 285
0.038601387 0.68800002 -0.054283202 1.1504616e-38 352 285
0.039807681 0.68800002 -0.054283202 1.1780842e-38 353 285
0.041013971 0.68800002 -0.054283202 1.1964518e-38 354 285
0.042342998 0.69 -0.054440998 1.2148549e-38 355 285
0.043742158 0.69300002 -0.054677699 1.233366e-38 356 285
0.045022093 0.69400001 -0.054756597 1.2610606e-38 357 285
0.046238903 0.69400001 -0.054756597 1.2887913e-38 358 285
0.047592476 0.69599998 -0.054914396 1.3348891e-38 359 285
0.048882935 0.69700003 -0.054993302 1.2521675e-38 360 285
0.050105009 0.69700003 -0.054993302 1.5379741e-38 361 285
0.051327083 0.69700003 -0.054993302 1.8527374e-38 362 285
-0.024757065 0.70599997 -0.056941248 1.935929e-38 300 286
-0.023452586 0.704 -0.056779943 1.6040247e-38 301 286
-0.02218668 0.70300001 -0.056699295 1.4190526e-38 302 286
-0.020954086 0.70300001 -0.056699295 1.0779288e-38 303 286
-0.019721493 0.70300001 -0.056699295 1.3625076e-38 304 286
-0.018436298 0.70099998 -0.056537982 1.3255933e-38 305 286
-0.017182667 0.69999999 -0.056457333 1.3161949e-38 306 286
-0.015909746 0.69800001 -0.056296028 1.2792807e-38 307 286
-0.01468592 0.69800001 -0.056296028 1.3434585e-38 308 286
-0.013384946 0.69400001 -0.055973411 1.3527139e-38 309 286
-0.012150601 0.69300002 -0.055892758 1.3709732e-38 310 286
-0.010935539 0.69300002 -0.055892758 1.3893764e-38 311 286
-0.0096924258 0.69099998 -0.055731449 1.3806237e-38 312 286
-0.0084686 0.69 -0.055650797 1.3530009e-38 313 286
-0.0072377604 0.68800002 -0.055489492 1.3710079e-38 314 286
-0.0060314666 0.68800002 -0.055489492 1.389447e-38 315 286
-0.0048251734 0.68800002 -0.055489492 1.343601e-38 316 286
-0.0036136196 0.68699998 -0.055408835 1.343601e-38 317 286
-0.0024090798 0.68699998 -0.055408835 1.3344166e-38 318 286
-0.0012045399 0.68699998 -0.055408835 1.3344166e-38 319 286
0 0.68599999 -0.055328183 1.3435287e-38 320 286
0.0012027866 0.68599999 -0.055328183 1.31587e-38 321 286
0.0023985601 0.68400002 -0.055166878 1.32491e-38 322 286
0.00359784 0.68400002 -0.055166878 1.3064711e-38 323 286
0.0047901068 0.68300003 -0.055086225 1.2697371e-38 324 286
0.0059876335 0.68300003 -0.055086225 1.251298e-38 325 286
0.0071851597 0.68300003 -0.055086225 1.2052372e-38 326 286
0.0083826864 0.68300003 -0.055086225 1.2052372e-38 327 286
0.0095802136 0.68300003 -0.055086225 1.1317698e-38 328 286
0.01077774 0.68300003 -0.055086225 1.1317698e-38 329 286
0.011957732 0.68199998 -0.055005573 1.1593208e-38 330 286
0.013153506 0.68199998 -0.055005573 1.1501013e-38 331 286
0.01434928 0.68199998 -0.055005573 1.1317701e-38 332 286
0.015567848 0.68300003 -0.055086225 1.1317701e-38 333 286
0.016765373 0.68300003 -0.055086225 1.1225504e-38 334 286
0.017962901 0.68300003 -0.055086225 1.1225504e-38 335 286
0.019160427 0.68300003 -0.055086225 1.1132233e-38 336 286
0.020357953 0.68300003 -0.055086225 1.1040037e-38 337 286
0.02155548 0.68300003 -0.055086225 1.1040037e-38 338 286
0.022753006 0.68300003 -0.055086225 1.1040037e-38 339 286
0.023950534 0.68300003 -0.055086225 1.1132942e-38 340 286
0.02514806 0.68300003 -0.055086225 1.1040388e-38 341 286
0.026345588 0.68300003 -0.055086225 1.0949264e-38 342 286
0.027543113 0.68300003 -0.055086225 1.0765233e-38 343 286
0.02878272 0.68400002 -0.055166878 1.0305695e-38 344 286
0.029982001 0.68400002 -0.055166878 1.0305695e-38 345 286
0.031272452 0.68599999 -0.055328183 1.0214579e-38 346 286
0.032475237 0.68599999 -0.055328183 1.0398611e-38 347 286
0.033727121 0.68699998 -0.055408835 1.06734e-38 348 286
0.034931656 0.68699998 -0.055408835 1.0765596e-38 349 286
0.036136195 0.68699998 -0.055408835 1.1133658e-38 350 286
0.037340738 0.68699998 -0.055408835 1.1410247e-38 351 286
0.038601387 0.68800002 -0.055489492 1.1595359e-38 352 286
0.039807681 0.68800002 -0.055489492 1.1595359e-38 353 286
0.041013971 0.68800002 -0.055489492 1.1869801e-38 354 286
0.042342998 0.69 -0.055650797 1.1869801e-38 355 286
0.043615919 0.69099998 -0.055731449 1.2421896e-38 356 286
0.045022093 0.69400001 -0.055973411 1.297543e-38 357 286
0.046238903 0.69400001 -0.055973411 1.2978314e-38 358 286
0.047592476 0.69599998 -0.056134716 1.3808074e-38 359 286
0.048882935 0.69700003 -0.056215372 1.3069458e-38 360 286
0.050105009 0.69700003 -0.056215372 1.6019358e-38 361 286
0.051327083 0.69700003 -0.056215372 1.7790887e-38 362 286
-0.024686933 0.704 -0.058014292 1.9177047e-38 300 287
-0.023419274 0.70300001 -0.057931885 1.530483e-38 301 287
-0.02218668 0.70300001 -0.057931885 1.455462e-38 302 287
-0.020954086 0.70300001 -0.057931885 1.2157534e-38 303 287
-0.019665385 0.70099998 -0.057767071 1.380659e-38 304 287
-0.018409999 0.69999999 -0.05768466 1.3345612e-38 305 287
-0.017182667 0.69999999 -0.05768466 1.2792454e-38 306 287
-0.015909746 0.69800001 -0.057519849 1.2700258e-38 307 287
-0.014643839 0.69599998 -0.057355035 1.2423691e-38 308 287
-0.013384946 0.69400001 -0.057190225 1.2147464e-38 309 287
-0.012150601 0.69300002 -0.057107817 1.2698833e-38 310 287
-0.010935539 0.69300002 -0.057107817 1.3159811e-38 311 287
-0.0096924258 0.69099998 -0.056942999 1.343746e-38 312 287
-0.0084686 0.69 -0.0568606 1.325271e-38 313 287
-0.0072377604 0.68800002 -0.056695789 1.3434587e-38 314 287
-0.0060314666 0.68800002 -0.056695789 1.334239e-38 315 287
-0.0048251734 0.68800002 -0.056695789 1.3067599e-38 316 287
-0.0036136196 0.68699998 -0.056613375 1.3067599e-38 317 287
-0.0024090798 0.68699998 -0.056613375 1.3067952e-38 318 287
-0.0012045399 0.68699998 -0.056613375 1.2883202e-38 319 287
0 0.68599999 -0.056530971 1.2789934e-38 320 287
0.0012027866 0.68599999 -0.056530971 1.2789934e-38 321 287
0.0023985601 0.68400002 -0.056366164 1.2514426e-38 322 287
0.00359784 0.68400002 -0.056366164 1.2422229e-38 323 287
0.0047901068 0.68300003 -0.056283753 1.2328959e-38 324 287
0.0059876335 0.68300003 -0.056283753 1.2144568e-38 325 287
0.0071851597 0.68300003 -0.056283753 1.1776158e-38 326 287
0.0083826864 0.68300003 -0.056283753 1.1683961e-38 327 287
0.0095802136 0.68300003 -0.056283753 1.1225506e-38 328 287
0.01077774 0.68300003 -0.056283753 1.1225506e-38 329 287
0.011957732 0.68199998 -0.056201346 1.0950359e-38 330 287
0.013153506 0.68199998 -0.056201346 1.0950359e-38 331 287
0.01434928 0.68199998 -0.056201346 1.0950359e-38 332 287
0.015545053 0.68199998 -0.056201346 1.0950359e-38 333 287
0.016740825 0.68199998 -0.056201346 1.0950714e-38 334 287
0.017936599 0.68199998 -0.056201346 1.085816e-38 335 287
0.019132372 0.68199998 -0.056201346 1.0857444e-38 336 287
0.020357953 0.68300003 -0.056283753 1.0673053e-38 337 287
0.02155548 0.68300003 -0.056283753 1.0398261e-38 338 287
0.022753006 0.68300003 -0.056283753 1.0398261e-38 339 287
0.023950534 0.68300003 -0.056283753 1.0582284e-38 340 287
0.02514806 0.68300003 -0.056283753 1.0582284e-38 341 287
0.026345588 0.68300003 -0.056283753 1.0764877e-38 342 287
0.027583439 0.68400002 -0.056366164 1.0580484e-38 343 287
0.02878272 0.68400002 -0.056366164 1.0305339e-38 344 287
0.029982001 0.68400002 -0.056366164 1.0305339e-38 345 287
0.031272452 0.68599999 -0.056530971 1.0214227e-38 346 287
0.032475237 0.68599999 -0.056530971 1.0214227e-38 347 287
0.033727121 0.68699998 -0.056613375 1.0398261e-38 348 287
0.034931656 0.68699998 -0.056613375 1.0398261e-38 349 287
0.036136195 0.68699998 -0.056613375 1.0674848e-38 350 287
0.037340738 0.68699998 -0.056613375 1.0859599e-38 351 287
0.038545277 0.68699998 -0.056613375 1.1319501e-38 352 287
0.039807681 0.68800002 -0.056695789 1.1227306e-38 353 287
0.041013971 0.68800002 -0.056695789 1.1501391e-38 354 287
0.042342998 0.69 -0.0568606 1.1409196e-38 355 287
0.043552797 0.69 -0.0568606 1.1412079e-38 356 287
0.044957221 0.69300002 -0.057107817 1.2057449e-38 357 287
0.046372157 0.69599998 -0.057355035 1.2519509e-38 358 287
0.047660861 0.69700003 -0.05743745 1.3257074e-38 359 287
0.048882935 0.69700003 -0.05743745 1.307162e-38 360 287
0.050105009 0.69700003 -0.05743745 1.5192479e-38 361 287
0.051400717 0.69800001 -0.057519849 1.7513577e-38 362 287
-0.024686933 0.704 -0.059248637 1.9361082e-38 300 288
-0.023419274 0.70300001 -0.059164476 1.5304475e-38 301 288
-0.022123558 0.70099998 -0.058996156 1.5013806e-38 302 288
-0.020894472 0.70099998 -0.058996156 1.2800752e-38 303 288
-0.019665385 0.70099998 -0.058996156 1.3621126e-38 304 288
-0.018409999 0.69999999 -0.058911994 1.2514779e-38 305 288
-0.017133573 0.69800001 -0.058743682 1.2699539e-38 306 288
-0.015864158 0.69599998 -0.058575355 1.2238561e-38 307 288
-0.01460176 0.69400001 -0.058407038 1.2421879e-38 308 288
-0.013384946 0.69400001 -0.058407038 1.2421879e-38 309 288
-0.012150601 0.69300002 -0.058322877 1.2789574e-38 310 288
-0.01090398 0.69099998 -0.058154557 1.3250192e-38 311 288
-0.0096924258 0.69099998 -0.058154557 1.3252342e-38 312 288
-0.0084686 0.69 -0.058070395 1.3160146e-38 313 288
-0.0072377604 0.68800002 -0.057902083 1.306723e-38 314 288
-0.0060314666 0.68800002 -0.057902083 1.306723e-38 315 288
-0.0048181596 0.68699998 -0.057817914 1.3158703e-38 316 288
-0.0036136196 0.68699998 -0.057817914 1.2882117e-38 317 288
-0.0024090798 0.68699998 -0.057817914 1.2789924e-38 318 288
-0.0012045399 0.68699998 -0.057817914 1.2605173e-38 319 288
0 0.68599999 -0.057733759 1.2787416e-38 320 288
0.0012027866 0.68599999 -0.057733759 1.2787416e-38 321 288
0.0023985601 0.68400002 -0.057565439 1.2328962e-38 322 288
0.00359784 0.68400002 -0.057565439 1.2328962e-38 323 288
0.0047901068 0.68300003 -0.057481278 1.1868709e-38 324 288
0.0059876335 0.68300003 -0.057481278 1.1683958e-38 325 288
0.0071851597 0.68300003 -0.057481278 1.1315898e-38 326 288
0.0083826864 0.68300003 -0.057481278 1.1315898e-38 327 288
0.0095802136 0.68300003 -0.057481278 1.1041112e-38 328 288
0.01077774 0.68300003 -0.057481278 1.1041112e-38 329 288
0.011975267 0.68300003 -0.057481278 1.0949993e-38 330 288
0.013153506 0.68199998 -0.05739712 1.0949993e-38 331 288
0.01434928 0.68199998 -0.05739712 1.0859948e-38 332 288
0.015545053 0.68199998 -0.05739712 1.0859948e-38 333 288
0.016740825 0.68199998 -0.05739712 1.0585521e-38 334 288
0.017936599 0.68199998 -0.05739712 1.0309293e-38 335 288
0.019132372 0.68199998 -0.05739712 1.0582649e-38 336 288
0.020328145 0.68199998 -0.05739712 1.0398258e-38 337 288
0.021523919 0.68199998 -0.05739712 1.0214946e-38 338 288
0.022753006 0.68300003 -0.057481278 1.0214946e-38 339 288
0.023950534 0.68300003 -0.057481278 1.0581203e-38 340 288
0.02514806 0.68300003 -0.057481278 1.0397172e-38 341 288
0.026345588 0.68300003 -0.057481278 1.0579766e-38 342 288
0.027583439 0.68400002 -0.057565439 1.0579766e-38 343 288
0.02878272 0.68400002 -0.057565439 1.0213147e-38 344 288
0.029982001 0.68400002 -0.057565439 1.0305342e-38 345 288
0.031272452 0.68599999 -0.057733759 1.0213147e-38 346 288
0.032475237 0.68599999 -0.057733759 1.0213147e-38 347 288
0.033678025 0.68599999 -0.057733759 1.0212791e-38 348 288
0.034931656 0.68699998 -0.057817914 1.0212791e-38 349 288
0.036136195 0.68699998 -0.057817914 1.0398261e-38 350 288
0.037340738 0.68699998 -0.057817914 1.0582652e-38 351 288
0.038545277 0.68699998 -0.057817914 1.0950712e-38 352 288
0.039807681 0.68800002 -0.057902083 1.1042909e-38 353 288
0.041013971 0.68800002 -0.057902083 1.1226227e-38 354 288
0.042342998 0.69 -0.058070395 1.1318422e-38 355 288
0.043552797 0.69 -0.058070395 1.1412419e-38 356 288
0.044957221 0.69300002 -0.058322877 1.2057788e-38 357 288
0.046238903 0.69400001 -0.058407038 1.2702804e-38 358 288
0.047660861 0.69700003 -0.05865952 1.3532566e-38 359 288
0.048882935 0.69700003 -0.05865952 1.3071609e-38 360 288
0.050105009 0.69700003 -0.05865952 1.5376141e-38 361 288
0.051327083 0.69700003 -0.05865952 1.723627e-38 362 288
-0.024686933 0.704 -0.060482983 1.9176694e-38 300 289
-0.023419274 0.70300001 -0.06039707 1.5212282e-38 301 289
-0.022091998 0.69999999 -0.060139328 1.482834e-38 302 289
-0.020864666 0.69999999 -0.060139328 1.2800036e-38 303 289
-0.019637333 0.69999999 -0.060139328 1.3806237e-38 304 289
-0.0183574 0.69800001 -0.059967503 1.2792085e-38 305 289
-0.017133573 0.69800001 -0.059967503 1.2516943e-38 306 289
-0.015864158 0.69599998 -0.059795678 1.2056325e-38 307 289
-0.01460176 0.69400001 -0.059623852 1.2054536e-38 308 289
-0.01336566 0.69300002 -0.05953794 1.2054536e-38 309 289
-0.012150601 0.69300002 -0.05953794 1.2331836e-38 310 289
-0.01090398 0.69099998 -0.059366114 1.2700258e-38 311 289
-0.0096783992 0.69 -0.059280202 1.2885353e-38 312 289
-0.0084440531 0.68800002 -0.059108373 1.2885353e-38 313 289
-0.0072377604 0.68800002 -0.059108373 1.3068305e-38 314 289
-0.0060226996 0.68699998 -0.059022456 1.2883555e-38 315 289
-0.0048181596 0.68699998 -0.059022456 1.2790643e-38 316 289
-0.0036136196 0.68699998 -0.059022456 1.2605892e-38 317 289
-0.0024090798 0.68699998 -0.059022456 1.2512624e-38 318 289
-0.0012045399 0.68699998 -0.059022456 1.2236397e-38 319 289
0 0.68599999 -0.058936544 1.177723e-38 320 289
0.0012027866 0.68599999 -0.058936544 1.177723e-38 321 289
0.0024055731 0.68599999 -0.058936544 1.1593564e-38 322 289
0.00359784 0.68400002 -0.058764715 1.1593564e-38 323 289
0.0047901068 0.68300003 -0.05867881 1.1408816e-38 324 289
0.0059876335 0.68300003 -0.05867881 1.1224785e-38 325 289
0.0071851597 0.68300003 -0.05867881 1.1133305e-38 326 289
0.0083826864 0.68300003 -0.05867881 1.1133305e-38 327 289
0.0095802136 0.68300003 -0.05867881 1.094999e-38 328 289
0.01077774 0.68300003 -0.05867881 1.0857794e-38 329 289
0.011975267 0.68300003 -0.05867881 1.0951065e-38 330 289
0.013153506 0.68199998 -0.058592889 1.104326e-38 331 289
0.01434928 0.68199998 -0.058592889 1.1135455e-38 332 289
0.015545053 0.68199998 -0.058592889 1.1135455e-38 333 289
0.016740825 0.68199998 -0.058592889 1.0676997e-38 334 289
0.017936599 0.68199998 -0.058592889 1.0400409e-38 335 289
0.019132372 0.68199998 -0.058592889 1.0399337e-38 336 289
0.020328145 0.68199998 -0.058592889 1.0214946e-38 337 289
0.021523919 0.68199998 -0.058592889 9.939801e-39 338 289
0.022719691 0.68199998 -0.058592889 9.8476053e-39 339 289
0.023950534 0.68300003 -0.05867881 1.0213147e-38 340 289
0.02514806 0.68300003 -0.05867881 1.0029116e-38 341 289
0.026345588 0.68300003 -0.05867881 1.0303544e-38 342 289
0.027583439 0.68400002 -0.058764715 1.0303544e-38 343 289
0.02878272 0.68400002 -0.058764715 9.936564e-39 344 289
0.030069664 0.68599999 -0.058936544 9.936564e-39 345 289
0.031272452 0.68599999 -0.058936544 9.8447341e-39 346 289
0.032475237 0.68599999 -0.058936544 9.8447341e-39 347 289
0.033678025 0.68599999 -0.058936544 9.2933652e-39 348 289
0.034880809 0.68599999 -0.058936544 9.2933652e-39 349 289
0.036083598 0.68599999 -0.058936544 9.3859265e-39 350 289
0.037340738 0.68699998 -0.059022456 9.6625134e-39 351 289
0.038545277 0.68699998 -0.059022456 1.0306794e-38 352 289
0.039807681 0.68800002 -0.059108373 1.0491185e-38 353 289
0.041013971 0.68800002 -0.059108373 1.0674498e-38 354 289
0.042220265 0.68800002 -0.059108373 1.085889e-38 355 289
0.043552797 0.69 -0.059280202 1.1136202e-38 356 289
0.044827472 0.69099998 -0.059366114 1.1781571e-38 357 289
0.046238903 0.69400001 -0.059623852 1.2152151e-38 358 289
0.047660861 0.69700003 -0.05988159 1.3165945e-38 359 289
0.048812799 0.69599998 -0.059795678 1.3073048e-38 360 289
0.050033119 0.69599998 -0.059795678 1.5101352e-38 361 289
0.051327083 0.69700003 -0.05988159 1.6868207e-38 362 289
-0.023419274 0.70300001 -0.061629668 1.5212998e-38 301 290
-0.022091998 0.69999999 -0.061366666 1.5011652e-38 302 290
-0.020864666 0.69999999 -0.061366666 1.3075544e-38 303 290
-0.019637333 0.69999999 -0.061366666 1.4084252e-38 304 290
-0.0183574 0.69800001 -0.061191335 1.3346328e-38 305 290
-0.017133573 0.69800001 -0.061191335 1.2793513e-38 306 290
-0.015864158 0.69599998 -0.061015997 1.2240339e-38 307 290
-0.01460176 0.69400001 -0.060840666 1.223927e-38 308 290
-0.01336566 0.69300002 -0.060752999 1.223927e-38 309 290
-0.012115533 0.69099998 -0.060577665 1.2608047e-38 310 290
-0.010888199 0.69 -0.060489997 1.2792438e-38 311 290
-0.0096783992 0.69 -0.060489997 1.2884987e-38 312 290
-0.0084440531 0.68800002 -0.060314666 1.2884987e-38 313 290
-0.0072377604 0.68800002 -0.060314666 1.2976104e-38 314 290
-0.0060226996 0.68699998 -0.060226995 1.2607681e-38 315 290
-0.0048181596 0.68699998 -0.060226995 1.2606245e-38 316 290
-0.0036136196 0.68699998 -0.060226995 1.2330018e-38 317 290
-0.0024090798 0.68699998 -0.060226995 1.2236748e-38 318 290
-0.0012045399 0.68699998 -0.060226995 1.2052355e-38 319 290
0 0.68599999 -0.060139328 1.1777213e-38 320 290
0.0012027866 0.68599999 -0.060139328 1.1777213e-38 321 290
0.0024055731 0.68599999 -0.060139328 1.1500643e-38 322 290
0.00359784 0.68400002 -0.059964001 1.1500643e-38 323 290
0.0047901068 0.68300003 -0.059876334 1.1132589e-38 324 290
0.0059876335 0.68300003 -0.059876334 1.1132589e-38 325 290
0.0071851597 0.68300003 -0.059876334 1.1041107e-38 326 290
0.0083826864 0.68300003 -0.059876334 1.1133661e-38 327 290
0.0095802136 0.68300003 -0.059876334 1.0950699e-38 328 290
0.01077774 0.68300003 -0.059876334 1.1042895e-38 329 290
0.011975267 0.68300003 -0.059876334 1.122657e-38 330 290
0.013153506 0.68199998 -0.059788663 1.122657e-38 331 290
0.01434928 0.68199998 -0.059788663 1.104326e-38 332 290
0.015545053 0.68199998 -0.059788663 1.104326e-38 333 290
0.016740825 0.68199998 -0.059788663 1.0950714e-38 334 290
0.017936599 0.68199998 -0.059788663 1.0674129e-38 335 290
0.019132372 0.68199998 -0.059788663 1.0489385e-38 336 290
0.020328145 0.68199998 -0.059788663 1.0489385e-38 337 290
0.021523919 0.68199998 -0.059788663 1.0122397e-38 338 290
0.022719691 0.68199998 -0.059788663 1.0122397e-38 339 290
0.023915464 0.68199998 -0.059788663 1.0212072e-38 340 290
0.025111238 0.68199998 -0.059788663 1.0119876e-38 341 290
0.026345588 0.68300003 -0.059876334 1.0119157e-38 342 290
0.027543113 0.68300003 -0.059876334 1.0119157e-38 343 290
0.028740639 0.68300003 -0.059876334 9.9354878e-39 344 290
0.029982001 0.68400002 -0.059964001 9.9354878e-39 345 290
0.031272452 0.68599999 -0.060139328 9.3837587e-39 346 290
0.032475237 0.68599999 -0.060139328 9.3837587e-39 347 290
0.033678025 0.68599999 -0.060139328 8.9238694e-39 348 290
0.034880809 0.68599999 -0.060139328 8.9238694e-39 349 290
0.036083598 0.68599999 -0.060139328 8.8323996e-39 350 290
0.037340738 0.68699998 -0.060226995 9.2933778e-39 351 290
0.038545277 0.68699998 -0.060226995 9.479197e-39 352 290
0.039807681 0.68800002 -0.060314666 9.7557853e-39 353 290
0.041013971 0.68800002 -0.060314666 1.0306438e-38 354 290
0.042220265 0.68800002 -0.060314666 1.0398634e-38 355 290
0.043552797 0.69 -0.060489997 1.0859615e-38 356 290
0.044827472 0.69099998 -0.060577665 1.1504984e-38 357 290
0.04617228 0.69300002 -0.060752999 1.20596e-38 358 290
0.047592476 0.69599998 -0.061015997 1.3073752e-38 359 290
0.048812799 0.69599998 -0.061015997 1.2706068e-38 360 290
0.050033119 0.69599998 -0.061015997 1.4918403e-38 361 290
0.051327083 0.69700003 -0.061103668 1.6777087e-38 362 290
-0.023419274 0.70300001 -0.062862262 1.5581061e-38 301 291
-0.022091998 0.69999999 -0.062593997 1.5289318e-38 302 291
-0.020864666 0.69999999 -0.062593997 1.335321e-38 303 291
-0.019637333 0.69999999 -0.062593997 1.4084979e-38 304 291
-0.0183574 0.69800001 -0.062415157 1.3162663e-38 305 291
-0.017109027 0.69700003 -0.062325738 1.2978269e-38 306 291
-0.015818574 0.69400001 -0.06205748 1.2332899e-38 307 291
-0.01460176 0.69400001 -0.06205748 1.2424735e-38 308 291
-0.01336566 0.69300002 -0.061968062 1.2424735e-38 309 291
-0.012115533 0.69099998 -0.061789215 1.2700949e-38 310 291
-0.010888199 0.69 -0.061699796 1.2793145e-38 311 291
-0.0096783992 0.69 -0.061699796 1.2793142e-38 312 291
-0.0084440531 0.68800002 -0.06152096 1.2700946e-38 313 291
-0.0072377604 0.68800002 -0.06152096 1.2883542e-38 314 291
-0.0060226996 0.68699998 -0.061431535 1.2698791e-38 315 291
-0.0048181596 0.68699998 -0.061431535 1.242293e-38 316 291
-0.0036136196 0.68699998 -0.061431535 1.2054507e-38 317 291
-0.0024090798 0.68699998 -0.061431535 1.1961956e-38 318 291
-0.0012045399 0.68699998 -0.061431535 1.1777563e-38 319 291
0 0.68599999 -0.061342116 1.1594618e-38 320 291
0.0012027866 0.68599999 -0.061342116 1.1502421e-38 321 291
0.0024055731 0.68599999 -0.061342116 1.1225488e-38 322 291
0.00359784 0.68400002 -0.061163284 1.1133292e-38 323 291
0.0047901068 0.68300003 -0.061073858 1.1040388e-38 324 291
0.0059876335 0.68300003 -0.061073858 1.1040388e-38 325 291
0.0071851597 0.68300003 -0.061073858 1.0950346e-38 326 291
0.0083826864 0.68300003 -0.061073858 1.1042542e-38 327 291
0.0095802136 0.68300003 -0.061073858 1.1042539e-38 328 291
0.01077774 0.68300003 -0.061073858 1.1042539e-38 329 291
0.011975267 0.68300003 -0.061073858 1.1043258e-38 330 291
0.013153506 0.68199998 -0.060984433 1.0951062e-38 331 291
0.01434928 0.68199998 -0.060984433 1.1225854e-38 332 291
0.015545053 0.68199998 -0.060984433 1.1133658e-38 333 291
0.016740825 0.68199998 -0.060984433 1.1132586e-38 334 291
0.017936599 0.68199998 -0.060984433 1.1040391e-38 335 291
0.019132372 0.68199998 -0.060984433 1.0397189e-38 336 291
0.020328145 0.68199998 -0.060984433 1.0397189e-38 337 291
0.021523919 0.68199998 -0.060984433 1.0121324e-38 338 291
0.022719691 0.68199998 -0.060984433 1.0029128e-38 339 291
0.023915464 0.68199998 -0.060984433 1.0119879e-38 340 291
0.025111238 0.68199998 -0.060984433 1.0119879e-38 341 291
0.026345588 0.68300003 -0.061073858 9.7521699e-39 342 291
0.027543113 0.68300003 -0.061073858 9.7521699e-39 343 291
0.028740639 0.68300003 -0.061073858 9.6599757e-39 344 291
0.029982001 0.68400002 -0.061163284 9.5674213e-39 345 291
0.031272452 0.68599999 -0.061342116 9.1089697e-39 346 291
0.032475237 0.68599999 -0.061342116 8.7401886e-39 347 291
0.033678025 0.68599999 -0.061342116 8.6472867e-39 348 291
0.034931656 0.68699998 -0.061431535 8.6472867e-39 349 291
0.036136195 0.68699998 -0.061431535 8.3732194e-39 350 291
0.037340738 0.68699998 -0.061431535 8.6498062e-39 351 291
0.038545277 0.68699998 -0.061431535 9.2033303e-39 352 291
0.039807681 0.68800002 -0.06152096 9.4802774e-39 353 291
0.041013971 0.68800002 -0.06152096 9.9394534e-39 354 291
0.042220265 0.68800002 -0.06152096 9.9394534e-39 355 291
0.043552797 0.69 -0.061699796 1.0767416e-38 356 291
0.044827472 0.69099998 -0.061789215 1.1504981e-38 357 291
0.04617228 0.69300002 -0.061968062 1.2059953e-38 358 291
0.047455717 0.69400001 -0.06205748 1.2797518e-38 359 291
0.048812799 0.69599998 -0.062236317 1.2431992e-38 360 291
0.050033119 0.69599998 -0.062236317 1.4460296e-38 361 291
-0.023419274 0.70300001 -0.064094849 1.5950197e-38 301 292
-0.022123558 0.70099998 -0.063912503 1.5842488e-38 302 292
-0.020894472 0.70099998 -0.063912503 1.3537957e-38 303 292
-0.019637333 0.69999999 -0.063821331 1.4085345e-38 304 292
-0.018331099 0.69700003 -0.06354782 1.3255584e-38 305 292
-0.017109027 0.69700003 -0.06354782 1.3253414e-38 306 292
-0.015818574 0.69400001 -0.063274294 1.2792794e-38 307 292
-0.01460176 0.69400001 -0.063274294 1.2976457e-38 308 292
-0.01336566 0.69300002 -0.063183114 1.2884261e-38 309 292
-0.012115533 0.69099998 -0.063000768 1.3068284e-38 310 292
-0.010888199 0.69 -0.062909603 1.3068284e-38 311 292
-0.0096503468 0.68800002 -0.06272725 1.2976091e-38 312 292
-0.0084440531 0.68800002 -0.06272725 1.2791341e-38 313 292
-0.0072377604 0.68800002 -0.06272725 1.2515126e-38 314 292
-0.0060226996 0.68699998 -0.062636077 1.242293e-38 315 292
-0.0048181596 0.68699998 -0.062636077 1.1871558e-38 316 292
-0.0036136196 0.68699998 -0.062636077 1.1779363e-38 317 292
-0.0024090798 0.68699998 -0.062636077 1.1594615e-38 318 292
-0.0012045399 0.68699998 -0.062636077 1.1502418e-38 319 292
0 0.68400002 -0.062362559 1.1043245e-38 320 292
0.00119928 0.68400002 -0.062362559 1.1043245e-38 321 292
0.0023985601 0.68400002 -0.062362559 1.1134011e-38 322 292
0.0035925799 0.68300003 -0.06227139 1.1041816e-38 323 292
0.0047901068 0.68300003 -0.06227139 1.0857794e-38 324 292
0.0059876335 0.68300003 -0.06227139 1.094999e-38 325 292
0.0071851597 0.68300003 -0.06227139 1.0858513e-38 326 292
0.0083826864 0.68300003 -0.06227139 1.0950709e-38 327 292
0.0095802136 0.68300003 -0.06227139 1.1042539e-38 328 292
0.01077774 0.68300003 -0.06227139 1.122657e-38 329 292
0.011975267 0.68300003 -0.06227139 1.1043258e-38 330 292
0.013172794 0.68300003 -0.06227139 1.0951062e-38 331 292
0.01434928 0.68199998 -0.062180214 1.1041109e-38 332 292
0.015545053 0.68199998 -0.062180214 1.0764883e-38 333 292
0.016740825 0.68199998 -0.062180214 1.0580504e-38 334 292
0.017936599 0.68199998 -0.062180214 1.0580504e-38 335 292
0.019132372 0.68199998 -0.062180214 1.0396116e-38 336 292
0.020328145 0.68199998 -0.062180214 1.030392e-38 337 292
0.021523919 0.68199998 -0.062180214 1.0029131e-38 338 292
0.022719691 0.68199998 -0.062180214 9.9365766e-39 339 292
0.023915464 0.68199998 -0.062180214 9.9365668e-39 340 292
0.025111238 0.68199998 -0.062180214 9.8443711e-39 341 292
0.026307013 0.68199998 -0.062180214 9.7525258e-39 342 292
0.027543113 0.68300003 -0.06227139 9.7525258e-39 343 292
0.028740639 0.68300003 -0.06227139 9.5688548e-39 344 292
0.029982001 0.68400002 -0.062362559 9.3844622e-39 345 292
0.03118128 0.68400002 -0.062362559 9.1997178e-39 346 292
0.032380559 0.68400002 -0.062362559 9.1075222e-39 347 292
0.033727121 0.68699998 -0.062636077 8.647993e-39 348 292
0.034931656 0.68699998 -0.062636077 8.647993e-39 349 292
0.036136195 0.68699998 -0.062636077 8.3732165e-39 350 292
0.037340738 0.68699998 -0.062636077 8.5576078e-39 351 292
0.038545277 0.68699998 -0.062636077 8.5601259e-39 352 292
0.039807681 0.68800002 -0.06272725 8.9292672e-39 353 292
0.041013971 0.68800002 -0.06272725 9.9387318e-39 354 292
0.042342998 0.69 -0.062909603 1.0307154e-38 355 292
0.043552797 0.69 -0.062909603 1.0677018e-38 356 292
0.044827472 0.69099998 -0.063000768 1.1322388e-38 357 292
0.04617228 0.69300002 -0.063183114 1.2335461e-38 358 292
0.047455717 0.69400001 -0.063274294 1.298083e-38 359 292
0.048812799 0.69599998 -0.063456632 1.2984443e-38 360 292
0.050033119 0.69599998 -0.063456632 1.4828355e-38 361 292
-0.024686933 0.704 -0.065420374 1.9361082e-38 300 293
-0.023419274 0.70300001 -0.065327443 1.68718e-38 301 293
-0.022091998 0.69999999 -0.065048665 1.6213795e-38 302 293
-0.020864666 0.69999999 -0.065048665 1.3355729e-38 303 293
-0.019581227 0.69800001 -0.06486281 1.4177906e-38 304 293
-0.018331099 0.69700003 -0.064769886 1.325631e-38 305 293
-0.017084479 0.69599998 -0.064676955 1.2976837e-38 306 293
-0.015864158 0.69599998 -0.064676955 1.288464e-38 307 293
-0.01460176 0.69400001 -0.064491108 1.2884634e-38 308 293
-0.01336566 0.69300002 -0.064398177 1.2792438e-38 309 293
-0.012115533 0.69099998 -0.06421233 1.2975738e-38 310 293
-0.010888199 0.69 -0.064119399 1.2975738e-38 311 293
-0.0096503468 0.68800002 -0.063933544 1.2791347e-38 312 293
-0.0084440531 0.68800002 -0.063933544 1.2606595e-38 313 293
-0.0072377604 0.68800002 -0.063933544 1.2145268e-38 314 293
-0.0060226996 0.68699998 -0.06384062 1.2145268e-38 315 293
-0.0048181596 0.68699998 -0.06384062 1.1777577e-38 316 293
-0.0036136196 0.68699998 -0.06384062 1.1593545e-38 317 293
-0.0024090798 0.68699998 -0.06384062 1.1501718e-38 318 293
-0.0012045399 0.68699998 -0.06384062 1.1132937e-38 319 293
0 0.68400002 -0.063561834 1.1224056e-38 320 293
0.00119928 0.68400002 -0.063561834 1.1408447e-38 321 293
0.0023985601 0.68400002 -0.063561834 1.1041463e-38 322 293
0.0035925799 0.68300003 -0.063468911 1.1133658e-38 323 293
0.0047901068 0.68300003 -0.063468911 1.0857794e-38 324 293
0.0059876335 0.68300003 -0.063468911 1.094999e-38 325 293
0.0071851597 0.68300003 -0.063468911 1.0951065e-38 326 293
0.0083826864 0.68300003 -0.063468911 1.104326e-38 327 293
0.0095802136 0.68300003 -0.063468911 1.1042542e-38 328 293
0.01077774 0.68300003 -0.063468911 1.1042542e-38 329 293
0.011975267 0.68300003 -0.063468911 1.1042542e-38 330 293
0.013172794 0.68300003 -0.063468911 1.0765596e-38 331 293
0.01434928 0.68199998 -0.063375987 1.0855646e-38 332 293
0.015545053 0.68199998 -0.063375987 1.0486864e-38 333 293
0.016765373 0.68300003 -0.063468911 1.0395034e-38 334 293
0.017962901 0.68300003 -0.063468911 1.0395034e-38 335 293
0.019132372 0.68199998 -0.063375987 1.0211722e-38 336 293
0.020328145 0.68199998 -0.063375987 1.0211722e-38 337 293
0.021523919 0.68199998 -0.063375987 9.9369325e-39 338 293
0.022719691 0.68199998 -0.063375987 9.9369325e-39 339 293
0.023915464 0.68199998 -0.063375987 9.9351318e-39 340 293
0.025111238 0.68199998 -0.063375987 9.9351318e-39 341 293
0.026307013 0.68199998 -0.063375987 9.9354822e-39 342 293
0.027543113 0.68300003 -0.063468911 9.9354822e-39 343 293
0.028740639 0.68300003 -0.063468911 9.4773781e-39 344 293
0.029982001 0.68400002 -0.063561834 9.3851811e-39 345 293
0.03118128 0.68400002 -0.063561834 9.10932e-39 346 293
0.032380559 0.68400002 -0.063561834 8.9249288e-39 347 293
0.033727121 0.68699998 -0.06384062 8.7419823e-39 348 293
0.034931656 0.68699998 -0.06384062 8.5575924e-39 349 293
0.036136195 0.68699998 -0.06384062 8.4657625e-39 350 293
0.037340738 0.68699998 -0.06384062 8.5583169e-39 351 293
0.038545277 0.68699998 -0.06384062 9.0174971e-39 352 293
0.039807681 0.68800002 -0.063933544 9.3862797e-39 353 293
0.041013971 0.68800002 -0.063933544 1.0306788e-38 354 293
0.042342998 0.69 -0.064119399 1.0491538e-38 355 293
0.043615919 0.69099998 -0.06421233 1.1044709e-38 356 293
0.044827472 0.69099998 -0.06421233 1.1690079e-38 357 293
0.04617228 0.69300002 -0.064398177 1.2150704e-38 358 293
0.047455717 0.69400001 -0.064491108 1.307266e-38 359 293
0.048672531 0.69400001 -0.064491108 1.3354301e-38 360 293
-0.024686933 0.704 -0.066654719 1.9177411e-38 300 294
-0.023419274 0.70300001 -0.066560037 1.7426053e-38 301 294
-0.022091998 0.69999999 -0.066275999 1.6401073e-38 302 294
-0.020864666 0.69999999 -0.066275999 1.3174226e-38 303 294
-0.019581227 0.69800001 -0.066086642 1.4455219e-38 304 294
-0.018331099 0.69700003 -0.06599196 1.3533623e-38 305 294
-0.017084479 0.69599998 -0.065897278 1.3255214e-38 306 294
-0.015864158 0.69599998 -0.065897278 1.2794238e-38 307 294
-0.01460176 0.69400001 -0.065707922 1.288534e-38 308 294
-0.01336566 0.69300002 -0.06561324 1.2793145e-38 309 294
-0.012115533 0.69099998 -0.065423876 1.2975385e-38 310 294
-0.010888199 0.69 -0.065329194 1.2790994e-38 311 294
-0.0096503468 0.68800002 -0.065139838 1.2421508e-38 312 294
-0.0084440531 0.68800002 -0.065139838 1.1960528e-38 313 294
-0.0072377604 0.68800002 -0.065139838 1.1225135e-38 314 294
-0.0060226996 0.68699998 -0.065045156 1.1132939e-38 315 294
-0.0048181596 0.68699998 -0.065045156 1.0674485e-38 316 294
-0.0036136196 0.68699998 -0.065045156 1.0674485e-38 317 294
-0.0024090798 0.68699998 -0.065045156 1.0489382e-38 318 294
-0.0012045399 0.68699998 -0.065045156 1.0489382e-38 319 294
0 0.68400002 -0.064761117 1.0214593e-38 320 294
0.00119928 0.68400002 -0.064761117 1.0306788e-38 321 294
0.0023985601 0.68400002 -0.064761117 1.0398984e-38 322 294
0.0035925799 0.68300003 -0.064666435 1.0398984e-38 323 294
0.0047901068 0.68300003 -0.064666435 1.0399337e-38 324 294
0.0059876335 0.68300003 -0.064666435 1.0675923e-38 325 294
0.0071851597 0.68300003 -0.064666435 1.067592e-38 326 294
0.0083826864 0.68300003 -0.064666435 1.067592e-38 327 294
0.0095802136 0.68300003 -0.064666435 1.0767399e-38 328 294
0.01077774 0.68300003 -0.064666435 1.0767399e-38 329 294
0.011975267 0.68300003 -0.064666435 1.0583005e-38 330 294
0.013153506 0.68199998 -0.064571753 1.0398255e-38 331 294
0.01434928 0.68199998 -0.064571753 1.0212791e-38 332 294
0.015545053 0.68199998 -0.064571753 1.002876e-38 333 294
0.016740825 0.68199998 -0.064571753 9.7521881e-39 334 294
0.017936599 0.68199998 -0.064571753 9.7521881e-39 335 294
0.019132372 0.68199998 -0.064571753 9.2926561e-39 336 294
0.020328145 0.68199998 -0.064571753 9.5692416e-39 337 294
0.021523919 0.68199998 -0.064571753 9.1111375e-39 338 294
0.022719691 0.68199998 -0.064571753 9.0185832e-39 339 294
0.023915464 0.68199998 -0.064571753 9.2933652e-39 340 294
0.02514806 0.68300003 -0.064666435 9.1086138e-39 341 294
0.026345588 0.68300003 -0.064666435 9.2004437e-39 342 294
0.027543113 0.68300003 -0.064666435 9.3844748e-39 343 294
0.02878272 0.68400002 -0.064761117 9.3851839e-39 344 294
0.029982001 0.68400002 -0.064761117 9.3851839e-39 345 294
0.03118128 0.68400002 -0.064761117 9.3844622e-39 346 294
0.032475237 0.68599999 -0.064950474 9.3844622e-39 347 294
0.033727121 0.68699998 -0.065045156 9.1096732e-39 348 294
0.034931656 0.68699998 -0.065045156 9.0171188e-39 349 294
0.036136195 0.68699998 -0.065045156 8.7416263e-39 350 294
0.037340738 0.68699998 -0.065045156 8.7416263e-39 351 294
0.038601387 0.68800002 -0.065139838 8.46721e-39 352 294
0.039807681 0.68800002 -0.065139838 8.9281882e-39 353 294
0.041133199 0.69 -0.065329194 9.6639428e-39 354 294
0.042342998 0.69 -0.065329194 1.0309312e-38 355 294
0.043615919 0.69099998 -0.065423876 1.0953961e-38 356 294
0.044827472 0.69099998 -0.065423876 1.1506776e-38 357 294
0.04617228 0.69300002 -0.06561324 1.2152146e-38 358 294
0.047455717 0.69400001 -0.065707922 1.289007e-38 359 294
0.048672531 0.69400001 -0.065707922 1.3724163e-38 360 294
-0.023419274 0.70300001 -0.067792632 1.8071067e-38 301 295
-0.022123558 0.70099998 -0.067599766 1.6495427e-38 302 295
-0.020864666 0.69999999 -0.067503333 1.2991633e-38 303 295
-0.019581227 0.69800001 -0.06731046 1.3903845e-38 304 295
-0.018331099 0.69700003 -0.067214034 1.3351029e-38 305 295
-0.017084479 0.69599998 -0.067117594 1.3074786e-38 306 295
-0.015864158 0.69599998 -0.067117594 1.2245025e-38 307 295
-0.01460176 0.69400001 -0.066924736 1.2794591e-38 308 295
-0.01336566 0.69300002 -0.066828303 1.2425448e-38 309 295
-0.012115533 0.69099998 -0.06663543 1.2423656e-38 310 295
-0.010888199 0.69 -0.066538997 1.2147069e-38 311 295
-0.0096503468 0.68800002 -0.066346131 1.1777227e-38 312 295
-0.0084440531 0.68800002 -0.066346131 1.1316608e-38 313 295
-0.0072272392 0.68699998 -0.066249698 1.0486864e-38 314 295
-0.0060226996 0.68699998 -0.066249698 1.0394668e-38 315 295
-0.0048181596 0.68699998 -0.066249698 1.0304992e-38 316 295
-0.0036136196 0.68699998 -0.066249698 1.0304992e-38 317 295
-0.0024055731 0.68599999 -0.066153266 1.0212794e-38 318 295
-0.0012027866 0.68599999 -0.066153266 1.0212794e-38 319 295
0 0.68400002 -0.0659604 1.0029481e-38 320 295
0.00119928 0.68400002 -0.0659604 1.0121677e-38 321 295
0.0023985601 0.68400002 -0.0659604 1.0397186e-38 322 295
0.0035925799 0.68300003 -0.065863967 1.0489382e-38 323 295
0.0047901068 0.68300003 -0.065863967 1.0307144e-38 324 295
0.0059876335 0.68300003 -0.065863967 1.0491536e-38 325 295
0.0071851597 0.68300003 -0.065863967 1.0675201e-38 326 295
0.0083826864 0.68300003 -0.065863967 1.0583005e-38 327 295
0.0095802136 0.68300003 -0.065863967 1.0582287e-38 328 295
0.01077774 0.68300003 -0.065863967 1.0582287e-38 329 295
0.011975267 0.68300003 -0.065863967 1.0398258e-38 330 295
0.013153506 0.68199998 -0.065767527 1.0214227e-38 331 295
0.01434928 0.68199998 -0.065767527 9.93728e-39 332 295
