# .PCD v.7 - Point Cloud Data file format
FIELDS x y z rgb imX imY
SIZE 4 4 4 4 4 4
TYPE F F F F F F
COUNT 1 1 1 1 1 1
WIDTH 834
HEIGHT 1
VIEWPOINT 0 0 0 1 0 0 0
POINTS 834
DATA ascii
0.017207211 0.70099998 -0.039330769 1.5185877e-38 334 272
0.018436298 0.70099998 -0.039330769 1.5185877e-38 335 272
0.019665385 0.70099998 -0.039330769 1.5185521e-38 336 272
0.020894472 0.70099998 -0.039330769 1.5185521e-38 337 272
0.022123558 0.70099998 -0.039330769 1.5185892e-38 338 272
0.023419274 0.70300001 -0.039442986 1.5278088e-38 339 272
0.024686933 0.704 -0.039499093 1.5095143e-38 340 272
0.02592128 0.704 -0.039499093 1.5187339e-38 341 272
0.027155625 0.704 -0.039499093 1.5095859e-38 342 272
0.028470624 0.70599997 -0.039611302 1.5188413e-38 343 272
0.029750559 0.70700002 -0.039667413 1.4912913e-38 344 272
0.030990168 0.70700002 -0.039667413 1.5097663e-38 345 272
0.032229774 0.70700002 -0.039667413 1.4639205e-38 346 272
0.033469379 0.70700002 -0.039667413 1.5099825e-38 347 272
0.034758076 0.708 -0.039723519 1.4917584e-38 348 272
0.036101133 0.70999998 -0.039835732 1.5101976e-38 349 272
0.037398599 0.71100003 -0.039891839 1.5010136e-38 350 272
0.038808275 0.71399999 -0.040060159 1.4917582e-38 351 272
0.040172372 0.71600002 -0.040172372 1.4733544e-38 352 272
0.041427758 0.71600002 -0.040172372 1.4549512e-38 353 272
0.042742759 0.71700001 -0.040228479 1.4732843e-38 354 272
0.044122629 0.71899998 -0.040340692 1.4732843e-38 355 272
0.045383278 0.71899998 -0.040340692 1.3995316e-38 356 272
-0.026768139 0.727 -0.042064216 1.3459473e-38 299 273
-0.025353199 0.72299999 -0.041832779 1.5100591e-38 300 273
-0.0239856 0.72000003 -0.041659199 1.4455222e-38 301 273
-0.022691639 0.71899998 -0.041601337 1.5740878e-38 302 273
-0.021430992 0.71899998 -0.041601337 1.5464651e-38 303 273
-0.020114239 0.71700001 -0.041485619 1.5463924e-38 304 273
-0.0188308 0.71600002 -0.041427758 1.537137e-38 305 273
-0.017575413 0.71600002 -0.041427758 1.5646515e-38 306 273
-0.016251646 0.713 -0.041254178 1.5554319e-38 307 273
-0.014959441 0.71100003 -0.041138459 1.55536e-38 308 273
-0.013693533 0.70999998 -0.041080594 1.55536e-38 309 273
-0.0124136 0.708 -0.040964879 1.5463205e-38 310 273
-0.011156459 0.70700002 -0.040907022 1.5555401e-38 311 273
-0.0099028256 0.70599997 -0.040849157 1.5646868e-38 312 273
-0.0086649731 0.70599997 -0.040849157 1.5646868e-38 313 273
-0.0074271196 0.70599997 -0.040849157 1.5738345e-38 314 273
-0.0061717331 0.704 -0.040733438 1.5646149e-38 315 273
-0.0049373866 0.704 -0.040733438 1.5554316e-38 316 273
-0.0036977797 0.70300001 -0.040675577 1.5554316e-38 317 273
-0.0024651866 0.70300001 -0.040675577 1.5553951e-38 318 273
-0.0012290865 0.70099998 -0.040559858 1.5553951e-38 319 273
0 0.70099998 -0.040559858 1.5555025e-38 320 273
0.0012273333 0.69999999 -0.040502001 1.5555025e-38 321 273
0.0024546667 0.69999999 -0.040502001 1.5554306e-38 322 273
0.0036819996 0.69999999 -0.040502001 1.5554306e-38 323 273
0.0049093333 0.69999999 -0.040502001 1.5188042e-38 324 273
0.0061366665 0.69999999 -0.040502001 1.5095846e-38 325 273
0.0073639993 0.69999999 -0.040502001 1.5278441e-38 326 273
0.0085913334 0.69999999 -0.040502001 1.5186246e-38 327 273
0.0098186666 0.69999999 -0.040502001 1.5278441e-38 328 273
0.011045999 0.69999999 -0.040502001 1.5278441e-38 329 273
0.012273333 0.69999999 -0.040502001 1.5186964e-38 330 273
0.013500666 0.69999999 -0.040502001 1.5186964e-38 331 273
0.014727999 0.69999999 -0.040502001 1.5002575e-38 332 273
0.015955333 0.69999999 -0.040502001 1.4910379e-38 333 273
0.017207211 0.70099998 -0.040559858 1.4818183e-38 334 273
0.018436298 0.70099998 -0.040559858 1.4818183e-38 335 273
0.019665385 0.70099998 -0.040559858 1.4725635e-38 336 273
0.020894472 0.70099998 -0.040559858 1.4725635e-38 337 273
0.022123558 0.70099998 -0.040559858 1.481748e-38 338 273
0.023419274 0.70300001 -0.040675577 1.500223e-38 339 273
0.024651866 0.70300001 -0.040675577 1.4728157e-38 340 273
0.02592128 0.704 -0.040733438 1.4728157e-38 341 273
0.027155625 0.704 -0.040733438 1.454449e-38 342 273
0.028470624 0.70599997 -0.040849157 1.4820717e-38 343 273
0.029708479 0.70599997 -0.040849157 1.4454105e-38 344 273
0.030946331 0.70599997 -0.040849157 1.4546301e-38 345 273
0.032229774 0.70700002 -0.040907022 1.4639219e-38 346 273
0.033469379 0.70700002 -0.040907022 1.4731415e-38 347 273
0.034708988 0.70700002 -0.040907022 1.4733566e-38 348 273
0.036101133 0.70999998 -0.041080594 1.4825762e-38 349 273
0.037398599 0.71100003 -0.041138459 1.4734272e-38 350 273
0.038753927 0.713 -0.041254178 1.4642077e-38 351 273
0.040060159 0.71399999 -0.041312039 1.4549875e-38 352 273
0.041427758 0.71600002 -0.041427758 1.4549875e-38 353 273
0.042683143 0.71600002 -0.041427758 1.427403e-38 354 273
0.043999899 0.71700001 -0.041485619 1.445878e-38 355 273
0.045257039 0.71700001 -0.041485619 1.3997115e-38 356 273
-0.025353199 0.72299999 -0.043100435 1.4826528e-38 300 274
-0.0239856 0.72000003 -0.042921603 1.4088963e-38 301 274
-0.022691639 0.71899998 -0.042861983 1.5648335e-38 302 274
-0.021371379 0.71700001 -0.042742759 1.5463945e-38 303 274
-0.020114239 0.71700001 -0.042742759 1.5462849e-38 304 274
-0.0188308 0.71600002 -0.042683143 1.5370654e-38 305 274
-0.017526319 0.71399999 -0.042563915 1.5829817e-38 306 274
-0.016251646 0.713 -0.042504307 1.5737263e-38 307 274
-0.014959441 0.71100003 -0.042385083 1.5461753e-38 308 274
-0.013693533 0.70999998 -0.042325463 1.5369558e-38 309 274
-0.0124136 0.708 -0.042206239 1.5461753e-38 310 274
-0.011156459 0.70700002 -0.042146627 1.5553951e-38 311 274
-0.0099028256 0.70599997 -0.042087011 1.5647218e-38 312 274
-0.0086649731 0.70599997 -0.042087011 1.5555023e-38 313 274
-0.0074060797 0.704 -0.041967787 1.5555025e-38 314 274
-0.0061717331 0.704 -0.041967787 1.5555025e-38 315 274
-0.0049303733 0.70300001 -0.041908171 1.5646146e-38 316 274
-0.0036977797 0.70300001 -0.041908171 1.5461753e-38 317 274
-0.0024651866 0.70300001 -0.041908171 1.5462107e-38 318 274
-0.0012290865 0.70099998 -0.041788943 1.5554304e-38 319 274
0 0.70099998 -0.041788943 1.5554657e-38 320 274
0.0012273333 0.69999999 -0.041729331 1.5646852e-38 321 274
0.0024546667 0.69999999 -0.041729331 1.5371345e-38 322 274
0.0036819996 0.69999999 -0.041729331 1.5371345e-38 323 274
0.0049093333 0.69999999 -0.041729331 1.5278438e-38 324 274
0.0061366665 0.69999999 -0.041729331 1.5186243e-38 325 274
0.0073639993 0.69999999 -0.041729331 1.4910379e-38 326 274
0.0085913334 0.69999999 -0.041729331 1.5002575e-38 327 274
0.0098186666 0.69999999 -0.041729331 1.5002575e-38 328 274
0.011045999 0.69999999 -0.041729331 1.5002575e-38 329 274
0.012273333 0.69999999 -0.041729331 1.5185892e-38 330 274
0.013500666 0.69999999 -0.041729331 1.5093697e-38 331 274
0.014727999 0.69999999 -0.041729331 1.5000426e-38 332 274
0.015955333 0.69999999 -0.041729331 1.5000426e-38 333 274
0.017207211 0.70099998 -0.041788943 1.49093e-38 334 274
0.018436298 0.70099998 -0.041788943 1.49093e-38 335 274
0.019665385 0.70099998 -0.041788943 1.4725985e-38 336 274
0.020894472 0.70099998 -0.041788943 1.4725985e-38 337 274
0.022123558 0.70099998 -0.041788943 1.4725988e-38 338 274
0.023352645 0.70099998 -0.041788943 1.4725988e-38 339 274
0.024651866 0.70300001 -0.041908171 1.463559e-38 340 274
0.025884461 0.70300001 -0.041908171 1.463559e-38 341 274
0.027155625 0.704 -0.041967787 1.4452643e-38 342 274
0.028389972 0.704 -0.041967787 1.4637036e-38 343 274
0.029708479 0.70599997 -0.042087011 1.4637052e-38 344 274
0.030946331 0.70599997 -0.042087011 1.4729247e-38 345 274
0.032184184 0.70599997 -0.042087011 1.4729972e-38 346 274
0.033422034 0.70599997 -0.042087011 1.4914364e-38 347 274
0.034708988 0.70700002 -0.042146627 1.4732124e-38 348 274
0.03599944 0.708 -0.042206239 1.482432e-38 349 274
0.037345998 0.70999998 -0.042325463 1.4824673e-38 350 274
0.038645219 0.71100003 -0.042385083 1.4824673e-38 351 274
0.040004052 0.713 -0.042504307 1.4457329e-38 352 274
0.041312039 0.71399999 -0.042563915 1.4365132e-38 353 274
0.042683143 0.71600002 -0.042683143 1.4273664e-38 354 274
0.043999899 0.71700001 -0.042742759 1.436586e-38 355 274
0.045257039 0.71700001 -0.042742759 1.4182212e-38 356 274
0.046514176 0.71700001 -0.042742759 1.4090017e-38 357 274
-0.025353199 0.72299999 -0.044368099 1.4643579e-38 300 275
-0.0239856 0.72000003 -0.044183999 1.3906014e-38 301 275
-0.022691639 0.71899998 -0.044122629 1.5557216e-38 302 275
-0.021371379 0.71700001 -0.043999899 1.5280269e-38 303 275
-0.020086186 0.71600002 -0.043938532 1.5463202e-38 304 275
-0.0188308 0.71600002 -0.043938532 1.5371007e-38 305 275
-0.017526319 0.71399999 -0.043815799 1.5370638e-38 306 275
-0.01620606 0.71100003 -0.043631699 1.5278441e-38 307 275
-0.014959441 0.71100003 -0.043631699 1.5186964e-38 308 275
-0.013693533 0.70999998 -0.043570329 1.5186964e-38 309 275
-0.0124136 0.708 -0.043447599 1.5186609e-38 310 275
-0.011156459 0.70700002 -0.043386232 1.5186609e-38 311 275
-0.0099028256 0.70599997 -0.043324865 1.5278806e-38 312 275
-0.0086404262 0.704 -0.043202132 1.5278806e-38 313 275
-0.0074060797 0.704 -0.043202132 1.5278811e-38 314 275
-0.0061717331 0.704 -0.043202132 1.5278811e-38 315 275
-0.0049303733 0.70300001 -0.043140765 1.5186258e-38 316 275
-0.0036977797 0.70300001 -0.043140765 1.5186258e-38 317 275
-0.0024581731 0.70099998 -0.043018032 1.5186609e-38 318 275
-0.0012290865 0.70099998 -0.043018032 1.5186609e-38 319 275
0 0.70099998 -0.043018032 1.5186962e-38 320 275
0.0012273333 0.69999999 -0.042956665 1.5186962e-38 321 275
0.0024546667 0.69999999 -0.042956665 1.5186246e-38 322 275
0.0036819996 0.69999999 -0.042956665 1.5186246e-38 323 275
0.0049093333 0.69999999 -0.042956665 1.5002577e-38 324 275
0.0061366665 0.69999999 -0.042956665 1.4910382e-38 325 275
0.0073639993 0.69999999 -0.042956665 1.4635593e-38 326 275
0.0085667865 0.69800001 -0.042833932 1.4635593e-38 327 275
0.0097906133 0.69800001 -0.042833932 1.4726353e-38 328 275
0.01101444 0.69800001 -0.042833932 1.4726353e-38 329 275
0.012273333 0.69999999 -0.042956665 1.4725287e-38 330 275
0.013500666 0.69999999 -0.042956665 1.4725287e-38 331 275
0.014727999 0.69999999 -0.042956665 1.4540537e-38 332 275
0.015955333 0.69999999 -0.042956665 1.4632733e-38 333 275
0.017182667 0.69999999 -0.042956665 1.4174617e-38 334 275
0.018436298 0.70099998 -0.043018032 1.4174617e-38 335 275
0.019665385 0.70099998 -0.043018032 1.4357924e-38 336 275
0.020894472 0.70099998 -0.043018032 1.4357924e-38 337 275
0.022123558 0.70099998 -0.043018032 1.4450124e-38 338 275
0.023352645 0.70099998 -0.043018032 1.4450124e-38 339 275
0.024651866 0.70300001 -0.043140765 1.445049e-38 340 275
0.025884461 0.70300001 -0.043140765 1.4543044e-38 341 275
0.027155625 0.704 -0.043202132 1.4176426e-38 342 275
0.028389972 0.704 -0.043202132 1.4453013e-38 343 275
0.029708479 0.70599997 -0.043324865 1.4361546e-38 344 275
0.030946331 0.70599997 -0.043324865 1.4453742e-38 345 275
0.032184184 0.70599997 -0.043324865 1.4269363e-38 346 275
0.033422034 0.70599997 -0.043324865 1.4453755e-38 347 275
0.034708988 0.70700002 -0.043386232 1.4271164e-38 348 275
0.03599944 0.708 -0.043447599 1.436336e-38 349 275
0.037345998 0.70999998 -0.043570329 1.4363707e-38 350 275
0.038645219 0.71100003 -0.043631699 1.4455904e-38 351 275
0.039891839 0.71100003 -0.043631699 1.4181112e-38 352 275
0.041254178 0.713 -0.043754432 1.4088915e-38 353 275
0.042563915 0.71399999 -0.043815799 1.399745e-38 354 275
0.043938532 0.71600002 -0.043938532 1.4366231e-38 355 275
0.045193922 0.71600002 -0.043938532 1.4090027e-38 356 275
0.046449307 0.71600002 -0.043938532 1.4182581e-38 357 275
0.047704693 0.71600002 -0.043938532 1.6033738e-38 358 275
-0.025318133 0.722 -0.045572639 1.4553185e-38 300 276
-0.023952285 0.71899998 -0.045383278 1.3723064e-38 301 276
-0.022691639 0.71899998 -0.045383278 1.5282071e-38 302 276
-0.021371379 0.71700001 -0.045257039 1.4913647e-38 303 276
-0.020086186 0.71600002 -0.045193922 1.5370651e-38 304 276
-0.0188308 0.71600002 -0.045193922 1.5278455e-38 305 276
-0.017501773 0.713 -0.045004558 1.5186962e-38 306 276
-0.01620606 0.71100003 -0.044878319 1.5186962e-38 307 276
-0.014938398 0.70999998 -0.044815198 1.5186962e-38 308 276
-0.013693533 0.70999998 -0.044815198 1.5002931e-38 309 276
-0.012396066 0.70700002 -0.044625837 1.5186609e-38 310 276
-0.011140679 0.70599997 -0.044562716 1.5002577e-38 311 276
-0.0099028256 0.70599997 -0.044562716 1.5186609e-38 312 276
-0.0086404262 0.704 -0.044436477 1.5002577e-38 313 276
-0.0074060797 0.704 -0.044436477 1.5186611e-38 314 276
-0.0061629666 0.70300001 -0.04437336 1.500258e-38 315 276
-0.0049303733 0.70300001 -0.04437336 1.5002224e-38 316 276
-0.0036977797 0.70300001 -0.04437336 1.5002224e-38 317 276
-0.0024581731 0.70099998 -0.044247117 1.4911101e-38 318 276
-0.0012290865 0.70099998 -0.044247117 1.4911101e-38 319 276
0 0.70099998 -0.044247117 1.4910379e-38 320 276
0.0012273333 0.69999999 -0.044183996 1.4910379e-38 321 276
0.0024546667 0.69999999 -0.044183996 1.509405e-38 322 276
0.0036714801 0.69800001 -0.04405776 1.509405e-38 323 276
0.0048953067 0.69800001 -0.04405776 1.4910735e-38 324 276
0.006119133 0.69800001 -0.04405776 1.4818539e-38 325 276
0.0073429602 0.69800001 -0.04405776 1.4726704e-38 326 276
0.0085667865 0.69800001 -0.04405776 1.4542673e-38 327 276
0.0097906133 0.69800001 -0.04405776 1.4633439e-38 328 276
0.01101444 0.69800001 -0.04405776 1.4541242e-38 329 276
0.012238266 0.69800001 -0.04405776 1.4540526e-38 330 276
0.013462093 0.69800001 -0.04405776 1.4540526e-38 331 276
0.01468592 0.69800001 -0.04405776 1.4264659e-38 332 276
0.015909746 0.69800001 -0.04405776 1.4264659e-38 333 276
0.017182667 0.69999999 -0.044183996 1.4264659e-38 334 276
0.018409999 0.69999999 -0.044183996 1.4356855e-38 335 276
0.019637333 0.69999999 -0.044183996 1.4265734e-38 336 276
0.020864666 0.69999999 -0.044183996 1.4265734e-38 337 276
0.022123558 0.70099998 -0.044247117 1.435793e-38 338 276
0.023352645 0.70099998 -0.044247117 1.435793e-38 339 276
0.024651866 0.70300001 -0.04437336 1.4174261e-38 340 276
0.025884461 0.70300001 -0.04437336 1.4358294e-38 341 276
0.027117053 0.70300001 -0.04437336 1.4084234e-38 342 276
0.028389972 0.704 -0.044436477 1.4268625e-38 343 276
0.029708479 0.70599997 -0.044562716 1.4176442e-38 344 276
0.030946331 0.70599997 -0.044562716 1.4268998e-38 345 276
0.032184184 0.70599997 -0.044562716 1.4268289e-38 346 276
0.033422034 0.70599997 -0.044562716 1.4360843e-38 347 276
0.034708988 0.70700002 -0.044625837 1.4361562e-38 348 276
0.03599944 0.708 -0.044688959 1.4453757e-38 349 276
0.037345998 0.70999998 -0.044815198 1.4271514e-38 350 276
0.038590867 0.70999998 -0.044815198 1.436371e-38 351 276
0.039891839 0.71100003 -0.044878319 1.4088915e-38 352 276
0.041138459 0.71100003 -0.044878319 1.4088915e-38 353 276
0.042504307 0.713 -0.045004558 1.4088565e-38 354 276
0.043938532 0.71600002 -0.045193922 1.4365512e-38 355 276
0.045193922 0.71600002 -0.045193922 1.4090029e-38 356 276
0.046449307 0.71600002 -0.045193922 1.4274422e-38 357 276
0.047704693 0.71600002 -0.045193922 1.6033017e-38 358 276
0.048960082 0.71600002 -0.045193922 1.7969125e-38 359 276
-0.026510401 0.72000003 -0.0467088 1.3920095e-38 299 277
-0.025212931 0.71899998 -0.046643924 1.4553185e-38 300 277
-0.023952285 0.71899998 -0.046643924 1.3723064e-38 301 277
-0.02262852 0.71700001 -0.046514176 1.5282073e-38 302 277
-0.021371379 0.71700001 -0.046514176 1.4913291e-38 303 277
-0.020114239 0.71700001 -0.046514176 1.5371373e-38 304 277
-0.018778199 0.71399999 -0.046319555 1.5095146e-38 305 277
-0.017501773 0.713 -0.046254687 1.5095493e-38 306 277
-0.01620606 0.71100003 -0.046124939 1.4911101e-38 307 277
-0.014938398 0.70999998 -0.046060063 1.5002577e-38 308 277
-0.013654959 0.708 -0.045930319 1.5002577e-38 309 277
-0.012396066 0.70700002 -0.045865446 1.4911103e-38 310 277
-0.011140679 0.70599997 -0.04580057 1.4818549e-38 311 277
-0.0099028256 0.70599997 -0.04580057 1.4818905e-38 312 277
-0.0086404262 0.704 -0.045670826 1.4818905e-38 313 277
-0.0074060797 0.704 -0.045670826 1.4818902e-38 314 277
-0.0061629666 0.70300001 -0.04560595 1.4818902e-38 315 277
-0.0049303733 0.70300001 -0.04560595 1.4818902e-38 316 277
-0.0036977797 0.70300001 -0.04560595 1.4818902e-38 317 277
-0.0024581731 0.70099998 -0.045476202 1.4818902e-38 318 277
-0.0012290865 0.70099998 -0.045476202 1.4726707e-38 319 277
0 0.69999999 -0.04541133 1.4726704e-38 320 277
0.0012273333 0.69999999 -0.04541133 1.4726704e-38 321 277
0.0024476533 0.69800001 -0.045281585 1.4909656e-38 322 277
0.0036714801 0.69800001 -0.045281585 1.4909656e-38 323 277
0.0048953067 0.69800001 -0.045281585 1.4542675e-38 324 277
0.006119133 0.69800001 -0.045281585 1.445048e-38 325 277
0.0073429602 0.69800001 -0.045281585 1.4450127e-38 326 277
0.0085667865 0.69800001 -0.045281585 1.435793e-38 327 277
0.0097906133 0.69800001 -0.045281585 1.4447974e-38 328 277
0.01101444 0.69800001 -0.045281585 1.4447974e-38 329 277
0.012238266 0.69800001 -0.045281585 1.4264662e-38 330 277
0.013442807 0.69700003 -0.045216713 1.4264662e-38 331 277
0.01466488 0.69700003 -0.045216713 1.4263583e-38 332 277
0.015909746 0.69800001 -0.045281585 1.4263583e-38 333 277
0.017182667 0.69999999 -0.04541133 1.38966e-38 334 277
0.018409999 0.69999999 -0.04541133 1.4173185e-38 335 277
0.019637333 0.69999999 -0.04541133 1.398987e-38 336 277
0.020864666 0.69999999 -0.04541133 1.3897675e-38 337 277
0.022091998 0.69999999 -0.04541133 1.3989517e-38 338 277
0.023319334 0.69999999 -0.04541133 1.3989517e-38 339 277
0.024581732 0.70099998 -0.045476202 1.3714372e-38 340 277
0.025810819 0.70099998 -0.045476202 1.3806568e-38 341 277
0.027039904 0.70099998 -0.045476202 1.3807288e-38 342 277
0.028389972 0.704 -0.045670826 1.3992038e-38 343 277
0.029624319 0.704 -0.045670826 1.3808017e-38 344 277
0.030858666 0.704 -0.045670826 1.4084602e-38 345 277
0.032184184 0.70599997 -0.04580057 1.4084252e-38 346 277
0.033422034 0.70599997 -0.04580057 1.4268645e-38 347 277
0.034708988 0.70700002 -0.045865446 1.4084976e-38 348 277
0.03599944 0.708 -0.045930319 1.4084976e-38 349 277
0.037345998 0.70999998 -0.046060063 1.3903452e-38 350 277
0.038590867 0.70999998 -0.046060063 1.3995648e-38 351 277
0.039891839 0.71100003 -0.046124939 1.3996001e-38 352 277
0.041138459 0.71100003 -0.046124939 1.3996001e-38 353 277
0.042504307 0.713 -0.046254687 1.3996372e-38 354 277
0.043938532 0.71600002 -0.046449307 1.4272961e-38 355 277
0.045193922 0.71600002 -0.046449307 1.3997834e-38 356 277
0.046514176 0.71700001 -0.046514176 1.4274422e-38 357 277
0.04777132 0.71700001 -0.046514176 1.6032298e-38 358 277
0.04902846 0.71700001 -0.046514176 1.8152437e-38 359 277
-0.026510401 0.72000003 -0.0479712 1.4473269e-38 299 278
-0.025212931 0.71899998 -0.04790457 1.436951e-38 300 278
-0.02388566 0.71700001 -0.04777132 1.3447554e-38 301 278
-0.02262852 0.71700001 -0.04777132 1.5282792e-38 302 278
-0.021371379 0.71700001 -0.04777132 1.4821814e-38 303 278
-0.020086186 0.71600002 -0.047704693 1.4912194e-38 304 278
-0.018751899 0.713 -0.047504812 1.4819998e-38 305 278
-0.017501773 0.713 -0.047504812 1.4819984e-38 306 278
-0.01620606 0.71100003 -0.047371563 1.4727788e-38 307 278
-0.014938398 0.70999998 -0.047304932 1.4911101e-38 308 278
-0.013654959 0.708 -0.047171678 1.4911101e-38 309 278
-0.012396066 0.70700002 -0.047105055 1.4911101e-38 310 278
-0.011140679 0.70599997 -0.047038425 1.4818905e-38 311 278
-0.0099028256 0.70599997 -0.047038425 1.4726704e-38 312 278
-0.0086404262 0.704 -0.046905171 1.4726704e-38 313 278
-0.0074060797 0.704 -0.046905171 1.4543747e-38 314 278
-0.0061629666 0.70300001 -0.046838548 1.4543747e-38 315 278
-0.0049303733 0.70300001 -0.046838548 1.4543392e-38 316 278
-0.0036977797 0.70300001 -0.046838548 1.4451196e-38 317 278
-0.0024581731 0.70099998 -0.046705291 1.4542675e-38 318 278
-0.0012290865 0.70099998 -0.046705291 1.4542675e-38 319 278
0 0.69999999 -0.046638668 1.4451196e-38 320 278
0.0012273333 0.69999999 -0.046638668 1.4451196e-38 321 278
0.0024476533 0.69800001 -0.046505414 1.4541595e-38 322 278
0.0036714801 0.69800001 -0.046505414 1.4633792e-38 323 278
0.0048953067 0.69800001 -0.046505414 1.4450124e-38 324 278
0.006119133 0.69800001 -0.046505414 1.4450124e-38 325 278
0.0073429602 0.69800001 -0.046505414 1.4449771e-38 326 278
0.0085545136 0.69700003 -0.046438783 1.4265378e-38 327 278
0.0097765867 0.69700003 -0.046438783 1.4264662e-38 328 278
0.01101444 0.69800001 -0.046505414 1.4172466e-38 329 278
0.012238266 0.69800001 -0.046505414 1.4080631e-38 330 278
0.013442807 0.69700003 -0.046438783 1.38966e-38 331 278
0.01466488 0.69700003 -0.046438783 1.4079912e-38 332 278
0.015909746 0.69800001 -0.046505414 1.4079912e-38 333 278
0.017182667 0.69999999 -0.046638668 1.3621455e-38 334 278
0.018409999 0.69999999 -0.046638668 1.3621455e-38 335 278
0.019637333 0.69999999 -0.046638668 1.3621455e-38 336 278
0.020864666 0.69999999 -0.046638668 1.3529259e-38 337 278
0.022091998 0.69999999 -0.046638668 1.362146e-38 338 278
0.023319334 0.69999999 -0.046638668 1.362146e-38 339 278
0.024581732 0.70099998 -0.046705291 1.3622179e-38 340 278
0.025810819 0.70099998 -0.046705291 1.3622179e-38 341 278
0.027039904 0.70099998 -0.046705291 1.3531063e-38 342 278
0.028349647 0.70300001 -0.046838548 1.3807291e-38 343 278
0.029582238 0.70300001 -0.046838548 1.3716177e-38 344 278
0.030858666 0.704 -0.046905171 1.3808373e-38 345 278
0.032093015 0.704 -0.046905171 1.3992053e-38 346 278
0.033422034 0.70599997 -0.047038425 1.4084249e-38 347 278
0.034708988 0.70700002 -0.047105055 1.3809107e-38 348 278
0.03599944 0.708 -0.047171678 1.3901303e-38 349 278
0.037345998 0.70999998 -0.047304932 1.3718705e-38 350 278
0.038590867 0.70999998 -0.047304932 1.3811259e-38 351 278
0.039891839 0.71100003 -0.047371563 1.3811257e-38 352 278
0.041138459 0.71100003 -0.047371563 1.3811257e-38 353 278
0.042504307 0.713 -0.047504812 1.3720153e-38 354 278
0.043815799 0.71399999 -0.047571439 1.39971e-38 355 278
0.045067675 0.71399999 -0.047571439 1.3997837e-38 356 278
0.046449307 0.71600002 -0.047704693 1.4274425e-38 357 278
0.04777132 0.71700001 -0.04777132 1.6125568e-38 358 278
0.04902846 0.71700001 -0.04777132 1.8061318e-38 359 278
-0.026510401 0.72000003 -0.0492336 1.5027522e-38 299 279
-0.025212931 0.71899998 -0.049165215 1.400253e-38 300 279
-0.02388566 0.71700001 -0.04902846 1.3080213e-38 301 279
-0.02262852 0.71700001 -0.04902846 1.491618e-38 302 279
-0.021371379 0.71700001 -0.04902846 1.4547399e-38 303 279
-0.020086186 0.71600002 -0.048960082 1.4912209e-38 304 279
-0.018751899 0.713 -0.048754938 1.4635982e-38 305 279
-0.017501773 0.713 -0.048754938 1.4819634e-38 306 279
-0.01620606 0.71100003 -0.048618179 1.4727438e-38 307 279
-0.014938398 0.70999998 -0.048549797 1.4727788e-38 308 279
-0.013693533 0.70999998 -0.048549797 1.4635593e-38 309 279
-0.0124136 0.708 -0.048413038 1.4726704e-38 310 279
-0.011156459 0.70700002 -0.048344657 1.4726704e-38 311 279
-0.0099028256 0.70599997 -0.048276275 1.4727057e-38 312 279
-0.0086404262 0.704 -0.048139516 1.4727057e-38 313 279
-0.0074060797 0.704 -0.048139516 1.4451549e-38 314 279
-0.0061629666 0.70300001 -0.048071139 1.4451549e-38 315 279
-0.0049303733 0.70300001 -0.048071139 1.4450474e-38 316 279
-0.0036977797 0.70300001 -0.048071139 1.4450474e-38 317 279
-0.0024581731 0.70099998 -0.047934376 1.4725266e-38 318 279
-0.0012290865 0.70099998 -0.047934376 1.4633069e-38 319 279
0 0.69999999 -0.047865998 1.4541589e-38 320 279
0.0012273333 0.69999999 -0.047865998 1.4541589e-38 321 279
0.0024476533 0.69800001 -0.047729239 1.4541592e-38 322 279
0.0036714801 0.69800001 -0.047729239 1.4357561e-38 323 279
0.0048953067 0.69800001 -0.047729239 1.435793e-38 324 279
0.006119133 0.69800001 -0.047729239 1.4450127e-38 325 279
0.00733244 0.69700003 -0.047660861 1.4174261e-38 326 279
0.0085545136 0.69700003 -0.047660861 1.4174261e-38 327 279
0.0097765867 0.69700003 -0.047660861 1.4173185e-38 328 279
0.01099866 0.69700003 -0.047660861 1.4080631e-38 329 279
0.012220734 0.69700003 -0.047660861 1.4079912e-38 330 279
0.013462093 0.69800001 -0.047729239 1.4079912e-38 331 279
0.01468592 0.69800001 -0.047729239 1.3987719e-38 332 279
0.015909746 0.69800001 -0.047729239 1.3987719e-38 333 279
0.017182667 0.69999999 -0.047865998 1.3621458e-38 334 279
0.018409999 0.69999999 -0.047865998 1.3621458e-38 335 279
0.019637333 0.69999999 -0.047865998 1.3712577e-38 336 279
0.020864666 0.69999999 -0.047865998 1.3712577e-38 337 279
0.022091998 0.69999999 -0.047865998 1.3529265e-38 338 279
0.023319334 0.69999999 -0.047865998 1.343671e-38 339 279
0.024581732 0.70099998 -0.047934376 1.3529259e-38 340 279
0.025810819 0.70099998 -0.047934376 1.3621455e-38 341 279
0.027039904 0.70099998 -0.047934376 1.3439215e-38 342 279
0.028349647 0.70300001 -0.048071139 1.3623606e-38 343 279
0.029582238 0.70300001 -0.048071139 1.3624325e-38 344 279
0.030858666 0.704 -0.048139516 1.3624325e-38 345 279
0.032093015 0.704 -0.048139516 1.389984e-38 346 279
0.033422034 0.70599997 -0.048276275 1.3992035e-38 347 279
0.034708988 0.70700002 -0.048344657 1.371689e-38 348 279
0.03599944 0.708 -0.048413038 1.3809086e-38 349 279
0.037345998 0.70999998 -0.048549797 1.3809089e-38 350 279
0.038590867 0.70999998 -0.048549797 1.3809089e-38 351 279
0.039891839 0.71100003 -0.048618179 1.380981e-38 352 279
0.041138459 0.71100003 -0.048618179 1.3902006e-38 353 279
0.042504307 0.713 -0.048754938 1.3627588e-38 354 279
0.043815799 0.71399999 -0.048823316 1.3996369e-38 355 279
0.045067675 0.71399999 -0.048823316 1.3904917e-38 356 279
0.046449307 0.71600002 -0.048960082 1.4181862e-38 357 279
0.04777132 0.71700001 -0.04902846 1.6218483e-38 358 279
0.04902846 0.71700001 -0.04902846 1.8338982e-38 359 279
-0.026510401 0.72000003 -0.050496001 1.613279e-38 299 280
-0.025212931 0.71899998 -0.050425861 1.4646465e-38 300 280
-0.02388566 0.71700001 -0.0502856 1.3540119e-38 301 280
-0.02262852 0.71700001 -0.0502856 1.4733587e-38 302 280
-0.021371379 0.71700001 -0.0502856 1.4180415e-38 303 280
-0.020086186 0.71600002 -0.050215468 1.4637417e-38 304 280
-0.018751899 0.713 -0.050005067 1.436119e-38 305 280
-0.017501773 0.713 -0.050005067 1.4728157e-38 306 280
-0.01620606 0.71100003 -0.049864799 1.4728157e-38 307 280
-0.014938398 0.70999998 -0.049794663 1.4452641e-38 308 280
-0.013693533 0.70999998 -0.049794663 1.4452641e-38 309 280
-0.0124136 0.708 -0.049654398 1.4452275e-38 310 280
-0.011156459 0.70700002 -0.049584266 1.4360079e-38 311 280
-0.0099028256 0.70599997 -0.04951413 1.4543742e-38 312 280
-0.0086404262 0.704 -0.049373865 1.4451546e-38 313 280
-0.0074060797 0.704 -0.049373865 1.4268231e-38 314 280
-0.0061629666 0.70300001 -0.049303733 1.4268231e-38 315 280
-0.0049303733 0.70300001 -0.049303733 1.4450474e-38 316 280
-0.0036977797 0.70300001 -0.049303733 1.4450474e-38 317 280
-0.0024581731 0.70099998 -0.049163464 1.4357924e-38 318 280
-0.0012290865 0.70099998 -0.049163464 1.4357924e-38 319 280
0 0.69999999 -0.049093332 1.4174968e-38 320 280
0.0012273333 0.69999999 -0.049093332 1.4174968e-38 321 280
0.0024476533 0.69800001 -0.048953064 1.4082419e-38 322 280
0.0036714801 0.69800001 -0.048953064 1.4174615e-38 323 280
0.0048953067 0.69800001 -0.048953064 1.4082789e-38 324 280
0.006119133 0.69800001 -0.048953064 1.4174985e-38 325 280
0.00733244 0.69700003 -0.048882935 1.3899121e-38 326 280
0.0085545136 0.69700003 -0.048882935 1.3714728e-38 327 280
0.0097765867 0.69700003 -0.048882935 1.3989514e-38 328 280
0.01099866 0.69700003 -0.048882935 1.3897319e-38 329 280
0.012220734 0.69700003 -0.048882935 1.3621811e-38 330 280
0.013462093 0.69800001 -0.048953064 1.3621811e-38 331 280
0.01468592 0.69800001 -0.048953064 1.3346303e-38 332 280
0.015909746 0.69800001 -0.048953064 1.3346303e-38 333 280
0.017182667 0.69999999 -0.049093332 1.3345594e-38 334 280
0.018409999 0.69999999 -0.049093332 1.3253398e-38 335 280
0.019637333 0.69999999 -0.049093332 1.343636e-38 336 280
0.020864666 0.69999999 -0.049093332 1.3528556e-38 337 280
0.022091998 0.69999999 -0.049093332 1.3436713e-38 338 280
0.023319334 0.69999999 -0.049093332 1.3528909e-38 339 280
0.024581732 0.70099998 -0.049163464 1.3529262e-38 340 280
0.025810819 0.70099998 -0.049163464 1.3621458e-38 341 280
0.027039904 0.70099998 -0.049163464 1.3256265e-38 342 280
0.028268991 0.70099998 -0.049163464 1.334882e-38 343 280
0.029582238 0.70300001 -0.049303733 1.3256984e-38 344 280
0.030858666 0.704 -0.049373865 1.334954e-38 345 280
0.032093015 0.704 -0.049373865 1.3623979e-38 346 280
0.033469379 0.70700002 -0.049584266 1.3716174e-38 347 280
0.034708988 0.70700002 -0.049584266 1.3348481e-38 348 280
0.036101133 0.70999998 -0.049794663 1.3440676e-38 349 280
0.037345998 0.70999998 -0.049794663 1.3441398e-38 350 280
0.038590867 0.70999998 -0.049794663 1.3441398e-38 351 280
0.039891839 0.71100003 -0.049864799 1.3350284e-38 352 280
0.041138459 0.71100003 -0.049864799 1.344248e-38 353 280
0.042504307 0.713 -0.050005067 1.3260253e-38 354 280
0.043754432 0.713 -0.050005067 1.3813426e-38 355 280
0.045067675 0.71399999 -0.050075196 1.3447907e-38 356 280
0.046449307 0.71600002 -0.050215468 1.3908885e-38 357 280
0.04777132 0.71700001 -0.0502856 1.6494723e-38 358 280
0.049165215 0.71899998 -0.050425861 1.8983645e-38 359 280
-0.026510401 0.72000003 -0.051758397 1.6870725e-38 299 281
-0.025212931 0.71899998 -0.05168651 1.5386198e-38 300 281
-0.023952285 0.71899998 -0.05168651 1.2989113e-38 301 281
-0.022691639 0.71899998 -0.05168651 1.445809e-38 302 281
-0.021430992 0.71899998 -0.05168651 1.4089308e-38 303 281
-0.020114239 0.71700001 -0.051542737 1.454595e-38 304 281
-0.018778199 0.71399999 -0.05132708 1.4361559e-38 305 281
-0.017501773 0.713 -0.051255193 1.4545212e-38 306 281
-0.01620606 0.71100003 -0.051111419 1.4452657e-38 307 281
-0.014938398 0.70999998 -0.051039528 1.4452641e-38 308 281
-0.013693533 0.70999998 -0.051039528 1.4360445e-38 309 281
-0.0124136 0.708 -0.050895758 1.4543747e-38 310 281
-0.011156459 0.70700002 -0.050823875 1.4451193e-38 311 281
-0.0099168532 0.70700002 -0.050823875 1.4268237e-38 312 281
-0.0086649731 0.70599997 -0.050751984 1.4268237e-38 313 281
-0.0074060797 0.704 -0.050608214 1.4268237e-38 314 281
-0.0061717331 0.704 -0.050608214 1.4268237e-38 315 281
-0.0049303733 0.70300001 -0.050536323 1.4176038e-38 316 281
-0.0036977797 0.70300001 -0.050536323 1.4083841e-38 317 281
-0.0024581731 0.70099998 -0.050392549 1.4174965e-38 318 281
-0.0012290865 0.70099998 -0.050392549 1.4174965e-38 319 281
0 0.69999999 -0.050320663 1.4174612e-38 320 281
0.0012273333 0.69999999 -0.050320663 1.4082416e-38 321 281
0.0024546667 0.69999999 -0.050320663 1.4082063e-38 322 281
0.0036714801 0.69800001 -0.050176892 1.4082063e-38 323 281
0.0048953067 0.69800001 -0.050176892 1.3899124e-38 324 281
0.006119133 0.69800001 -0.050176892 1.3806568e-38 325 281
0.00733244 0.69700003 -0.050105009 1.3806217e-38 326 281
0.0085545136 0.69700003 -0.050105009 1.3806217e-38 327 281
0.0097765867 0.69700003 -0.050105009 1.3621105e-38 328 281
0.01099866 0.69700003 -0.050105009 1.3621105e-38 329 281
0.012220734 0.69700003 -0.050105009 1.3529262e-38 330 281
0.013462093 0.69800001 -0.050176892 1.3437066e-38 331 281
0.01468592 0.69800001 -0.050176892 1.343671e-38 332 281
0.015955333 0.69999999 -0.050320663 1.3344513e-38 333 281
0.017182667 0.69999999 -0.050320663 1.334416e-38 334 281
0.018409999 0.69999999 -0.050320663 1.3251965e-38 335 281
0.019637333 0.69999999 -0.050320663 1.3251965e-38 336 281
0.020864666 0.69999999 -0.050320663 1.334416e-38 337 281
0.022091998 0.69999999 -0.050320663 1.3161201e-38 338 281
0.023319334 0.69999999 -0.050320663 1.3161201e-38 339 281
0.024581732 0.70099998 -0.050392549 1.3162275e-38 340 281
0.025810819 0.70099998 -0.050392549 1.3162275e-38 341 281
0.027039904 0.70099998 -0.050392549 1.3071158e-38 342 281
0.028268991 0.70099998 -0.050392549 1.3347385e-38 343 281
0.029582238 0.70300001 -0.050536323 1.3347387e-38 344 281
0.030858666 0.704 -0.050608214 1.3347387e-38 345 281
0.032093015 0.704 -0.050608214 1.3438508e-38 346 281
0.033469379 0.70700002 -0.050823875 1.3531063e-38 347 281
0.034708988 0.70700002 -0.050823875 1.3438508e-38 348 281
0.03599944 0.708 -0.050895758 1.3531063e-38 349 281
0.037345998 0.70999998 -0.051039528 1.3255565e-38 350 281
0.038590867 0.70999998 -0.051039528 1.3439957e-38 351 281
0.039891839 0.71100003 -0.051111419 1.3441398e-38 352 281
0.041138459 0.71100003 -0.051111419 1.3533593e-38 353 281
0.042504307 0.713 -0.051255193 1.3352083e-38 354 281
0.043754432 0.713 -0.051255193 1.362831e-38 355 281
0.045067675 0.71399999 -0.05132708 1.3538661e-38 356 281
0.046449307 0.71600002 -0.051470853 1.4460257e-38 357 281
0.047704693 0.71600002 -0.051470853 1.6587635e-38 358 281
-0.026510401 0.72000003 -0.053020801 1.7240586e-38 299 282
-0.025248 0.72000003 -0.053020801 1.6676218e-38 300 282
-0.023952285 0.71899998 -0.05294716 1.3357176e-38 301 282
-0.022691639 0.71899998 -0.05294716 1.4274055e-38 302 282
-0.021430992 0.71899998 -0.05294716 1.4181859e-38 303 282
-0.020114239 0.71700001 -0.052799881 1.4547025e-38 304 282
-0.0188308 0.71600002 -0.052726239 1.427044e-38 305 282
-0.017501773 0.713 -0.052505318 1.436226e-38 306 282
-0.01620606 0.71100003 -0.052358042 1.4086033e-38 307 282
-0.014959441 0.71100003 -0.052358042 1.4452643e-38 308 282
-0.013693533 0.70999998 -0.052284397 1.4360448e-38 309 282
-0.0124136 0.708 -0.052137118 1.4360079e-38 310 282
-0.011140679 0.70599997 -0.051989835 1.4267884e-38 311 282
-0.0099028256 0.70599997 -0.051989835 1.4451199e-38 312 282
-0.0086649731 0.70599997 -0.051989835 1.4451199e-38 313 282
-0.0074060797 0.704 -0.051842559 1.4267528e-38 314 282
-0.0061717331 0.704 -0.051842559 1.4267528e-38 315 282
-0.0049373866 0.704 -0.051842559 1.4175688e-38 316 282
-0.0036977797 0.70300001 -0.051768921 1.4083132e-38 317 282
-0.0024651866 0.70300001 -0.051768921 1.4082063e-38 318 282
-0.0012290865 0.70099998 -0.051621638 1.4082063e-38 319 282
0 0.69999999 -0.051547997 1.3990233e-38 320 282
0.0012273333 0.69999999 -0.051547997 1.3990233e-38 321 282
0.0024546667 0.69999999 -0.051547997 1.3990239e-38 322 282
0.0036819996 0.69999999 -0.051547997 1.3990239e-38 323 282
0.0048953067 0.69800001 -0.051400717 1.3806938e-38 324 282
0.006119133 0.69800001 -0.051400717 1.3806938e-38 325 282
0.0073429602 0.69800001 -0.051400717 1.3622552e-38 326 282
0.0085667865 0.69800001 -0.051400717 1.3438161e-38 327 282
0.0097906133 0.69800001 -0.051400717 1.3529631e-38 328 282
0.01099866 0.69700003 -0.051327083 1.3345599e-38 329 282
0.012220734 0.69700003 -0.051327083 1.3253401e-38 330 282
0.013462093 0.69800001 -0.051400717 1.3161204e-38 331 282
0.01468592 0.69800001 -0.051400717 1.3251965e-38 332 282
0.015955333 0.69999999 -0.051547997 1.3067934e-38 333 282
0.017182667 0.69999999 -0.051547997 1.3067936e-38 334 282
0.018409999 0.69999999 -0.051547997 1.3067936e-38 335 282
0.019637333 0.69999999 -0.051547997 1.3067934e-38 336 282
0.020864666 0.69999999 -0.051547997 1.3251965e-38 337 282
0.022091998 0.69999999 -0.051547997 1.3069006e-38 338 282
0.023319334 0.69999999 -0.051547997 1.3069006e-38 339 282
0.024581732 0.70099998 -0.051621638 1.2885693e-38 340 282
0.025810819 0.70099998 -0.051621638 1.2885693e-38 341 282
0.027039904 0.70099998 -0.051621638 1.2978256e-38 342 282
0.028268991 0.70099998 -0.051621638 1.3070452e-38 343 282
0.029582238 0.70300001 -0.051768921 1.3071171e-38 344 282
0.030858666 0.704 -0.051842559 1.3071171e-38 345 282
0.032093015 0.704 -0.051842559 1.3071171e-38 346 282
0.033469379 0.70700002 -0.05206348 1.3071171e-38 347 282
0.034708988 0.70700002 -0.05206348 1.316265e-38 348 282
0.03599944 0.708 -0.052137118 1.3346681e-38 349 282
0.037345998 0.70999998 -0.052284397 1.3347407e-38 350 282
0.038590867 0.70999998 -0.052284397 1.3439963e-38 351 282
0.039891839 0.71100003 -0.052358042 1.325773e-38 352 282
0.041138459 0.71100003 -0.052358042 1.3350284e-38 353 282
0.042504307 0.713 -0.052505318 1.3259897e-38 354 282
0.043815799 0.71399999 -0.052578956 1.3536843e-38 355 282
0.045067675 0.71399999 -0.052578956 1.3814171e-38 356 282
0.046449307 0.71600002 -0.052726239 1.5012356e-38 357 282
0.047704693 0.71600002 -0.052726239 1.73252e-38 358 282
-0.026584039 0.722 -0.054433983 1.8068904e-38 299 283
-0.025318133 0.722 -0.054433983 1.7414139e-38 300 283
-0.0239856 0.72000003 -0.054283202 1.3541923e-38 301 283
-0.022723202 0.72000003 -0.054283202 1.4642837e-38 302 283
-0.021460801 0.72000003 -0.054283202 1.4458086e-38 303 283
-0.020170346 0.71899998 -0.054207806 1.4548105e-38 304 283
-0.018857099 0.71700001 -0.054057021 1.4271158e-38 305 283
-0.017526319 0.71399999 -0.053830836 1.4271499e-38 306 283
-0.01620606 0.71100003 -0.053604662 1.4086749e-38 307 283
-0.014959441 0.71100003 -0.053604662 1.445336e-38 308 283
-0.013693533 0.70999998 -0.053529263 1.4269328e-38 309 283
-0.0124136 0.708 -0.053378478 1.4268247e-38 310 283
-0.011140679 0.70599997 -0.053227689 1.4268247e-38 311 283
-0.0099028256 0.70599997 -0.053227689 1.4267533e-38 312 283
-0.0086649731 0.70599997 -0.053227689 1.4267533e-38 313 283
-0.0074060797 0.704 -0.053076904 1.4175703e-38 314 283
-0.0061717331 0.704 -0.053076904 1.3899118e-38 315 283
-0.0049373866 0.704 -0.053076904 1.4173913e-38 316 283
-0.0036977797 0.70300001 -0.053001512 1.4081716e-38 317 283
-0.0024651866 0.70300001 -0.053001512 1.398952e-38 318 283
-0.0012290865 0.70099998 -0.052850723 1.398952e-38 319 283
0 0.69999999 -0.052775331 1.3714375e-38 320 283
0.0012273333 0.69999999 -0.052775331 1.3714375e-38 321 283
0.0024546667 0.69999999 -0.052775331 1.3531428e-38 322 283
0.0036714801 0.69800001 -0.052624546 1.3623625e-38 323 283
0.0048953067 0.69800001 -0.052624546 1.3439963e-38 324 283
0.006119133 0.69800001 -0.052624546 1.3439963e-38 325 283
0.0073429602 0.69800001 -0.052624546 1.3438527e-38 326 283
0.0085667865 0.69800001 -0.052624546 1.3438527e-38 327 283
0.0097906133 0.69800001 -0.052624546 1.3345244e-38 328 283
0.01101444 0.69800001 -0.052624546 1.3253048e-38 329 283
0.012238266 0.69800001 -0.052624546 1.334416e-38 330 283
0.013462093 0.69800001 -0.052624546 1.3251965e-38 331 283
0.01468592 0.69800001 -0.052624546 1.315905e-38 332 283
0.015955333 0.69999999 -0.052775331 1.315905e-38 333 283
0.017182667 0.69999999 -0.052775331 1.3159406e-38 334 283
0.018409999 0.69999999 -0.052775331 1.3066852e-38 335 283
0.019637333 0.69999999 -0.052775331 1.3067208e-38 336 283
0.020864666 0.69999999 -0.052775331 1.3159403e-38 337 283
0.022091998 0.69999999 -0.052775331 1.2976807e-38 338 283
0.023352645 0.70099998 -0.052850723 1.2884611e-38 339 283
0.024581732 0.70099998 -0.052850723 1.2793498e-38 340 283
0.025810819 0.70099998 -0.052850723 1.2793498e-38 341 283
0.027039904 0.70099998 -0.052850723 1.2793863e-38 342 283
0.028349647 0.70300001 -0.053001512 1.2886059e-38 343 283
0.029582238 0.70300001 -0.053001512 1.2978253e-38 344 283
0.030858666 0.704 -0.053076904 1.3070808e-38 345 283
0.032093015 0.704 -0.053076904 1.2978972e-38 346 283
0.033422034 0.70599997 -0.053227689 1.2978972e-38 347 283
0.034708988 0.70700002 -0.053303085 1.3071173e-38 348 283
0.036101133 0.70999998 -0.053529263 1.3163369e-38 349 283
0.037345998 0.70999998 -0.053529263 1.3256286e-38 350 283
0.038590867 0.70999998 -0.053529263 1.3348483e-38 351 283
0.039891839 0.71100003 -0.053604662 1.3258451e-38 352 283
0.041138459 0.71100003 -0.053604662 1.3442843e-38 353 283
0.042504307 0.713 -0.053755447 1.3169134e-38 354 283
0.043754432 0.713 -0.053755447 1.3353165e-38 355 283
0.045067675 0.71399999 -0.053830836 1.4090029e-38 356 283
0.046449307 0.71600002 -0.053981625 1.6118333e-38 357 283
0.047704693 0.71600002 -0.053981625 1.7695059e-38 358 283
-0.026584039 0.722 -0.055699892 1.90827e-38 299 284
-0.025318133 0.722 -0.055699892 1.7877278e-38 300 284
-0.024052227 0.722 -0.055699892 1.3359694e-38 301 284
-0.022723202 0.72000003 -0.055545598 1.4642482e-38 302 284
-0.021460801 0.72000003 -0.055545598 1.445809e-38 303 284
-0.020198401 0.72000003 -0.055545598 1.4365156e-38 304 284
-0.018857099 0.71700001 -0.055314157 1.4088568e-38 305 284
-0.017526319 0.71399999 -0.05508272 1.408855e-38 306 284
-0.016251646 0.713 -0.055005573 1.3904158e-38 307 284
-0.014959441 0.71100003 -0.054851279 1.4270414e-38 308 284
-0.013693533 0.70999998 -0.054774132 1.3994186e-38 309 284
-0.0124136 0.708 -0.054619838 1.4085306e-38 310 284
-0.011140679 0.70599997 -0.054465543 1.3992751e-38 311 284
-0.0099028256 0.70599997 -0.054465543 1.3992032e-38 312 284
-0.0086649731 0.70599997 -0.054465543 1.3992032e-38 313 284
-0.0074060797 0.704 -0.054311249 1.3899124e-38 314 284
-0.0061717331 0.704 -0.054311249 1.3806568e-38 315 284
-0.0049373866 0.704 -0.054311249 1.3714375e-38 316 284
-0.0036977797 0.70300001 -0.054234106 1.3714375e-38 317 284
-0.0024651866 0.70300001 -0.054234106 1.3714372e-38 318 284
-0.0012290865 0.70099998 -0.054079808 1.3622177e-38 319 284
0 0.69999999 -0.054002665 1.3438514e-38 320 284
0.0012273333 0.69999999 -0.054002665 1.3438514e-38 321 284
0.0024546667 0.69999999 -0.054002665 1.3255214e-38 322 284
0.0036714801 0.69800001 -0.053848371 1.334741e-38 323 284
0.0048953067 0.69800001 -0.053848371 1.3254864e-38 324 284
0.006119133 0.69800001 -0.053848371 1.3254864e-38 325 284
0.0073429602 0.69800001 -0.053848371 1.3161949e-38 326 284
0.0085667865 0.69800001 -0.053848371 1.3161949e-38 327 284
0.0097906133 0.69800001 -0.053848371 1.325377e-38 328 284
0.01101444 0.69800001 -0.053848371 1.2977183e-38 329 284
0.012238266 0.69800001 -0.053848371 1.3067934e-38 330 284
0.013462093 0.69800001 -0.053848371 1.2975738e-38 331 284
0.01468592 0.69800001 -0.053848371 1.2884261e-38 332 284
0.015955333 0.69999999 -0.054002665 1.270023e-38 333 284
0.017182667 0.69999999 -0.054002665 1.3067208e-38 334 284
0.018409999 0.69999999 -0.054002665 1.3159403e-38 335 284
0.019637333 0.69999999 -0.054002665 1.2883895e-38 336 284
0.020864666 0.69999999 -0.054002665 1.2883895e-38 337 284
0.022091998 0.69999999 -0.054002665 1.270023e-38 338 284
0.023352645 0.70099998 -0.054079808 1.2607676e-38 339 284
0.024581732 0.70099998 -0.054079808 1.2608397e-38 340 284
0.025810819 0.70099998 -0.054079808 1.2608397e-38 341 284
0.027039904 0.70099998 -0.054079808 1.2700593e-38 342 284
0.028389972 0.704 -0.054311249 1.2885343e-38 343 284
0.029624319 0.704 -0.054311249 1.2793863e-38 344 284
0.030858666 0.704 -0.054311249 1.2978256e-38 345 284
0.032093015 0.704 -0.054311249 1.2794944e-38 346 284
0.033422034 0.70599997 -0.054465543 1.2978975e-38 347 284
0.034708988 0.70700002 -0.054542694 1.3071173e-38 348 284
0.036101133 0.70999998 -0.054774132 1.3163369e-38 349 284
0.037345998 0.70999998 -0.054774132 1.2890023e-38 350 284
0.038590867 0.70999998 -0.054774132 1.2982219e-38 351 284
0.039891839 0.71100003 -0.054851279 1.3075855e-38 352 284
0.041138459 0.71100003 -0.054851279 1.3168051e-38 353 284
0.042504307 0.713 -0.055005573 1.3353168e-38 354 284
0.043754432 0.713 -0.055005573 1.3169137e-38 355 284
0.045067675 0.71399999 -0.05508272 1.4276589e-38 356 284
0.046449307 0.71600002 -0.055237014 1.6765871e-38 357 284
0.047704693 0.71600002 -0.055237014 1.7788343e-38 358 284
-0.025318133 0.722 -0.056965802 1.8524097e-38 300 285
-0.024052227 0.722 -0.056965802 1.3637368e-38 301 285
-0.022723202 0.72000003 -0.056808002 1.5009472e-38 302 285
-0.021460801 0.72000003 -0.056808002 1.4825081e-38 303 285
-0.020198401 0.72000003 -0.056808002 1.4733218e-38 304 285
-0.018857099 0.71700001 -0.056571297 1.4456273e-38 305 285
-0.017575413 0.71600002 -0.056492399 1.4363692e-38 306 285
-0.016251646 0.713 -0.056255698 1.4179301e-38 307 285
-0.014959441 0.71100003 -0.056097899 1.4269694e-38 308 285
-0.01371282 0.71100003 -0.056097899 1.4269694e-38 309 285
-0.012448666 0.70999998 -0.056018997 1.3901635e-38 310 285
-0.011156459 0.70700002 -0.055782299 1.3809439e-38 311 285
-0.0099028256 0.70599997 -0.055703394 1.3992035e-38 312 285
-0.0086649731 0.70599997 -0.055703394 1.389984e-38 313 285
-0.0074060797 0.704 -0.055545598 1.3807288e-38 314 285
-0.0061717331 0.704 -0.055545598 1.353106e-38 315 285
-0.0049373866 0.704 -0.055545598 1.3623256e-38 316 285
-0.0036977797 0.70300001 -0.0554667 1.353106e-38 317 285
-0.0024651866 0.70300001 -0.0554667 1.3622177e-38 318 285
-0.0012290865 0.70099998 -0.055308893 1.3622177e-38 319 285
0 0.69999999 -0.055229999 1.316265e-38 320 285
0.0012273333 0.69999999 -0.055229999 1.3346681e-38 321 285
0.0024546667 0.69999999 -0.055229999 1.3162668e-38 322 285
0.0036714801 0.69800001 -0.0550722 1.3162668e-38 323 285
0.0048953067 0.69800001 -0.0550722 1.2886454e-38 324 285
0.006119133 0.69800001 -0.0550722 1.2794259e-38 325 285
0.0073429602 0.69800001 -0.0550722 1.2977921e-38 326 285
0.0085667865 0.69800001 -0.0550722 1.2977921e-38 327 285
0.0097906133 0.69800001 -0.0550722 1.3161215e-38 328 285
0.01101444 0.69800001 -0.0550722 1.2884987e-38 329 285
0.012238266 0.69800001 -0.0550722 1.2975738e-38 330 285
0.013500666 0.69999999 -0.055229999 1.2975738e-38 331 285
0.014727999 0.69999999 -0.055229999 1.2975738e-38 332 285
0.015955333 0.69999999 -0.055229999 1.2883542e-38 333 285
0.017182667 0.69999999 -0.055229999 1.2700227e-38 334 285
0.018409999 0.69999999 -0.055229999 1.2700227e-38 335 285
0.019637333 0.69999999 -0.055229999 1.270023e-38 336 285
0.020864666 0.69999999 -0.055229999 1.2607676e-38 337 285
0.022123558 0.70099998 -0.055308893 1.2790994e-38 338 285
0.023352645 0.70099998 -0.055308893 1.2790994e-38 339 285
0.024581732 0.70099998 -0.055308893 1.2607681e-38 340 285
0.025810819 0.70099998 -0.055308893 1.2699877e-38 341 285
0.027039904 0.70099998 -0.055308893 1.2608397e-38 342 285
0.028389972 0.704 -0.055545598 1.2792789e-38 343 285
0.029624319 0.704 -0.055545598 1.2701315e-38 344 285
0.030858666 0.704 -0.055545598 1.279351e-38 345 285
0.032093015 0.704 -0.055545598 1.2794591e-38 346 285
0.033422034 0.70599997 -0.055703394 1.2794591e-38 347 285
0.034708988 0.70700002 -0.055782299 1.2980057e-38 348 285
0.036101133 0.70999998 -0.056018997 1.3164088e-38 349 285
0.037345998 0.70999998 -0.056018997 1.2890742e-38 350 285
0.038590867 0.70999998 -0.056018997 1.2982938e-38 351 285
0.039891839 0.71100003 -0.056097899 1.3075502e-38 352 285
0.041138459 0.71100003 -0.056097899 1.3352449e-38 353 285
0.042504307 0.713 -0.056255698 1.344501e-38 354 285
0.043754432 0.713 -0.056255698 1.344501e-38 355 285
0.045067675 0.71399999 -0.0563346 1.5014523e-38 356 285
0.046319555 0.71399999 -0.0563346 1.7596001e-38 357 285
-0.024085538 0.72299999 -0.058312356 1.4743725e-38 301 286
-0.022723202 0.72000003 -0.058070403 1.5287148e-38 302 286
-0.021460801 0.72000003 -0.058070403 1.4734332e-38 303 286
-0.020198401 0.72000003 -0.058070403 1.4642835e-38 304 286
-0.018857099 0.71700001 -0.057828441 1.4181857e-38 305 286
-0.017575413 0.71600002 -0.057747785 1.4456629e-38 306 286
-0.016274439 0.71399999 -0.057586476 1.3903455e-38 307 286
-0.015001519 0.713 -0.057505824 1.4270067e-38 308 286
-0.01371282 0.71100003 -0.057344519 1.399348e-38 309 286
-0.012448666 0.70999998 -0.057263866 1.3810161e-38 310 286
-0.01117224 0.708 -0.057102561 1.3810161e-38 311 286
-0.0099028256 0.70599997 -0.056941248 1.3809076e-38 312 286
-0.0086649731 0.70599997 -0.056941248 1.371688e-38 313 286
-0.0074271196 0.70599997 -0.056941248 1.3624332e-38 314 286
-0.0061717331 0.704 -0.056779943 1.3531776e-38 315 286
-0.0049373866 0.704 -0.056779943 1.3714372e-38 316 286
-0.0037030398 0.704 -0.056779943 1.3714372e-38 317 286
-0.0024651866 0.70300001 -0.056699295 1.3531057e-38 318 286
-0.0012290865 0.70099998 -0.056537982 1.3346666e-38 319 286
0 0.70099998 -0.056537982 1.325412e-38 320 286
0.0012273333 0.69999999 -0.056457333 1.325412e-38 321 286
0.0024546667 0.69999999 -0.056457333 1.3070114e-38 322 286
0.0036819996 0.69999999 -0.056457333 1.3070114e-38 323 286
0.0048953067 0.69800001 -0.056296028 1.2977571e-38 324 286
0.006119133 0.69800001 -0.056296028 1.2977571e-38 325 286
0.0073429602 0.69800001 -0.056296028 1.2793534e-38 326 286
0.0085667865 0.69800001 -0.056296028 1.2977565e-38 327 286
0.0097906133 0.69800001 -0.056296028 1.3067949e-38 328 286
0.01101444 0.69800001 -0.056296028 1.2975753e-38 329 286
0.012238266 0.69800001 -0.056296028 1.2975385e-38 330 286
0.013500666 0.69999999 -0.056457333 1.2883189e-38 331 286
0.014727999 0.69999999 -0.056457333 1.2883186e-38 332 286
0.015955333 0.69999999 -0.056457333 1.2883186e-38 333 286
0.017182667 0.69999999 -0.056457333 1.2699877e-38 334 286
