# .PCD v.7 - Point Cloud Data file format
FIELDS x y z rgb imX imY
SIZE 4 4 4 4 4 4
TYPE F F F F F F
COUNT 1 1 1 1 1 1
WIDTH 836
HEIGHT 1
VIEWPOINT 0 0 0 1 0 0 0
POINTS 836
DATA ascii
0.047304932 0.70999998 -0.038590867 1.4359394e-38 358 271
0.048618179 0.71100003 -0.038645219 1.426684e-38 359 271
0.050005067 0.713 -0.038753927 1.3991332e-38 360 271
0.051255193 0.713 -0.038753927 1.3530354e-38 361 271
0.052505318 0.713 -0.038753927 1.3345244e-38 362 271
0.053830836 0.71399999 -0.038808275 1.3068655e-38 363 271
0.055237014 0.71600002 -0.038916986 1.2332549e-38 364 271
0.056492399 0.71600002 -0.038916986 1.1964125e-38 365 271
0.057828441 0.71700001 -0.038971342 1.0952176e-38 366 271
0.059250388 0.71899998 -0.039080046 1.2242915e-38 367 271
0.060763516 0.722 -0.039243106 1.4472919e-38 368 271
0.062029421 0.722 -0.039243106 1.9174896e-38 369 271
0.063382991 0.72299999 -0.039297458 1.8439141e-38 370 271
-0.015085679 0.71700001 -0.040228479 1.6590153e-38 308 272
-0.013828539 0.71700001 -0.040228479 1.4469652e-38 309 272
-0.012553867 0.71600002 -0.040172372 1.5836336e-38 310 272
-0.01129848 0.71600002 -0.040172372 1.5836336e-38 311 272
-0.010043093 0.71600002 -0.040172372 1.6477703e-38 312 272
-0.0087631596 0.71399999 -0.040060159 1.6293313e-38 313 272
-0.0075007593 0.713 -0.040004052 1.6385487e-38 314 272
-0.0062330998 0.71100003 -0.039891839 1.6293291e-38 315 272
-0.0049794666 0.70999998 -0.039835732 1.6292941e-38 316 272
-0.0037345996 0.70999998 -0.039835732 1.6200745e-38 317 272
-0.00248272 0.708 -0.039723519 1.6566313e-38 318 272
-0.0012396066 0.70700002 -0.039667413 1.6658509e-38 319 272
0 0.70700002 -0.039667413 1.6658509e-38 320 272
0.0012378532 0.70599997 -0.039611302 1.6934735e-38 321 272
0.0024686933 0.704 -0.039499093 1.6659575e-38 322 272
0.0037030398 0.704 -0.039499093 1.6751771e-38 323 272
0.0049373866 0.704 -0.039499093 1.6659212e-38 324 272
0.0061629666 0.70300001 -0.039442986 1.6474462e-38 325 272
0.0073745195 0.70099998 -0.039330769 1.6474818e-38 326 272
0.0086036054 0.70099998 -0.039330769 1.6567014e-38 327 272
0.0098607466 0.70300001 -0.039442986 1.6475534e-38 328 272
0.01109334 0.70300001 -0.039442986 1.6383338e-38 329 272
0.012325933 0.70300001 -0.039442986 1.6384415e-38 330 272
0.013519952 0.70099998 -0.039330769 1.6384415e-38 331 272
0.014749039 0.70099998 -0.039330769 1.6292585e-38 332 272
0.015978126 0.70099998 -0.039330769 1.6385139e-38 333 272
0.017207211 0.70099998 -0.039330769 1.5926326e-38 334 272
0.018436298 0.70099998 -0.039330769 1.6111076e-38 335 272
0.019665385 0.70099998 -0.039330769 1.5928478e-38 336 272
0.020864666 0.69999999 -0.039274666 1.6112509e-38 337 272
0.022091998 0.69999999 -0.039274666 1.5838434e-38 338 272
0.023319334 0.69999999 -0.039274666 1.6022465e-38 339 272
0.024581732 0.70099998 -0.039330769 1.5746238e-38 340 272
0.025810819 0.70099998 -0.039330769 1.5654041e-38 341 272
0.027039904 0.70099998 -0.039330769 1.5468578e-38 342 272
0.028268991 0.70099998 -0.039330769 1.5191632e-38 343 272
0.029582238 0.70300001 -0.039442986 1.4545192e-38 344 272
0.030814834 0.70300001 -0.039442986 1.4452997e-38 345 272
0.032047424 0.70300001 -0.039442986 1.4820337e-38 346 272
0.033280019 0.70300001 -0.039442986 1.4820337e-38 347 272
0.034512613 0.70300001 -0.039442986 1.4819258e-38 348 272
0.035745207 0.70300001 -0.039442986 1.4726704e-38 349 272
0.037030395 0.704 -0.039499093 1.4267177e-38 350 272
0.038264744 0.704 -0.039499093 1.4267177e-38 351 272
0.039611302 0.70599997 -0.039611302 1.4359376e-38 352 272
0.040849157 0.70599997 -0.039611302 1.4451571e-38 353 272
0.042146627 0.70700002 -0.039667413 1.4635605e-38 354 272
0.043386232 0.70700002 -0.039667413 1.4635605e-38 355 272
0.044625837 0.70700002 -0.039667413 1.4451224e-38 356 272
0.045865446 0.70700002 -0.039667413 1.4451224e-38 357 272
0.047304932 0.70999998 -0.039835732 1.4083527e-38 358 272
0.048549797 0.70999998 -0.039835732 1.3991332e-38 359 272
0.049864799 0.71100003 -0.039891839 1.3991335e-38 360 272
0.051111419 0.71100003 -0.039891839 1.3622552e-38 361 272
0.052505318 0.713 -0.040004052 1.3346328e-38 362 272
0.053755447 0.713 -0.040004052 1.2977906e-38 363 272
0.05508272 0.71399999 -0.040060159 1.2518018e-38 364 272
0.056492399 0.71600002 -0.040172372 1.2149237e-38 365 272
0.057747785 0.71600002 -0.040172372 1.0953605e-38 366 272
0.059332799 0.72000003 -0.040396802 1.1506779e-38 367 272
0.060763516 0.722 -0.040509012 1.3917577e-38 368 272
0.062029421 0.722 -0.040509012 1.9264924e-38 369 272
0.063295327 0.722 -0.040509012 1.8531338e-38 370 272
-0.015085679 0.71700001 -0.041485619 1.6127366e-38 308 273
-0.013828539 0.71700001 -0.041485619 1.4283093e-38 309 273
-0.012553867 0.71600002 -0.041427758 1.5652298e-38 310 273
-0.01129848 0.71600002 -0.041427758 1.5560102e-38 311 273
-0.010043093 0.71600002 -0.041427758 1.6018527e-38 312 273
-0.0087631596 0.71399999 -0.041312039 1.5833777e-38 313 273
-0.0075007593 0.713 -0.041254178 1.5926313e-38 314 273
-0.0062330998 0.71100003 -0.041138459 1.5926313e-38 315 273
-0.0049794666 0.70999998 -0.041080594 1.6017077e-38 316 273
-0.00372408 0.708 -0.040964879 1.5924881e-38 317 273
-0.00248272 0.708 -0.040964879 1.6106773e-38 318 273
-0.0012396066 0.70700002 -0.040907022 1.619897e-38 319 273
0 0.70599997 -0.040849157 1.6015304e-38 320 273
0.0012343467 0.704 -0.040733438 1.6291531e-38 321 273
0.0024686933 0.704 -0.040733438 1.6108569e-38 322 273
0.0036977797 0.70300001 -0.040675577 1.6016373e-38 323 273
0.0049303733 0.70300001 -0.040675577 1.6016005e-38 324 273
0.0061454331 0.70099998 -0.040559858 1.5831612e-38 325 273
0.0073745195 0.70099998 -0.040559858 1.5832331e-38 326 273
0.0085913334 0.69999999 -0.040502001 1.56483e-38 327 273
0.0098186666 0.69999999 -0.040502001 1.5832334e-38 328 273
0.011061779 0.70099998 -0.040559858 1.5647944e-38 329 273
0.012325933 0.70300001 -0.040675577 1.5831978e-38 330 273
0.013519952 0.70099998 -0.040559858 1.5924175e-38 331 273
0.014749039 0.70099998 -0.040559858 1.5648313e-38 332 273
0.015978126 0.70099998 -0.040559858 1.5833064e-38 333 273
0.017207211 0.70099998 -0.040559858 1.5650115e-38 334 273
0.018436298 0.70099998 -0.040559858 1.574231e-38 335 273
0.019665385 0.70099998 -0.040559858 1.5744098e-38 336 273
0.020864666 0.69999999 -0.040502001 1.592885e-38 337 273
0.022091998 0.69999999 -0.040502001 1.5928844e-38 338 273
0.023319334 0.69999999 -0.040502001 1.5928844e-38 339 273
0.024546666 0.69999999 -0.040502001 1.5653333e-38 340 273
0.025810819 0.70099998 -0.040559858 1.5468941e-38 341 273
0.027039904 0.70099998 -0.040559858 1.5467496e-38 342 273
0.028268991 0.70099998 -0.040559858 1.5098713e-38 343 273
0.029498078 0.70099998 -0.040559858 1.4637392e-38 344 273
0.030727165 0.70099998 -0.040559858 1.4452641e-38 345 273
0.031956252 0.70099998 -0.040559858 1.4176429e-38 346 273
0.033280019 0.70300001 -0.040675577 1.4176429e-38 347 273
0.034512613 0.70300001 -0.040675577 1.4360095e-38 348 273
0.035745207 0.70300001 -0.040675577 1.4267899e-38 349 273
0.036977798 0.70300001 -0.040675577 1.4084584e-38 350 273
0.038264744 0.704 -0.040733438 1.4084584e-38 351 273
0.039499093 0.704 -0.040733438 1.4084231e-38 352 273
0.040849157 0.70599997 -0.040849157 1.4176426e-38 353 273
0.042087011 0.70599997 -0.040849157 1.3901287e-38 354 273
0.043324865 0.70599997 -0.040849157 1.3901287e-38 355 273
0.044562716 0.70599997 -0.040849157 1.4175726e-38 356 273
0.045865446 0.70700002 -0.040907022 1.408353e-38 357 273
0.047171678 0.708 -0.040964879 1.3992407e-38 358 273
0.048549797 0.70999998 -0.041080594 1.3992407e-38 359 273
0.049864799 0.71100003 -0.041138459 1.343996e-38 360 273
0.051111419 0.71100003 -0.041138459 1.3347763e-38 361 273
0.052505318 0.713 -0.041254178 1.3163019e-38 362 273
0.053755447 0.713 -0.041254178 1.2978269e-38 363 273
0.05508272 0.71399999 -0.041312039 1.2701341e-38 364 273
0.0563346 0.71399999 -0.041312039 1.2609144e-38 365 273
0.057747785 0.71600002 -0.041427758 1.1597177e-38 366 273
0.059250388 0.71899998 -0.041601337 1.1965958e-38 367 273
0.060595199 0.72000003 -0.041659199 1.3636665e-38 368 273
0.062029421 0.722 -0.041774917 1.9721936e-38 369 273
0.063295327 0.722 -0.041774917 1.853206e-38 370 273
-0.016388407 0.71899998 -0.042861983 1.8439492e-38 307 274
-0.01512776 0.71899998 -0.042861983 1.5480918e-38 308 274
-0.013828539 0.71700001 -0.042742759 1.4190179e-38 309 274
-0.0125714 0.71700001 -0.042742759 1.5834894e-38 310 274
-0.01129848 0.71600002 -0.042683143 1.5834894e-38 311 274
-0.01001504 0.71399999 -0.042563915 1.5925976e-38 312 274
-0.0087508867 0.713 -0.042504307 1.5741584e-38 313 274
-0.0074797203 0.71100003 -0.042385083 1.5924884e-38 314 274
-0.0062243328 0.70999998 -0.042325463 1.5832328e-38 315 274
-0.0049794666 0.70999998 -0.042325463 1.6016361e-38 316 274
-0.00372408 0.708 -0.042206239 1.5831609e-38 317 274
-0.00248272 0.708 -0.042206239 1.6014927e-38 318 274
-0.0012396066 0.70700002 -0.042146627 1.6107123e-38 319 274
0 0.70599997 -0.042087011 1.6014574e-38 320 274
0.0012343467 0.704 -0.041967787 1.6198967e-38 321 274
0.0024686933 0.704 -0.041967787 1.6199323e-38 322 274
0.0036977797 0.70300001 -0.041908171 1.6199323e-38 323 274
0.0049303733 0.70300001 -0.041908171 1.6014924e-38 324 274
0.0061454331 0.70099998 -0.041788943 1.5830893e-38 325 274
0.0073639993 0.69999999 -0.041729331 1.5647218e-38 326 274
0.0085913334 0.69999999 -0.041729331 1.5555023e-38 327 274
0.0098186666 0.69999999 -0.041729331 1.5646502e-38 328 274
0.011061779 0.70099998 -0.041788943 1.5646502e-38 329 274
0.012325933 0.70300001 -0.041908171 1.5646146e-38 330 274
0.013500666 0.69999999 -0.041729331 1.5738701e-38 331 274
0.014727999 0.69999999 -0.041729331 1.5646149e-38 332 274
0.015955333 0.69999999 -0.041729331 1.583054e-38 333 274
0.017182667 0.69999999 -0.041729331 1.5647947e-38 334 274
0.018436298 0.70099998 -0.041788943 1.6108925e-38 335 274
0.019637333 0.69999999 -0.041729331 1.5560423e-38 336 274
0.020864666 0.69999999 -0.041729331 1.5836651e-38 337 274
0.022091998 0.69999999 -0.041729331 1.5836651e-38 338 274
0.023319334 0.69999999 -0.041729331 1.5836651e-38 339 274
0.024546666 0.69999999 -0.041729331 1.5468225e-38 340 274
0.025773998 0.69999999 -0.041729331 1.5468225e-38 341 274
0.027001332 0.69999999 -0.041729331 1.5100513e-38 342 274
0.028268991 0.70099998 -0.041788943 1.4823924e-38 343 274
0.029498078 0.70099998 -0.041788943 1.4639177e-38 344 274
0.030727165 0.70099998 -0.041788943 1.4178558e-38 345 274
0.031956252 0.70099998 -0.041788943 1.4177136e-38 346 274
0.033280019 0.70300001 -0.041908171 1.4084581e-38 347 274
0.034512613 0.70300001 -0.041908171 1.4175703e-38 348 274
0.035745207 0.70300001 -0.041908171 1.3991672e-38 349 274
0.036977798 0.70300001 -0.041908171 1.4175701e-38 350 274
0.038264744 0.704 -0.041967787 1.4175701e-38 351 274
0.039499093 0.704 -0.041967787 1.4084231e-38 352 274
0.040733438 0.704 -0.041967787 1.3992035e-38 353 274
0.042087011 0.70599997 -0.042087011 1.4175e-38 354 274
0.043324865 0.70599997 -0.042087011 1.4175e-38 355 274
0.044562716 0.70599997 -0.042087011 1.3992051e-38 356 274
0.04580057 0.70599997 -0.042087011 1.4084246e-38 357 274
0.047105055 0.70700002 -0.042146627 1.3808741e-38 358 274
0.048549797 0.70999998 -0.042325463 1.3716187e-38 359 274
0.049864799 0.71100003 -0.042385083 1.3623641e-38 360 274
0.051111419 0.71100003 -0.042385083 1.3255217e-38 361 274
0.052358042 0.71100003 -0.042385083 1.2979e-38 362 274
0.053755447 0.713 -0.042504307 1.2886805e-38 363 274
0.055005573 0.713 -0.042504307 1.2518392e-38 364 274
0.0563346 0.71399999 -0.042563915 1.2426196e-38 365 274
0.057586476 0.71399999 -0.042563915 1.1878076e-38 366 274
0.059003171 0.71600002 -0.042683143 1.1878076e-38 367 274
0.060342718 0.71700001 -0.042742759 1.308493e-38 368 274
0.062029421 0.722 -0.043040827 1.8893255e-38 369 274
-0.0164112 0.72000003 -0.044183999 1.8071069e-38 307 275
-0.0151488 0.72000003 -0.044183999 1.5295803e-38 308 275
-0.013867113 0.71899998 -0.044122629 1.391251e-38 309 275
-0.0125714 0.71700001 -0.043999899 1.5191325e-38 310 275
-0.011266919 0.71399999 -0.043815799 1.5098771e-38 311 275
-0.01001504 0.71399999 -0.043815799 1.5741228e-38 312 275
-0.0087263398 0.71100003 -0.043631699 1.5465e-38 313 275
-0.0074797203 0.71100003 -0.043631699 1.5832334e-38 314 275
-0.0062243328 0.70999998 -0.043570329 1.5647944e-38 315 275
-0.0049794666 0.70999998 -0.043570329 1.5555748e-38 316 275
-0.00372408 0.708 -0.043447599 1.5647944e-38 317 275
-0.0024792133 0.70700002 -0.043386232 1.555647e-38 318 275
-0.0012396066 0.70700002 -0.043386232 1.555647e-38 319 275
0 0.70599997 -0.043324865 1.5831628e-38 320 275
0.0012343467 0.704 -0.043202132 1.5647596e-38 321 275
0.0024686933 0.704 -0.043202132 1.5831625e-38 322 275
0.0036977797 0.70300001 -0.043140765 1.5555398e-38 323 275
0.0049303733 0.70300001 -0.043140765 1.5738701e-38 324 275
0.0061629666 0.70300001 -0.043140765 1.5738701e-38 325 275
0.0073639993 0.69999999 -0.042956665 1.5371357e-38 326 275
0.0085913334 0.69999999 -0.042956665 1.5279162e-38 327 275
0.0098186666 0.69999999 -0.042956665 1.5278808e-38 328 275
0.011061779 0.70099998 -0.043018032 1.5278808e-38 329 275
0.012290866 0.70099998 -0.043018032 1.5003666e-38 330 275
0.013500666 0.69999999 -0.042956665 1.5003666e-38 331 275
0.014727999 0.69999999 -0.042956665 1.5003313e-38 332 275
0.015955333 0.69999999 -0.042956665 1.5187704e-38 333 275
0.017182667 0.69999999 -0.042956665 1.491435e-38 334 275
0.018409999 0.69999999 -0.042956665 1.5190578e-38 335 275
0.019637333 0.69999999 -0.042956665 1.5376039e-38 336 275
0.020864666 0.69999999 -0.042956665 1.5468593e-38 337 275
0.022091998 0.69999999 -0.042956665 1.546859e-38 338 275
0.023319334 0.69999999 -0.042956665 1.5376395e-38 339 275
0.024546666 0.69999999 -0.042956665 1.5100881e-38 340 275
0.025773998 0.69999999 -0.042956665 1.5008686e-38 341 275
0.027001332 0.69999999 -0.042956665 1.5008669e-38 342 275
0.028228667 0.69999999 -0.042956665 1.4824278e-38 343 275
0.029455997 0.69999999 -0.042956665 1.4639162e-38 344 275
0.030727165 0.70099998 -0.043018032 1.4270738e-38 345 275
0.031956252 0.70099998 -0.043018032 1.3993458e-38 346 275
0.03318534 0.70099998 -0.043018032 1.3809426e-38 347 275
0.034414422 0.70099998 -0.043018032 1.3899842e-38 348 275
0.035643511 0.70099998 -0.043018032 1.3899842e-38 349 275
0.036977798 0.70300001 -0.043140765 1.408208e-38 350 275
0.038210396 0.70300001 -0.043140765 1.408208e-38 351 275
0.039442986 0.70300001 -0.043140765 1.3898414e-38 352 275
0.040733438 0.704 -0.043202132 1.3990969e-38 353 275
0.041967787 0.704 -0.043202132 1.3715824e-38 354 275
0.043202132 0.704 -0.043202132 1.380802e-38 355 275
0.044562716 0.70599997 -0.043324865 1.3716187e-38 356 275
0.04580057 0.70599997 -0.043324865 1.3716187e-38 357 275
0.047105055 0.70700002 -0.043386232 1.3440326e-38 358 275
0.048413038 0.708 -0.043447599 1.334813e-38 359 275
0.049794663 0.70999998 -0.043570329 1.3347058e-38 360 275
0.051039528 0.70999998 -0.043570329 1.3254861e-38 361 275
0.052358042 0.71100003 -0.043631699 1.2886802e-38 362 275
0.053755447 0.713 -0.043754432 1.2794606e-38 363 275
0.055005573 0.713 -0.043754432 1.2518395e-38 364 275
0.0563346 0.71399999 -0.043815799 1.2794621e-38 365 275
0.057586476 0.71399999 -0.043815799 1.215502e-38 366 275
0.059003171 0.71600002 -0.043938532 1.2247215e-38 367 275
0.060342718 0.71700001 -0.043999899 1.3726697e-38 368 275
-0.0164112 0.72000003 -0.045446403 1.7886678e-38 307 276
-0.0151488 0.72000003 -0.045446403 1.511069e-38 308 276
-0.013867113 0.71899998 -0.045383278 1.3727756e-38 309 276
-0.0125714 0.71700001 -0.045257039 1.5282073e-38 310 276
-0.011266919 0.71399999 -0.045067675 1.5282073e-38 311 276
-0.01001504 0.71399999 -0.045067675 1.5648666e-38 312 276
-0.0087263398 0.71100003 -0.044878319 1.5648666e-38 313 276
-0.0074797203 0.71100003 -0.044878319 1.5556102e-38 314 276
-0.0062243328 0.70999998 -0.044815198 1.5463906e-38 315 276
-0.0049794666 0.70999998 -0.044815198 1.5463909e-38 316 276
-0.00372408 0.708 -0.044688959 1.5556104e-38 317 276
-0.0024792133 0.70700002 -0.044625837 1.5555751e-38 318 276
-0.0012396066 0.70700002 -0.044625837 1.5555751e-38 319 276
0 0.70599997 -0.044562716 1.564795e-38 320 276
0.0012343467 0.704 -0.044436477 1.5555754e-38 321 276
0.0024686933 0.704 -0.044436477 1.5646865e-38 322 276
0.0036977797 0.70300001 -0.04437336 1.5646865e-38 323 276
0.0049303733 0.70300001 -0.04437336 1.537171e-38 324 276
0.0061454331 0.70099998 -0.044247117 1.537171e-38 325 276
0.0073745195 0.70099998 -0.044247117 1.5279159e-38 326 276
0.0085913334 0.69999999 -0.044183996 1.5279159e-38 327 276
0.0098186666 0.69999999 -0.044183996 1.5095493e-38 328 276
0.011045999 0.69999999 -0.044183996 1.5095493e-38 329 276
0.012273333 0.69999999 -0.044183996 1.5003299e-38 330 276
0.013462093 0.69800001 -0.04405776 1.5003299e-38 331 276
0.01468592 0.69800001 -0.04405776 1.4819628e-38 332 276
0.015955333 0.69999999 -0.044183996 1.5004019e-38 333 276
0.017182667 0.69999999 -0.044183996 1.5005817e-38 334 276
0.018409999 0.69999999 -0.044183996 1.5190208e-38 335 276
0.019637333 0.69999999 -0.044183996 1.500797e-38 336 276
0.020864666 0.69999999 -0.044183996 1.5100165e-38 337 276
0.022091998 0.69999999 -0.044183996 1.5100165e-38 338 276
0.023319334 0.69999999 -0.044183996 1.5100165e-38 339 276
0.024546666 0.69999999 -0.044183996 1.5007967e-38 340 276
0.025773998 0.69999999 -0.044183996 1.491577e-38 341 276
0.027001332 0.69999999 -0.044183996 1.4732455e-38 342 276
0.028228667 0.69999999 -0.044183996 1.4640259e-38 343 276
0.029455997 0.69999999 -0.044183996 1.4363669e-38 344 276
0.030683333 0.69999999 -0.044183996 1.3994887e-38 345 276
0.031910665 0.69999999 -0.044183996 1.3809789e-38 346 276
0.03318534 0.70099998 -0.044247117 1.3625398e-38 347 276
0.034414422 0.70099998 -0.044247117 1.3624332e-38 348 276
0.035643511 0.70099998 -0.044247117 1.3624332e-38 349 276
0.036872596 0.70099998 -0.044247117 1.4082436e-38 350 276
0.038101684 0.70099998 -0.044247117 1.4082436e-38 351 276
0.039330769 0.70099998 -0.044247117 1.3623256e-38 352 276
0.040675577 0.70300001 -0.04437336 1.3807288e-38 353 276
0.041967787 0.704 -0.044436477 1.3623979e-38 354 276
0.043202132 0.704 -0.044436477 1.3623979e-38 355 276
0.044436477 0.704 -0.044436477 1.3623272e-38 356 276
0.04580057 0.70599997 -0.044562716 1.3623272e-38 357 276
0.047038425 0.70599997 -0.044562716 1.3439254e-38 358 276
0.048413038 0.708 -0.044688959 1.3347058e-38 359 276
0.049794663 0.70999998 -0.044815198 1.3255217e-38 360 276
0.051039528 0.70999998 -0.044815198 1.3162663e-38 361 276
0.052358042 0.71100003 -0.044878319 1.2793887e-38 362 276
0.053755447 0.713 -0.045004558 1.2793887e-38 363 276
0.055005573 0.713 -0.045004558 1.2518395e-38 364 276
0.0563346 0.71399999 -0.045067675 1.2886817e-38 365 276
0.057586476 0.71399999 -0.045067675 1.2522004e-38 366 276
0.059003171 0.71600002 -0.045193922 1.2982983e-38 367 276
0.06025856 0.71600002 -0.045193922 1.4186954e-38 368 276
-0.0151488 0.72000003 -0.0467088 1.4926296e-38 308 277
-0.0138864 0.72000003 -0.0467088 1.3727753e-38 309 277
-0.0125714 0.71700001 -0.046514176 1.5557581e-38 310 277
-0.01129848 0.71600002 -0.046449307 1.5465386e-38 311 277
-0.010001013 0.713 -0.046254687 1.5556114e-38 312 277
-0.0087263398 0.71100003 -0.046124939 1.5556114e-38 313 277
-0.0074691991 0.70999998 -0.046060063 1.5463909e-38 314 277
-0.0062243328 0.70999998 -0.046060063 1.5371354e-38 315 277
-0.0049794666 0.70999998 -0.046060063 1.5371357e-38 316 277
-0.00372408 0.708 -0.045930319 1.5371357e-38 317 277
-0.0024792133 0.70700002 -0.045865446 1.537136e-38 318 277
-0.0012396066 0.70700002 -0.045865446 1.5463556e-38 319 277
0 0.70599997 -0.04580057 1.5372079e-38 320 277
0.0012343467 0.704 -0.045670826 1.5372079e-38 321 277
0.0024686933 0.704 -0.045670826 1.5095849e-38 322 277
0.0036977797 0.70300001 -0.04560595 1.5095849e-38 323 277
0.0049303733 0.70300001 -0.04560595 1.5278806e-38 324 277
0.0061454331 0.70099998 -0.045476202 1.5186609e-38 325 277
0.0073745195 0.70099998 -0.045476202 1.5095493e-38 326 277
0.0085913334 0.69999999 -0.04541133 1.5003296e-38 327 277
0.0098186666 0.69999999 -0.04541133 1.4820704e-38 328 277
0.011045999 0.69999999 -0.04541133 1.4728507e-38 329 277
0.012238266 0.69800001 -0.045281585 1.4728151e-38 330 277
0.013462093 0.69800001 -0.045281585 1.4728151e-38 331 277
0.01468592 0.69800001 -0.045281585 1.4728151e-38 332 277
0.015909746 0.69800001 -0.045281585 1.4820348e-38 333 277
0.017182667 0.69999999 -0.04541133 1.4730307e-38 334 277
0.018409999 0.69999999 -0.04541133 1.4914698e-38 335 277
0.019637333 0.69999999 -0.04541133 1.4732102e-38 336 277
0.020805053 0.69800001 -0.045281585 1.4916134e-38 337 277
0.02202888 0.69800001 -0.045281585 1.491649e-38 338 277
0.023252707 0.69800001 -0.045281585 1.4732458e-38 339 277
0.024476532 0.69800001 -0.045281585 1.4915767e-38 340 277
0.025700359 0.69800001 -0.045281585 1.4823571e-38 341 277
0.026924185 0.69800001 -0.045281585 1.4731379e-38 342 277
0.028228667 0.69999999 -0.04541133 1.4638824e-38 343 277
0.029455997 0.69999999 -0.04541133 1.42704e-38 344 277
0.030683333 0.69999999 -0.04541133 1.4086009e-38 345 277
0.031910665 0.69999999 -0.04541133 1.3717594e-38 346 277
0.033137999 0.69999999 -0.04541133 1.3441366e-38 347 277
0.034414422 0.70099998 -0.045476202 1.3531776e-38 348 277
0.035643511 0.70099998 -0.045476202 1.3531776e-38 349 277
0.036872596 0.70099998 -0.045476202 1.3897684e-38 350 277
0.038101684 0.70099998 -0.045476202 1.3897684e-38 351 277
0.039330769 0.70099998 -0.045476202 1.3806568e-38 352 277
0.040675577 0.70300001 -0.04560595 1.3714372e-38 353 277
0.041967787 0.704 -0.045670826 1.3531782e-38 354 277
0.043202132 0.704 -0.045670826 1.3439227e-38 355 277
0.044436477 0.704 -0.045670826 1.343888e-38 356 277
0.04580057 0.70599997 -0.04580057 1.3346684e-38 357 277
0.047038425 0.70599997 -0.04580057 1.3346334e-38 358 277
0.048413038 0.708 -0.045930319 1.3346334e-38 359 277
0.049794663 0.70999998 -0.046060063 1.3162297e-38 360 277
0.051039528 0.70999998 -0.046060063 1.3162297e-38 361 277
0.052358042 0.71100003 -0.046124939 1.2977555e-38 362 277
0.053755447 0.713 -0.046254687 1.2792804e-38 363 277
0.05508272 0.71399999 -0.046319555 1.2518039e-38 364 277
0.0563346 0.71399999 -0.046319555 1.2979016e-38 365 277
0.057586476 0.71399999 -0.046319555 1.2798234e-38 366 277
0.059003171 0.71600002 -0.046449307 1.3351408e-38 367 277
-0.013924973 0.722 -0.048104454 1.3819952e-38 309 278
-0.0125714 0.71700001 -0.04777132 1.5467186e-38 310 278
-0.01129848 0.71600002 -0.047704693 1.5098405e-38 311 278
-0.010001013 0.713 -0.047504812 1.555612e-38 312 278
-0.0087263398 0.71100003 -0.047371563 1.5463924e-38 313 278
-0.0074691991 0.70999998 -0.047304932 1.537136e-38 314 278
-0.0062243328 0.70999998 -0.047304932 1.5278806e-38 315 278
-0.0049794666 0.70999998 -0.047304932 1.5278808e-38 316 278
-0.00372408 0.708 -0.047171678 1.5278808e-38 317 278
-0.0024792133 0.70700002 -0.047105055 1.537136e-38 318 278
-0.0012396066 0.70700002 -0.047105055 1.537136e-38 319 278
0 0.70599997 -0.047038425 1.5187689e-38 320 278
0.0012343467 0.704 -0.046905171 1.5095493e-38 321 278
0.0024686933 0.704 -0.046905171 1.5095496e-38 322 278
0.0036977797 0.70300001 -0.046838548 1.5095496e-38 323 278
0.0049303733 0.70300001 -0.046838548 1.5003299e-38 324 278
0.0061629666 0.70300001 -0.046838548 1.4818549e-38 325 278
0.0073745195 0.70099998 -0.046705291 1.4728154e-38 326 278
0.0085913334 0.69999999 -0.046638668 1.4728154e-38 327 278
0.0098186666 0.69999999 -0.046638668 1.4728151e-38 328 278
0.01101444 0.69800001 -0.046505414 1.4728151e-38 329 278
0.012238266 0.69800001 -0.046505414 1.4728151e-38 330 278
0.013462093 0.69800001 -0.046505414 1.4728151e-38 331 278
0.01468592 0.69800001 -0.046505414 1.4637036e-38 332 278
0.015909746 0.69800001 -0.046505414 1.4637036e-38 333 278
0.017133573 0.69800001 -0.046505414 1.4731023e-38 334 278
0.0183574 0.69800001 -0.046505414 1.4823218e-38 335 278
0.019581227 0.69800001 -0.046505414 1.4640981e-38 336 278
0.020805053 0.69800001 -0.046505414 1.4640981e-38 337 278
0.02202888 0.69800001 -0.046505414 1.4640978e-38 338 278
0.023252707 0.69800001 -0.046505414 1.4548782e-38 339 278
0.024476532 0.69800001 -0.046505414 1.4548063e-38 340 278
0.025663542 0.69700003 -0.046438783 1.4548063e-38 341 278
0.026885614 0.69700003 -0.046438783 1.4363319e-38 342 278
0.028148014 0.69800001 -0.046505414 1.4270765e-38 343 278
0.029371841 0.69800001 -0.046505414 1.3994539e-38 344 278
0.030595668 0.69800001 -0.046505414 1.3717594e-38 345 278
0.031910665 0.69999999 -0.046638668 1.3625401e-38 346 278
0.033137999 0.69999999 -0.046638668 1.3441368e-38 347 278
0.034414422 0.70099998 -0.046705291 1.3256271e-38 348 278
0.035643511 0.70099998 -0.046705291 1.3256271e-38 349 278
0.036872596 0.70099998 -0.046705291 1.3438514e-38 350 278
0.038101684 0.70099998 -0.046705291 1.3438514e-38 351 278
0.039330769 0.70099998 -0.046705291 1.3438511e-38 352 278
0.040559858 0.70099998 -0.046705291 1.3438511e-38 353 278
0.041908171 0.70300001 -0.046838548 1.3439233e-38 354 278
0.043140765 0.70300001 -0.046838548 1.3347037e-38 355 278
0.044436477 0.704 -0.046905171 1.3345965e-38 356 278
0.045670826 0.704 -0.046905171 1.325377e-38 357 278
0.047038425 0.70599997 -0.047038425 1.3070454e-38 358 278
0.048344657 0.70700002 -0.047105055 1.3346681e-38 359 278
0.049654398 0.708 -0.047171678 1.3071173e-38 360 278
0.051039528 0.70999998 -0.047304932 1.2978978e-38 361 278
0.052358042 0.71100003 -0.047371563 1.2794243e-38 362 278
0.053755447 0.713 -0.047504812 1.2794243e-38 363 278
0.05508272 0.71399999 -0.047571439 1.2794972e-38 364 278
0.0563346 0.71399999 -0.047571439 1.325631e-38 365 278
0.057747785 0.71600002 -0.047704693 1.3166651e-38 366 278
-0.013924973 0.722 -0.04937036 1.3819949e-38 309 279
-0.012606465 0.71899998 -0.049165215 1.5008373e-38 310 279
-0.01129848 0.71600002 -0.048960082 1.4916178e-38 311 279
-0.010001013 0.713 -0.048754938 1.5372819e-38 312 279
-0.0087263398 0.71100003 -0.048618179 1.5096591e-38 313 279
-0.0074691991 0.70999998 -0.048549797 1.5278455e-38 314 279
-0.0062243328 0.70999998 -0.048549797 1.5186258e-38 315 279
-0.0049794666 0.70999998 -0.048549797 1.5002224e-38 316 279
-0.00372408 0.708 -0.048413038 1.5186255e-38 317 279
-0.0024792133 0.70700002 -0.048344657 1.5186611e-38 318 279
-0.0012396066 0.70700002 -0.048344657 1.5278808e-38 319 279
0 0.70599997 -0.048276275 1.5186255e-38 320 279
0.0012343467 0.704 -0.048139516 1.5186255e-38 321 279
0.0024686933 0.704 -0.048139516 1.5003296e-38 322 279
0.0036977797 0.70300001 -0.048071139 1.4911101e-38 323 279
0.0049303733 0.70300001 -0.048071139 1.4911101e-38 324 279
0.0061454331 0.70099998 -0.047934376 1.4818905e-38 325 279
0.0073745195 0.70099998 -0.047934376 1.4818552e-38 326 279
0.0085913334 0.69999999 -0.047865998 1.4818552e-38 327 279
0.0098186666 0.69999999 -0.047865998 1.463524e-38 328 279
0.01101444 0.69800001 -0.047729239 1.463524e-38 329 279
0.012238266 0.69800001 -0.047729239 1.4727435e-38 330 279
0.013462093 0.69800001 -0.047729239 1.4819631e-38 331 279
0.01468592 0.69800001 -0.047729239 1.4453365e-38 332 279
0.015909746 0.69800001 -0.047729239 1.4729953e-38 333 279
0.017133573 0.69800001 -0.047729239 1.4364395e-38 334 279
0.0183574 0.69800001 -0.047729239 1.4640981e-38 335 279
0.019581227 0.69800001 -0.047729239 1.4640978e-38 336 279
0.020775247 0.69700003 -0.047660861 1.4640978e-38 337 279
0.02199732 0.69700003 -0.047660861 1.4639906e-38 338 279
0.023219392 0.69700003 -0.047660861 1.454771e-38 339 279
0.024441468 0.69700003 -0.047660861 1.4180004e-38 340 279
0.025663542 0.69700003 -0.047660861 1.4180004e-38 341 279
0.026885614 0.69700003 -0.047660861 1.42704e-38 342 279
0.028148014 0.69800001 -0.047729239 1.42704e-38 343 279
0.029371841 0.69800001 -0.047729239 1.3810864e-38 344 279
0.030595668 0.69800001 -0.047729239 1.3442083e-38 345 279
0.031910665 0.69999999 -0.047865998 1.3441366e-38 346 279
0.033137999 0.69999999 -0.047865998 1.3256974e-38 347 279
0.034414422 0.70099998 -0.047934376 1.3163351e-38 348 279
0.035643511 0.70099998 -0.047934376 1.3071155e-38 349 279
0.036872596 0.70099998 -0.047934376 1.3528909e-38 350 279
0.038101684 0.70099998 -0.047934376 1.3528909e-38 351 279
0.039330769 0.70099998 -0.047934376 1.3529628e-38 352 279
0.040559858 0.70099998 -0.047934376 1.3529628e-38 353 279
0.041908171 0.70300001 -0.048071139 1.3346318e-38 354 279
0.043140765 0.70300001 -0.048071139 1.3253764e-38 355 279
0.04437336 0.70300001 -0.048071139 1.3253764e-38 356 279
0.045670826 0.704 -0.048139516 1.3253764e-38 357 279
0.047038425 0.70599997 -0.048276275 1.2888211e-38 358 279
0.048344657 0.70700002 -0.048344657 1.2796016e-38 359 279
0.049654398 0.708 -0.048413038 1.2978975e-38 360 279
0.051039528 0.70999998 -0.048549797 1.2978975e-38 361 279
0.052358042 0.71100003 -0.048618179 1.2702045e-38 362 279
0.053755447 0.713 -0.048754938 1.279424e-38 363 279
0.055005573 0.713 -0.048754938 1.2887523e-38 364 279
0.0563346 0.71399999 -0.048823316 1.3256307e-38 365 279
0.057586476 0.71399999 -0.048823316 1.3075534e-38 366 279
-0.0138864 0.72000003 -0.050496001 1.3819952e-38 309 280
-0.012606465 0.71899998 -0.050425861 1.5100573e-38 310 280
-0.01131426 0.71700001 -0.0502856 1.4823985e-38 311 280
-0.01001504 0.71399999 -0.050075196 1.5464298e-38 312 280
-0.0087263398 0.71100003 -0.049864799 1.518771e-38 313 280
-0.0074691991 0.70999998 -0.049794663 1.5095146e-38 314 280
-0.0062243328 0.70999998 -0.049794663 1.5095146e-38 315 280
-0.0049794666 0.70999998 -0.049794663 1.500295e-38 316 280
-0.00372408 0.708 -0.049654398 1.4910394e-38 317 280
-0.0024792133 0.70700002 -0.049584266 1.500295e-38 318 280
-0.0012396066 0.70700002 -0.049584266 1.500295e-38 319 280
0 0.70599997 -0.04951413 1.500223e-38 320 280
0.0012343467 0.704 -0.049373865 1.500223e-38 321 280
0.0024686933 0.704 -0.049373865 1.4727435e-38 322 280
0.0036977797 0.70300001 -0.049303733 1.4727435e-38 323 280
0.0049303733 0.70300001 -0.049303733 1.4451571e-38 324 280
0.0061454331 0.70099998 -0.049163464 1.4451571e-38 325 280
0.0073639993 0.69999999 -0.049093332 1.4451218e-38 326 280
0.0085913334 0.69999999 -0.049093332 1.4359023e-38 327 280
0.0098186666 0.69999999 -0.049093332 1.4084231e-38 328 280
0.011045999 0.69999999 -0.049093332 1.4176426e-38 329 280
0.012273333 0.69999999 -0.049093332 1.4268625e-38 330 280
0.013500666 0.69999999 -0.049093332 1.4452657e-38 331 280
0.014727999 0.69999999 -0.049093332 1.4545209e-38 332 280
0.015955333 0.69999999 -0.049093332 1.4637405e-38 333 280
0.017133573 0.69800001 -0.048953064 1.4364045e-38 334 280
0.0183574 0.69800001 -0.048953064 1.4548076e-38 335 280
0.019581227 0.69800001 -0.048953064 1.4181452e-38 336 280
0.020775247 0.69700003 -0.048882935 1.4181452e-38 337 280
0.02199732 0.69700003 -0.048882935 1.4271496e-38 338 280
0.023219392 0.69700003 -0.048882935 1.4179301e-38 339 280
0.024441468 0.69700003 -0.048882935 1.4270414e-38 340 280
0.025663542 0.69700003 -0.048882935 1.4086382e-38 341 280
0.026885614 0.69700003 -0.048882935 1.3903063e-38 342 280
0.028148014 0.69800001 -0.048953064 1.3903063e-38 343 280
0.029371841 0.69800001 -0.048953064 1.3535003e-38 344 280
0.030595668 0.69800001 -0.048953064 1.3258418e-38 345 280
0.031910665 0.69999999 -0.049093332 1.3256618e-38 346 280
0.033137999 0.69999999 -0.049093332 1.3164423e-38 347 280
0.034414422 0.70099998 -0.049163464 1.2796013e-38 348 280
0.035643511 0.70099998 -0.049163464 1.2796013e-38 349 280
0.036872596 0.70099998 -0.049163464 1.2794591e-38 350 280
0.038101684 0.70099998 -0.049163464 1.2978622e-38 351 280
0.039330769 0.70099998 -0.049163464 1.2978978e-38 352 280
0.040559858 0.70099998 -0.049163464 1.2978978e-38 353 280
0.041908171 0.70300001 -0.049303733 1.2978975e-38 354 280
0.043140765 0.70300001 -0.049303733 1.3071171e-38 355 280
0.04437336 0.70300001 -0.049303733 1.2978975e-38 356 280
0.045670826 0.704 -0.049373865 1.2794944e-38 357 280
0.046905171 0.704 -0.049373865 1.2978259e-38 358 280
0.048276275 0.70599997 -0.04951413 1.2885703e-38 359 280
0.049654398 0.708 -0.049654398 1.2702396e-38 360 280
0.051039528 0.70999998 -0.049794663 1.2794593e-38 361 280
0.052358042 0.71100003 -0.049864799 1.2701692e-38 362 280
0.053755447 0.713 -0.050005067 1.2977918e-38 363 280
0.055005573 0.713 -0.050005067 1.2520558e-38 364 280
0.0563346 0.71399999 -0.050075196 1.3165928e-38 365 280
0.057586476 0.71399999 -0.050075196 1.3350339e-38 366 280
-0.0138864 0.72000003 -0.051758397 1.3912144e-38 309 281
-0.0125714 0.71700001 -0.051542737 1.5376087e-38 310 281
-0.01131426 0.71700001 -0.051542737 1.5191335e-38 311 281
-0.01001504 0.71399999 -0.05132708 1.5097679e-38 312 281
-0.0087263398 0.71100003 -0.051111419 1.4913647e-38 313 281
-0.0074691991 0.70999998 -0.051039528 1.500331e-38 314 281
-0.0062243328 0.70999998 -0.051039528 1.500331e-38 315 281
-0.0049794666 0.70999998 -0.051039528 1.5003299e-38 316 281
-0.00372408 0.708 -0.050895758 1.4911103e-38 317 281
-0.0024792133 0.70700002 -0.050823875 1.500258e-38 318 281
-0.0012396066 0.70700002 -0.050823875 1.500258e-38 319 281
0 0.70599997 -0.050751984 1.4911103e-38 320 281
0.0012343467 0.704 -0.050608214 1.4911103e-38 321 281
0.0024686933 0.704 -0.050608214 1.463524e-38 322 281
0.0036977797 0.70300001 -0.050536323 1.463524e-38 323 281
0.0049163462 0.70099998 -0.050392549 1.4359379e-38 324 281
0.0061454331 0.70099998 -0.050392549 1.4451574e-38 325 281
0.0073639993 0.69999999 -0.050320663 1.4084231e-38 326 281
0.0085913334 0.69999999 -0.050320663 1.4084231e-38 327 281
0.0098186666 0.69999999 -0.050320663 1.4084584e-38 328 281
0.01101444 0.69800001 -0.050176892 1.4084584e-38 329 281
0.012238266 0.69800001 -0.050176892 1.4268252e-38 330 281
0.013462093 0.69800001 -0.050176892 1.4360448e-38 331 281
0.01468592 0.69800001 -0.050176892 1.445229e-38 332 281
0.015909746 0.69800001 -0.050176892 1.4821073e-38 333 281
0.017133573 0.69800001 -0.050176892 1.4179298e-38 334 281
0.0183574 0.69800001 -0.050176892 1.4271493e-38 335 281
0.019581227 0.69800001 -0.050176892 1.4271493e-38 336 281
0.020805053 0.69800001 -0.050176892 1.4179298e-38 337 281
0.02199732 0.69700003 -0.050105009 1.4086749e-38 338 281
0.023219392 0.69700003 -0.050105009 1.3994553e-38 339 281
0.024441468 0.69700003 -0.050105009 1.3994905e-38 340 281
0.025626717 0.69599998 -0.050033119 1.3810514e-38 341 281
0.026847038 0.69599998 -0.050033119 1.3810511e-38 342 281
0.028107686 0.69700003 -0.050105009 1.362648e-38 343 281
0.029371841 0.69800001 -0.050176892 1.3533931e-38 344 281
0.030595668 0.69800001 -0.050176892 1.334954e-38 345 281
0.031819493 0.69800001 -0.050176892 1.3256621e-38 346 281
0.033137999 0.69999999 -0.050320663 1.2979676e-38 347 281
0.034365334 0.69999999 -0.050320663 1.2886407e-38 348 281
0.035643511 0.70099998 -0.050392549 1.2794211e-38 349 281
0.036872596 0.70099998 -0.050392549 1.2701665e-38 350 281
0.038101684 0.70099998 -0.050392549 1.2793861e-38 351 281
0.039330769 0.70099998 -0.050392549 1.2793861e-38 352 281
0.040559858 0.70099998 -0.050392549 1.2793861e-38 353 281
0.041908171 0.70300001 -0.050536323 1.2886409e-38 354 281
0.043140765 0.70300001 -0.050536323 1.2978606e-38 355 281
0.04437336 0.70300001 -0.050536323 1.2978609e-38 356 281
0.045670826 0.704 -0.050608214 1.2886412e-38 357 281
0.046905171 0.704 -0.050608214 1.2885343e-38 358 281
0.048276275 0.70599997 -0.050751984 1.2885343e-38 359 281
0.049654398 0.708 -0.050895758 1.2793157e-38 360 281
0.051039528 0.70999998 -0.051039528 1.2793157e-38 361 281
0.052358042 0.71100003 -0.051111419 1.2701689e-38 362 281
0.053755447 0.713 -0.051255193 1.2978274e-38 363 281
0.05508272 0.71399999 -0.05132708 1.2797127e-38 364 281
0.0563346 0.71399999 -0.05132708 1.3073714e-38 365 281
-0.0125714 0.71700001 -0.052799881 1.5101295e-38 310 282
-0.01131426 0.71700001 -0.052799881 1.500874e-38 311 282
-0.010043093 0.71600002 -0.052726239 1.5465736e-38 312 282
-0.0087263398 0.71100003 -0.052358042 1.5097312e-38 313 282
-0.0074797203 0.71100003 -0.052358042 1.5004745e-38 314 282
-0.0062330998 0.71100003 -0.052358042 1.4820354e-38 315 282
-0.0049794666 0.70999998 -0.052284397 1.4819631e-38 316 282
-0.0037345996 0.70999998 -0.052284397 1.4819631e-38 317 282
-0.00248272 0.708 -0.052137118 1.4635959e-38 318 282
-0.0012396066 0.70700002 -0.05206348 1.4451927e-38 319 282
0 0.70599997 -0.051989835 1.4360095e-38 320 282
0.0012378532 0.70599997 -0.051989835 1.4360095e-38 321 282
0.0024686933 0.704 -0.051842559 1.4359379e-38 322 282
0.0036977797 0.70300001 -0.051768921 1.4359379e-38 323 282
0.0049163462 0.70099998 -0.051621638 1.4267546e-38 324 282
0.0061454331 0.70099998 -0.051621638 1.4267546e-38 325 282
0.0073639993 0.69999999 -0.051547997 1.3992757e-38 326 282
0.0085913334 0.69999999 -0.051547997 1.3808726e-38 327 282
0.0097906133 0.69800001 -0.051400717 1.3992754e-38 328 282
0.01101444 0.69800001 -0.051400717 1.3808723e-38 329 282
0.012238266 0.69800001 -0.051400717 1.4084231e-38 330 282
0.013462093 0.69800001 -0.051400717 1.4176426e-38 331 282
0.01468592 0.69800001 -0.051400717 1.3993483e-38 332 282
0.015909746 0.69800001 -0.051400717 1.408568e-38 333 282
0.017133573 0.69800001 -0.051400717 1.39942e-38 334 282
0.018331099 0.69700003 -0.051327083 1.4086755e-38 335 282
0.019553173 0.69700003 -0.051327083 1.390344e-38 336 282
0.020775247 0.69700003 -0.051327083 1.390344e-38 337 282
0.02199732 0.69700003 -0.051327083 1.3811244e-38 338 282
0.023219392 0.69700003 -0.051327083 1.3718688e-38 339 282
0.024441468 0.69700003 -0.051327083 1.3901637e-38 340 282
0.025626717 0.69599998 -0.051253434 1.3809442e-38 341 282
0.026847038 0.69599998 -0.051253434 1.3442098e-38 342 282
0.028107686 0.69700003 -0.051327083 1.3442098e-38 343 282
0.029371841 0.69800001 -0.051400717 1.3165872e-38 344 282
0.030595668 0.69800001 -0.051400717 1.2981479e-38 345 282
0.031819493 0.69800001 -0.051400717 1.298076e-38 346 282
0.033137999 0.69999999 -0.051547997 1.2703815e-38 347 282
0.034365334 0.69999999 -0.051547997 1.2610546e-38 348 282
0.035592664 0.69999999 -0.051547997 1.251835e-38 349 282
0.036872596 0.70099998 -0.051621638 1.2425448e-38 350 282
0.038047329 0.69999999 -0.051547997 1.2425448e-38 351 282
0.039274666 0.69999999 -0.051547997 1.2425804e-38 352 282
0.040502001 0.69999999 -0.051547997 1.2518e-38 353 282
0.041788943 0.70099998 -0.051621638 1.2335756e-38 354 282
0.043140765 0.70300001 -0.051768921 1.2427952e-38 355 282
0.04437336 0.70300001 -0.051768921 1.2886412e-38 356 282
0.045670826 0.704 -0.051842559 1.2886412e-38 357 282
0.046905171 0.704 -0.051842559 1.2793507e-38 358 282
0.048276275 0.70599997 -0.051989835 1.2885703e-38 359 282
0.049654398 0.708 -0.052137118 1.2702396e-38 360 282
0.051039528 0.70999998 -0.052284397 1.2702396e-38 361 282
0.052358042 0.71100003 -0.052358042 1.2702408e-38 362 282
0.053755447 0.713 -0.052505318 1.2887158e-38 363 282
0.05508272 0.71399999 -0.052578956 1.2614534e-38 364 282
0.0563346 0.71399999 -0.052578956 1.2891121e-38 365 282
-0.012553867 0.71600002 -0.053981625 1.5102021e-38 310 283
-0.01129848 0.71600002 -0.053981625 1.5102021e-38 311 283
-0.010043093 0.71600002 -0.053981625 1.5374988e-38 312 283
-0.0087508867 0.713 -0.053755447 1.5006207e-38 313 283
-0.0075007593 0.713 -0.053755447 1.5004392e-38 314 283
-0.0062330998 0.71100003 -0.053604662 1.4820001e-38 315 283
-0.0049864799 0.71100003 -0.053604662 1.4819631e-38 316 283
-0.0037345996 0.70999998 -0.053529263 1.4727435e-38 317 283
-0.00248272 0.708 -0.053378478 1.4451927e-38 318 283
-0.0012396066 0.70700002 -0.053303085 1.4451927e-38 319 283
0 0.70700002 -0.053303085 1.4267899e-38 320 283
0.0012378532 0.70599997 -0.053227689 1.4267899e-38 321 283
0.0024686933 0.704 -0.053076904 1.4359379e-38 322 283
0.0036977797 0.70300001 -0.053001512 1.4266824e-38 323 283
0.0049163462 0.70099998 -0.052850723 1.3991682e-38 324 283
0.0061454331 0.70099998 -0.052850723 1.3991682e-38 325 283
0.0073639993 0.69999999 -0.052775331 1.380837e-38 326 283
0.0085913334 0.69999999 -0.052775331 1.380837e-38 327 283
0.0097906133 0.69800001 -0.052624546 1.3808726e-38 328 283
0.01101444 0.69800001 -0.052624546 1.3808726e-38 329 283
0.012238266 0.69800001 -0.052624546 1.3808726e-38 330 283
0.013462093 0.69800001 -0.052624546 1.3808726e-38 331 283
0.01468592 0.69800001 -0.052624546 1.4084602e-38 332 283
0.015909746 0.69800001 -0.052624546 1.4176798e-38 333 283
0.017133573 0.69800001 -0.052624546 1.390165e-38 334 283
0.018331099 0.69700003 -0.052549154 1.390165e-38 335 283
0.019553173 0.69700003 -0.052549154 1.3718691e-38 336 283
0.020775247 0.69700003 -0.052549154 1.3718691e-38 337 283
0.02199732 0.69700003 -0.052549154 1.3718691e-38 338 283
0.023219392 0.69700003 -0.052549154 1.3626495e-38 339 283
0.024441468 0.69700003 -0.052549154 1.3625776e-38 340 283
0.025663542 0.69700003 -0.052549154 1.3533581e-38 341 283
0.026885614 0.69700003 -0.052549154 1.3441382e-38 342 283
0.028107686 0.69700003 -0.052549154 1.3349187e-38 343 283
0.029371841 0.69800001 -0.052624546 1.3164435e-38 344 283
0.030595668 0.69800001 -0.052624546 1.2980404e-38 345 283
0.031819493 0.69800001 -0.052624546 1.2978972e-38 346 283
0.033137999 0.69999999 -0.052775331 1.2702744e-38 347 283
0.034365334 0.69999999 -0.052775331 1.2425448e-38 348 283
0.035592664 0.69999999 -0.052775331 1.2425448e-38 349 283
0.036872596 0.70099998 -0.052850723 1.2149943e-38 350 283
0.038047329 0.69999999 -0.052775331 1.2149943e-38 351 283
0.039274666 0.69999999 -0.052775331 1.2150293e-38 352 283
0.040502001 0.69999999 -0.052775331 1.2334685e-38 353 283
0.041788943 0.70099998 -0.052850723 1.2243561e-38 354 283
0.043140765 0.70300001 -0.053001512 1.2335756e-38 355 283
0.04437336 0.70300001 -0.053001512 1.2610546e-38 356 283
0.045670826 0.704 -0.053076904 1.2610546e-38 357 283
0.046905171 0.704 -0.053076904 1.2702744e-38 358 283
0.048344657 0.70700002 -0.053303085 1.2794941e-38 359 283
0.049654398 0.708 -0.053378478 1.2703111e-38 360 283
0.051039528 0.70999998 -0.053529263 1.2703111e-38 361 283
0.052358042 0.71100003 -0.053604662 1.2795678e-38 362 283
0.053755447 0.713 -0.053755447 1.2980069e-38 363 283
0.05508272 0.71399999 -0.053830836 1.2798925e-38 364 283
0.0563346 0.71399999 -0.053830836 1.2891121e-38 365 283
-0.012553867 0.71600002 -0.055237014 1.4734677e-38 310 284
-0.01129848 0.71600002 -0.055237014 1.4642482e-38 311 284
-0.010043093 0.71600002 -0.055237014 1.5008007e-38 312 284
-0.0087508867 0.713 -0.055005573 1.4823616e-38 313 284
-0.0075007593 0.713 -0.055005573 1.4913644e-38 314 284
-0.0062330998 0.71100003 -0.054851279 1.4729253e-38 315 284
-0.0049864799 0.71100003 -0.054851279 1.4545212e-38 316 284
-0.0037345996 0.70999998 -0.054774132 1.4268625e-38 317 284
-0.0024897333 0.70999998 -0.054774132 1.4268625e-38 318 284
-0.0012396066 0.70700002 -0.054542694 1.4084234e-38 319 284
0 0.70700002 -0.054542694 1.4083878e-38 320 284
0.0012378532 0.70599997 -0.054465543 1.3991682e-38 321 284
0.0024686933 0.704 -0.054311249 1.3990966e-38 322 284
0.0036977797 0.70300001 -0.054234106 1.389877e-38 323 284
0.0049163462 0.70099998 -0.054079808 1.3623625e-38 324 284
0.0061454331 0.70099998 -0.054079808 1.3623625e-38 325 284
0.0073639993 0.69999999 -0.054002665 1.3715821e-38 326 284
0.0085913334 0.69999999 -0.054002665 1.3623625e-38 327 284
0.0098186666 0.69999999 -0.054002665 1.3624342e-38 328 284
0.01101444 0.69800001 -0.053848371 1.344031e-38 329 284
0.012238266 0.69800001 -0.053848371 1.3624342e-38 330 284
0.013462093 0.69800001 -0.053848371 1.3624342e-38 331 284
0.01468592 0.69800001 -0.053848371 1.3624347e-38 332 284
0.015909746 0.69800001 -0.053848371 1.3808738e-38 333 284
0.017133573 0.69800001 -0.053848371 1.3533949e-38 334 284
0.0183574 0.69800001 -0.053848371 1.3626145e-38 335 284
0.019581227 0.69800001 -0.053848371 1.3626498e-38 336 284
0.020775247 0.69700003 -0.053771228 1.3626498e-38 337 284
0.02199732 0.69700003 -0.053771228 1.3625423e-38 338 284
0.023219392 0.69700003 -0.053771228 1.3533228e-38 339 284
0.024441468 0.69700003 -0.053771228 1.3348836e-38 340 284
0.025663542 0.69700003 -0.053771228 1.3348836e-38 341 284
0.026885614 0.69700003 -0.053771228 1.3256634e-38 342 284
0.028148014 0.69800001 -0.053848371 1.3164438e-38 343 284
0.029371841 0.69800001 -0.053848371 1.3071524e-38 344 284
0.030595668 0.69800001 -0.053848371 1.2795297e-38 345 284
0.031819493 0.69800001 -0.053848371 1.2793863e-38 346 284
0.033137999 0.69999999 -0.054002665 1.2517278e-38 347 284
0.034365334 0.69999999 -0.054002665 1.2149224e-38 348 284
0.035592664 0.69999999 -0.054002665 1.2149224e-38 349 284
0.036872596 0.70099998 -0.054079808 1.1874795e-38 350 284
0.038047329 0.69999999 -0.054002665 1.17826e-38 351 284
0.039274666 0.69999999 -0.054002665 1.1874429e-38 352 284
0.040502001 0.69999999 -0.054002665 1.2150656e-38 353 284
0.041788943 0.70099998 -0.054079808 1.2151009e-38 354 284
0.043140765 0.70300001 -0.054234106 1.2151009e-38 355 284
0.04437336 0.70300001 -0.054234106 1.2242489e-38 356 284
0.045670826 0.704 -0.054311249 1.2334685e-38 357 284
0.047038425 0.70599997 -0.054465543 1.2335403e-38 358 284
0.048344657 0.70700002 -0.054542694 1.261235e-38 359 284
0.049794663 0.70999998 -0.054774132 1.2519799e-38 360 284
0.051039528 0.70999998 -0.054774132 1.2611994e-38 361 284
0.052358042 0.71100003 -0.054851279 1.2704561e-38 362 284
0.053755447 0.713 -0.055005573 1.3072985e-38 363 284
0.05508272 0.71399999 -0.05508272 1.3075154e-38 364 284
0.0563346 0.71399999 -0.05508272 1.2891123e-38 365 284
0.057586476 0.71399999 -0.05508272 1.3352138e-38 366 284
-0.0125714 0.71700001 -0.056571297 1.5194939e-38 310 285
-0.01129848 0.71600002 -0.056492399 1.4825797e-38 311 285
-0.010043093 0.71600002 -0.056492399 1.5284589e-38 312 285
-0.0087631596 0.71399999 -0.0563346 1.5008361e-38 313 285
-0.0075112795 0.71399999 -0.0563346 1.5006916e-38 314 285
-0.0062506334 0.713 -0.056255698 1.4729969e-38 315 285
-0.0049864799 0.71100003 -0.056097899 1.4820717e-38 316 285
-0.0037345996 0.70999998 -0.056018997 1.4452293e-38 317 285
-0.0024897333 0.70999998 -0.056018997 1.4360097e-38 318 285
-0.00124136 0.708 -0.055861197 1.4360097e-38 319 285
0 0.70700002 -0.055782299 1.4084234e-38 320 285
0.0012378532 0.70599997 -0.055703394 1.3992038e-38 321 285
0.0024686933 0.704 -0.055545598 1.3807294e-38 322 285
0.0036977797 0.70300001 -0.0554667 1.3622902e-38 323 285
0.0049163462 0.70099998 -0.055308893 1.3531072e-38 324 285
0.0061366665 0.69999999 -0.055229999 1.3438877e-38 325 285
0.0073639993 0.69999999 -0.055229999 1.3347407e-38 326 285
0.0085913334 0.69999999 -0.055229999 1.3347407e-38 327 285
0.0098186666 0.69999999 -0.055229999 1.3348481e-38 328 285
0.01101444 0.69800001 -0.0550722 1.3440676e-38 329 285
0.012238266 0.69800001 -0.0550722 1.3348836e-38 330 285
0.013462093 0.69800001 -0.0550722 1.3441032e-38 331 285
0.01468592 0.69800001 -0.0550722 1.3257367e-38 332 285
0.015909746 0.69800001 -0.0550722 1.3441398e-38 333 285
0.017133573 0.69800001 -0.0550722 1.3533949e-38 334 285
0.0183574 0.69800001 -0.0550722 1.3626145e-38 335 285
0.019581227 0.69800001 -0.0550722 1.3350634e-38 336 285
0.020805053 0.69800001 -0.0550722 1.3258439e-38 337 285
0.02199732 0.69700003 -0.054993302 1.3257364e-38 338 285
0.023219392 0.69700003 -0.054993302 1.3072971e-38 339 285
0.024441468 0.69700003 -0.054993302 1.2980773e-38 340 285
0.025663542 0.69700003 -0.054993302 1.2888577e-38 341 285
0.026885614 0.69700003 -0.054993302 1.2888574e-38 342 285
0.028148014 0.69800001 -0.0550722 1.2796379e-38 343 285
0.029371841 0.69800001 -0.0550722 1.2703464e-38 344 285
0.030595668 0.69800001 -0.0550722 1.2519072e-38 345 285
0.031819493 0.69800001 -0.0550722 1.2518e-38 346 285
0.033137999 0.69999999 -0.055229999 1.2333608e-38 347 285
0.034365334 0.69999999 -0.055229999 1.2057744e-38 348 285
0.035592664 0.69999999 -0.055229999 1.214994e-38 349 285
0.036872596 0.70099998 -0.055308893 1.2057744e-38 350 285
0.038101684 0.70099998 -0.055308893 1.2057744e-38 351 285
0.039330769 0.70099998 -0.055308893 1.1874427e-38 352 285
0.040559858 0.70099998 -0.055308893 1.1966981e-38 353 285
0.041788943 0.70099998 -0.055308893 1.2150293e-38 354 285
0.043018032 0.70099998 -0.055308893 1.2150293e-38 355 285
0.04437336 0.70300001 -0.0554667 1.2242136e-38 356 285
0.045670826 0.704 -0.055545598 1.2334331e-38 357 285
0.047038425 0.70599997 -0.055703394 1.2335053e-38 358 285
0.048344657 0.70700002 -0.055782299 1.2427249e-38 359 285
