# .PCD v.7 - Point Cloud Data file format
FIELDS x y z rgb imX imY
SIZE 4 4 4 4 4 4
TYPE F F F F F F
COUNT 1 1 1 1 1 1
WIDTH 860
HEIGHT 1
VIEWPOINT 0 0 0 1 0 0 0
POINTS 860
DATA ascii
0 0.76200002 0.01469644 1.0961496e-38 320 229
0.00133604 0.76200002 0.01469644 1.0961496e-38 321 229
0.00267208 0.76200002 0.01469644 1.2521265e-38 322 229
0.0040081199 0.76200002 0.01469644 1.3351027e-38 323 229
0.0053441599 0.76200002 0.01469644 1.5649777e-38 324 229
0.0066801999 0.76200002 0.01469644 1.5649777e-38 325 229
0.0080162399 0.76200002 0.01469644 1.5648685e-38 326 229
0.0093522798 0.76200002 0.01469644 1.5464654e-38 327 229
0.01068832 0.76200002 0.01469644 1.5738716e-38 328 229
0.01202436 0.76200002 0.01469644 1.5553966e-38 329 229
0.0133604 0.76200002 0.01469644 1.5003299e-38 330 229
0.01469644 0.76200002 0.01469644 1.4542322e-38 331 229
0.016074561 0.764 0.014735013 1.4541595e-38 332 229
0.017414106 0.764 0.014735013 1.3896226e-38 333 229
0.018753653 0.764 0.014735013 1.3619293e-38 334 229
0.020145798 0.76599997 0.014773586 1.3342347e-38 335 229
0.021516906 0.76700002 0.014792874 1.3526388e-38 336 229
0.02298094 0.77100003 0.01487002 1.3618942e-38 337 229
0.024395877 0.773 0.014908593 1.3619305e-38 338 229
0.025784519 0.77399999 0.014927879 1.352711e-38 339 229
0.027141599 0.77399999 0.014927879 1.2976834e-38 340 229
0.028572321 0.77600002 0.014966453 1.2976834e-38 341 229
0.029932907 0.77600002 0.014966453 1.1323482e-38 342 229
0.031293493 0.77600002 0.014966453 1.1415679e-38 343 229
0.032654081 0.77600002 0.014966453 1.3275467e-38 344 229
0.034014668 0.77600002 0.014966453 1.7055488e-38 345 229
-0.036735836 0.77600002 0.013605867 1.7334952e-38 293 230
-0.035375252 0.77600002 0.013605867 1.4836644e-38 294 230
-0.034102332 0.778 0.013640933 1.3914328e-38 295 230
-0.032654081 0.77600002 0.013605867 1.5836707e-38 296 230
-0.031293493 0.77600002 0.013605867 1.5467926e-38 297 230
-0.029855758 0.77399999 0.013570799 1.6110019e-38 298 230
-0.028461859 0.773 0.013553266 1.5925628e-38 299 230
-0.027036399 0.77100003 0.013518199 1.6201489e-38 300 230
-0.025617953 0.76899999 0.013483133 1.6201489e-38 301 230
-0.024206521 0.76700002 0.013448066 1.6294049e-38 302 230
-0.022831906 0.76599997 0.013430533 1.6570995e-38 303 230
-0.021488851 0.76599997 0.013430533 1.6571716e-38 304 230
-0.020145798 0.76599997 0.013430533 1.6571716e-38 305 230
-0.018802745 0.76599997 0.013430533 1.666356e-38 306 230
-0.017414106 0.764 0.013395466 1.666356e-38 307 230
-0.01603248 0.76200002 0.0133604 1.6572088e-38 308 230
-0.01469644 0.76200002 0.0133604 1.6848673e-38 309 230
-0.0133604 0.76200002 0.0133604 1.7216733e-38 310 230
-0.01202436 0.76200002 0.0133604 1.7308928e-38 311 230
-0.01068832 0.76200002 0.0133604 1.7308928e-38 312 230
-0.0093522798 0.76200002 0.0133604 1.7216733e-38 313 230
-0.0080162399 0.76200002 0.0133604 1.7123097e-38 314 230
-0.0066801999 0.76200002 0.0133604 1.6753954e-38 315 230
-0.0053371461 0.76099998 0.013342866 1.6110373e-38 316 230
-0.0040028598 0.76099998 0.013342866 1.5649036e-38 317 230
-0.0026685731 0.76099998 0.013342866 1.3624342e-38 318 230
-0.0013342865 0.76099998 0.013342866 1.2978972e-38 319 230
0 0.76099998 0.013342866 1.2707077e-38 320 230
0.0013342865 0.76099998 0.013342866 1.2891827e-38 321 230
0.00267208 0.76200002 0.0133604 1.3994944e-38 322 230
0.0040081199 0.76200002 0.0133604 1.4825064e-38 323 230
0.0053441599 0.76200002 0.0133604 1.6021435e-38 324 230
0.0066801999 0.76200002 0.0133604 1.5837042e-38 325 230
0.0080162399 0.76200002 0.0133604 1.6111093e-38 326 230
0.0093522798 0.76200002 0.0133604 1.5926341e-38 327 230
0.01068832 0.76200002 0.0133604 1.5831628e-38 328 230
0.01202436 0.76200002 0.0133604 1.5555401e-38 329 230
0.0133604 0.76200002 0.0133604 1.5278808e-38 330 230
0.01469644 0.76200002 0.0133604 1.4910385e-38 331 230
0.01603248 0.76200002 0.0133604 1.4633436e-38 332 230
0.01736852 0.76200002 0.0133604 1.3988067e-38 333 230
0.018753653 0.764 0.013395466 1.3894803e-38 334 230
0.020145798 0.76599997 0.013430533 1.3710053e-38 335 230
0.021516906 0.76700002 0.013448066 1.361894e-38 336 230
0.022921326 0.76899999 0.013483133 1.3711135e-38 337 230
0.02433276 0.77100003 0.013518199 1.3619661e-38 338 230
0.025751207 0.773 0.013553266 1.3527107e-38 339 230
0.027106533 0.773 0.013553266 1.306723e-38 340 230
0.028498679 0.77399999 0.013570799 1.3251261e-38 341 230
0.029932907 0.77600002 0.013605867 1.196452e-38 342 230
0.031293493 0.77600002 0.013605867 1.1871966e-38 343 230
0.032654081 0.77600002 0.013605867 1.2809079e-38 344 230
0.034014668 0.77600002 0.013605867 1.6681295e-38 345 230
-0.038292799 0.77999997 0.012308398 1.7795571e-38 292 231
-0.036830518 0.778 0.012276839 1.6504832e-38 293 231
-0.035466425 0.778 0.012276839 1.4188751e-38 294 231
-0.034102332 0.778 0.012276839 1.3635936e-38 295 231
-0.032654081 0.77600002 0.01224528 1.5835973e-38 296 231
-0.031212838 0.77399999 0.01221372 1.5651582e-38 297 231
-0.029855758 0.77399999 0.01221372 1.5925978e-38 298 231
-0.028461859 0.773 0.012197939 1.5925978e-38 299 231
-0.027036399 0.77100003 0.01216638 1.6018174e-38 300 231
-0.025617953 0.76899999 0.012134819 1.611037e-38 301 231
-0.024206521 0.76700002 0.01210326 1.6203288e-38 302 231
-0.022831906 0.76599997 0.012087479 1.638768e-38 303 231
-0.021488851 0.76599997 0.012087479 1.6480597e-38 304 231
-0.020145798 0.76599997 0.012087479 1.6480597e-38 305 231
-0.018802745 0.76599997 0.012087479 1.657136e-38 306 231
-0.017414106 0.764 0.01205592 1.6663556e-38 307 231
-0.01603248 0.76200002 0.01202436 1.6939071e-38 308 231
-0.014677152 0.76099998 0.012008579 1.7123462e-38 309 231
-0.013342866 0.76099998 0.012008579 1.7032348e-38 310 231
-0.012008579 0.76099998 0.012008579 1.721638e-38 311 231
-0.010674292 0.76099998 0.012008579 1.7308933e-38 312 231
-0.0093400059 0.76099998 0.012008579 1.7308933e-38 313 231
-0.0080057196 0.76099998 0.012008579 1.7308557e-38 314 231
-0.0066714329 0.76099998 0.012008579 1.7216361e-38 315 231
-0.0053371461 0.76099998 0.012008579 1.6939407e-38 316 231
-0.0040028598 0.76099998 0.012008579 1.6386235e-38 317 231
-0.0026685731 0.76099998 0.012008579 1.5005111e-38 318 231
-0.0013342865 0.76099998 0.012008579 1.4544493e-38 319 231
0 0.76099998 0.012008579 1.4547375e-38 320 231
0.0013342865 0.76099998 0.012008579 1.4916159e-38 321 231
0.00267208 0.76200002 0.01202436 1.5744475e-38 322 231
0.0040081199 0.76200002 0.01202436 1.6297649e-38 323 231
0.0053441599 0.76200002 0.01202436 1.6206175e-38 324 231
0.0066801999 0.76200002 0.01202436 1.5929588e-38 325 231
0.0080162399 0.76200002 0.01202436 1.6387327e-38 326 231
0.0093522798 0.76200002 0.01202436 1.611074e-38 327 231
0.01068832 0.76200002 0.01202436 1.6016023e-38 328 231
0.01202436 0.76200002 0.01202436 1.5555045e-38 329 231
0.0133604 0.76200002 0.01202436 1.5278455e-38 330 231
0.01469644 0.76200002 0.01202436 1.5002227e-38 331 231
0.01603248 0.76200002 0.01202436 1.4725281e-38 332 231
0.01736852 0.76200002 0.01202436 1.4172466e-38 333 231
0.018753653 0.764 0.01205592 1.4079193e-38 334 231
0.020093199 0.764 0.01205592 1.3986998e-38 335 231
0.021516906 0.76700002 0.01210326 1.3712209e-38 336 231
0.022921326 0.76899999 0.012134819 1.3620012e-38 337 231
0.02433276 0.77100003 0.01216638 1.3527463e-38 338 231
0.02568458 0.77100003 0.01216638 1.3435267e-38 339 231
0.027106533 0.773 0.012197939 1.3250898e-38 340 231
0.028498679 0.77399999 0.01221372 1.3250898e-38 341 231
0.029855758 0.77399999 0.01221372 1.2424044e-38 342 231
0.031212838 0.77399999 0.01221372 1.2424044e-38 343 231
0.032654081 0.77600002 0.01224528 1.2070065e-38 344 231
0.034014668 0.77600002 0.01224528 1.5389107e-38 345 231
0.035375252 0.77600002 0.01224528 1.7242769e-38 346 231
-0.038292799 0.77999997 0.010940799 1.7333154e-38 292 232
-0.036925197 0.77999997 0.010940799 1.5857665e-38 293 232
-0.035557598 0.77999997 0.010940799 1.4002548e-38 294 232
-0.034102332 0.778 0.010912746 1.354157e-38 295 232
-0.032738242 0.778 0.010912746 1.5649777e-38 296 232
-0.031212838 0.77399999 0.01085664 1.5649777e-38 297 232
-0.029855758 0.77399999 0.01085664 1.5926329e-38 298 232
-0.028461859 0.773 0.010842613 1.5926329e-38 299 232
-0.026966266 0.76899999 0.010786506 1.611072e-38 300 232
-0.025551327 0.76700002 0.010758453 1.6294753e-38 301 232
-0.024206521 0.76700002 0.010758453 1.6020695e-38 302 232
-0.022831906 0.76599997 0.010744425 1.6205086e-38 303 232
-0.021432746 0.764 0.010716373 1.6571714e-38 304 232
-0.020093199 0.764 0.010716373 1.6756106e-38 305 232
-0.018753653 0.764 0.010716373 1.6480967e-38 306 232
-0.01736852 0.76200002 0.01068832 1.6480967e-38 307 232
-0.016011439 0.76099998 0.010674292 1.6939071e-38 308 232
-0.014677152 0.76099998 0.010674292 1.7031267e-38 309 232
-0.013342866 0.76099998 0.010674292 1.7032702e-38 310 232
-0.012008579 0.76099998 0.010674292 1.7032702e-38 311 232
-0.010674292 0.76099998 0.010674292 1.7308928e-38 312 232
-0.0093400059 0.76099998 0.010674292 1.7493321e-38 313 232
-0.0080057196 0.76099998 0.010674292 1.73118e-38 314 232
-0.0066538998 0.759 0.01064624 1.7127768e-38 315 232
-0.0053231199 0.759 0.01064624 1.7399313e-38 316 232
-0.0039923396 0.759 0.01064624 1.7214563e-38 317 232
-0.00266156 0.759 0.01064624 1.6482399e-38 318 232
-0.00133078 0.759 0.01064624 1.6297649e-38 319 232
0 0.759 0.01064624 1.6572797e-38 320 232
0.00133078 0.759 0.01064624 1.6849024e-38 321 232
0.0026685731 0.76099998 0.010674292 1.7033405e-38 322 232
0.0040028598 0.76099998 0.010674292 1.6848655e-38 323 232
0.0053371461 0.76099998 0.010674292 1.629585e-38 324 232
0.0066801999 0.76200002 0.01068832 1.6203654e-38 325 232
0.0080162399 0.76200002 0.01068832 1.6293346e-38 326 232
0.0093522798 0.76200002 0.01068832 1.5924922e-38 327 232
0.01068832 0.76200002 0.01068832 1.5830926e-38 328 232
0.01202436 0.76200002 0.01068832 1.5462502e-38 329 232
0.0133604 0.76200002 0.01068832 1.5185909e-38 330 232
0.01469644 0.76200002 0.01068832 1.4817127e-38 331 232
0.01603248 0.76200002 0.01068832 1.4632017e-38 332 232
0.01736852 0.76200002 0.01068832 1.4447624e-38 333 232
0.018753653 0.764 0.010716373 1.4172113e-38 334 232
0.020093199 0.764 0.010716373 1.4172113e-38 335 232
0.021488851 0.76599997 0.010744425 1.3805126e-38 336 232
0.022921326 0.76899999 0.010786506 1.352854e-38 337 232
0.024269639 0.76899999 0.010786506 1.3435993e-38 338 232
0.02568458 0.77100003 0.01081456 1.3251602e-38 339 232
0.027106533 0.773 0.010842613 1.3250895e-38 340 232
0.028498679 0.77399999 0.01085664 1.3250895e-38 341 232
0.029855758 0.77399999 0.01085664 1.2333634e-38 342 232
0.031212838 0.77399999 0.01085664 1.2333634e-38 343 232
0.032654081 0.77600002 0.010884693 1.0778234e-38 344 232
0.034014668 0.77600002 0.010884693 1.3913246e-38 345 232
0.035375252 0.77600002 0.010884693 1.7241324e-38 346 232
-0.038292799 0.77999997 0.0095731998 1.6963643e-38 292 233
-0.036925197 0.77999997 0.0095731998 1.5212285e-38 293 233
-0.035557598 0.77999997 0.0095731998 1.3907828e-38 294 233
-0.034102332 0.778 0.0095486529 1.4000024e-38 295 233
-0.032738242 0.778 0.0095486529 1.5742328e-38 296 233
-0.031293493 0.77600002 0.009524107 1.5650133e-38 297 233
-0.029855758 0.77399999 0.0094995592 1.5741228e-38 298 233
-0.028461859 0.773 0.0094872871 1.5925978e-38 299 233
-0.026966266 0.76899999 0.0094381925 1.5926697e-38 300 233
-0.025551327 0.76700002 0.0094136465 1.6203286e-38 301 233
-0.024174958 0.76599997 0.0094013726 1.6203657e-38 302 233
-0.022831906 0.76599997 0.0094013726 1.6388048e-38 303 233
-0.021432746 0.764 0.0093768267 1.6480611e-38 304 233
-0.020093199 0.764 0.0093768267 1.6572807e-38 305 233
-0.01870456 0.76200002 0.0093522798 1.6572807e-38 306 233
-0.01736852 0.76200002 0.0093522798 1.6572807e-38 307 233
-0.016011439 0.76099998 0.0093400059 1.6756478e-38 308 233
-0.014677152 0.76099998 0.0093400059 1.6848673e-38 309 233
-0.013342866 0.76099998 0.0093400059 1.6849752e-38 310 233
-0.012008579 0.76099998 0.0093400059 1.6849752e-38 311 233
-0.010674292 0.76099998 0.0093400059 1.7126334e-38 312 233
-0.0093400059 0.76099998 0.0093400059 1.7310725e-38 313 233
-0.0080057196 0.76099998 0.0093400059 1.7312153e-38 314 233
-0.0066538998 0.759 0.00931546 1.7312153e-38 315 233
-0.0053231199 0.759 0.00931546 1.7495081e-38 316 233
-0.0039923396 0.759 0.00931546 1.7034103e-38 317 233
-0.00266156 0.759 0.00931546 1.7402487e-38 318 233
-0.00133078 0.759 0.00931546 1.7034064e-38 319 233
0 0.759 0.00931546 1.7126612e-38 320 233
0.00133078 0.759 0.00931546 1.6941862e-38 321 233
0.0026685731 0.76099998 0.0093400059 1.6940458e-38 322 233
0.0040028598 0.76099998 0.0093400059 1.6848263e-38 323 233
0.0053371461 0.76099998 0.0093400059 1.6753591e-38 324 233
0.0066801999 0.76200002 0.0093522798 1.6476644e-38 325 233
0.0080162399 0.76200002 0.0093522798 1.6107881e-38 326 233
0.0093522798 0.76200002 0.0093522798 1.5647263e-38 327 233
0.01068832 0.76200002 0.0093522798 1.5370672e-38 328 233
0.01202436 0.76200002 0.0093522798 1.5001891e-38 329 233
0.0133604 0.76200002 0.0093522798 1.47253e-38 330 233
0.01469644 0.76200002 0.0093522798 1.4449073e-38 331 233
0.01603248 0.76200002 0.0093522798 1.4356872e-38 332 233
0.01736852 0.76200002 0.0093522798 1.4264675e-38 333 233
0.018753653 0.764 0.0093768267 1.3989517e-38 334 233
0.020093199 0.764 0.0093768267 1.3805126e-38 335 233
0.021488851 0.76599997 0.0094013726 1.3804051e-38 336 233
0.022861714 0.76700002 0.0094136465 1.3711855e-38 337 233
0.024269639 0.76899999 0.0094381925 1.3619308e-38 338 233
0.02568458 0.77100003 0.0094627403 1.3527112e-38 339 233
0.027106533 0.773 0.0094872871 1.3251251e-38 340 233
0.028498679 0.77399999 0.0094995592 1.3158697e-38 341 233
0.029855758 0.77399999 0.0094995592 1.2516227e-38 342 233
0.031212838 0.77399999 0.0094995592 1.2331836e-38 343 233
0.032654081 0.77600002 0.009524107 1.0405133e-38 344 233
0.034014668 0.77600002 0.009524107 1.2618188e-38 345 233
0.035466425 0.778 0.0095486529 1.6225371e-38 346 233
-0.038292799 0.77999997 0.0082055992 1.6501576e-38 292 234
-0.036925197 0.77999997 0.0082055992 1.4380716e-38 293 234
-0.035557598 0.77999997 0.0082055992 1.4181522e-38 294 234
-0.034102332 0.778 0.0081845606 1.4458469e-38 295 234
-0.032738242 0.778 0.0081845606 1.5742326e-38 296 234
-0.031293493 0.77600002 0.0081635201 1.5465739e-38 297 234
-0.029855758 0.77399999 0.0081424797 1.601602e-38 298 234
-0.028461859 0.773 0.0081319595 1.5923825e-38 299 234
-0.026966266 0.76899999 0.0080898795 1.6109288e-38 300 234
-0.025551327 0.76700002 0.00806884 1.6201484e-38 301 234
-0.024174958 0.76599997 0.0080583189 1.6385885e-38 302 234
-0.022772292 0.764 0.0080372803 1.647808e-38 303 234
-0.02137664 0.76200002 0.0080162399 1.6478093e-38 304 234
-0.0200406 0.76200002 0.0080162399 1.6662843e-38 305 234
-0.018680012 0.76099998 0.0080057196 1.6663207e-38 306 234
-0.017345725 0.76099998 0.0080057196 1.6663207e-38 307 234
-0.016011439 0.76099998 0.0080057196 1.6939071e-38 308 234
-0.014677152 0.76099998 0.0080057196 1.7031267e-38 309 234
-0.013342866 0.76099998 0.0080057196 1.7032346e-38 310 234
-0.012008579 0.76099998 0.0080057196 1.7032346e-38 311 234
-0.010674292 0.76099998 0.0080057196 1.7401125e-38 312 234
-0.00931546 0.759 0.0079846792 1.7678071e-38 313 234
-0.0079846792 0.759 0.0079846792 1.7222132e-38 314 234
-0.0066538998 0.759 0.0079846792 1.703738e-38 315 234
-0.0053231199 0.759 0.0079846792 1.7403642e-38 316 234
-0.0039923396 0.759 0.0079846792 1.7311446e-38 317 234
-0.00266156 0.759 0.0079846792 1.7128119e-38 318 234
-0.00133078 0.759 0.0079846792 1.6851172e-38 319 234
0 0.759 0.0079846792 1.7034118e-38 320 234
0.0013342865 0.76099998 0.0080057196 1.65735e-38 321 234
0.0026685731 0.76099998 0.0080057196 1.6755742e-38 322 234
0.0040028598 0.76099998 0.0080057196 1.6570992e-38 323 234
0.0053371461 0.76099998 0.0080057196 1.6568844e-38 324 234
0.0066801999 0.76200002 0.0080162399 1.620042e-38 325 234
0.0080162399 0.76200002 0.0080162399 1.5830561e-38 326 234
0.0093522798 0.76200002 0.0080162399 1.5645811e-38 327 234
0.01068832 0.76200002 0.0080162399 1.5001877e-38 328 234
0.01202436 0.76200002 0.0080162399 1.4909681e-38 329 234
0.0133604 0.76200002 0.0080162399 1.4632736e-38 330 234
0.01469644 0.76200002 0.0080162399 1.454054e-38 331 234
0.01603248 0.76200002 0.0080162399 1.4264675e-38 332 234
0.01736852 0.76200002 0.0080162399 1.4172479e-38 333 234
0.018753653 0.764 0.0080372803 1.3989167e-38 334 234
0.020093199 0.764 0.0080372803 1.3804776e-38 335 234
0.021432746 0.764 0.0080372803 1.3711505e-38 336 234
0.022831906 0.76599997 0.0080583189 1.3619308e-38 337 234
0.024269639 0.76899999 0.0080898795 1.3343441e-38 338 234
0.025617953 0.76899999 0.0080898795 1.3343441e-38 339 234
0.027036399 0.77100003 0.0081109209 1.3158697e-38 340 234
0.028461859 0.773 0.0081319595 1.3158697e-38 341 234
0.029855758 0.77399999 0.0081424797 1.2699539e-38 342 234
0.031212838 0.77399999 0.0081424797 1.2699539e-38 343 234
0.032654081 0.77600002 0.0081635201 1.1045818e-38 344 234
0.034014668 0.77600002 0.0081635201 1.2152164e-38 345 234
0.035466425 0.778 0.0081845606 1.5025737e-38 346 234
-0.039711244 0.78100002 0.0068467669 1.8071435e-38 291 235
-0.038292799 0.77999997 0.0068379994 1.6132065e-38 292 235
-0.036925197 0.77999997 0.0068379994 1.3458391e-38 293 235
-0.035466425 0.778 0.0068204664 1.4364105e-38 294 235
-0.034102332 0.778 0.0068204664 1.4732529e-38 295 235
-0.032738242 0.778 0.0068204664 1.5649411e-38 296 235
-0.031212838 0.77399999 0.0067853997 1.5372824e-38 297 235
-0.029817186 0.773 0.0067766332 1.5647964e-38 298 235
-0.028388219 0.77100003 0.0067590997 1.5740159e-38 299 235
-0.026966266 0.76899999 0.0067415666 1.5741228e-38 300 235
-0.025551327 0.76700002 0.006724033 1.5925978e-38 301 235
-0.024174958 0.76599997 0.0067152665 1.6017821e-38 302 235
-0.02271268 0.76200002 0.0066801999 1.6294049e-38 303 235
-0.02137664 0.76200002 0.0066801999 1.6478096e-38 304 235
-0.020014299 0.76099998 0.0066714329 1.6570291e-38 305 235
-0.018680012 0.76099998 0.0066714329 1.657101e-38 306 235
-0.017345725 0.76099998 0.0066714329 1.6755403e-38 307 235
-0.015969358 0.759 0.0066538998 1.6755756e-38 308 235
-0.014638579 0.759 0.0066538998 1.6847952e-38 309 235
-0.0133078 0.759 0.0066538998 1.7032702e-38 310 235
-0.01197702 0.759 0.0066538998 1.7216733e-38 311 235
-0.01064624 0.759 0.0066538998 1.7034867e-38 312 235
-0.00931546 0.759 0.0066538998 1.7403289e-38 313 235
-0.0079846792 0.759 0.0066538998 1.7220344e-38 314 235
-0.0066538998 0.759 0.0066538998 1.7220344e-38 315 235
-0.0053231199 0.759 0.0066538998 1.7220333e-38 316 235
-0.0039923396 0.759 0.0066538998 1.7312528e-38 317 235
-0.00266156 0.759 0.0066538998 1.7771683e-38 318 235
-0.00133078 0.759 0.0066538998 1.7495096e-38 319 235
0 0.759 0.0066538998 1.7124516e-38 320 235
0.00133078 0.759 0.0066538998 1.6663897e-38 321 235
0.0026685731 0.76099998 0.0066714329 1.675431e-38 322 235
0.0040028598 0.76099998 0.0066714329 1.6477724e-38 323 235
0.0053371461 0.76099998 0.0066714329 1.629298e-38 324 235
0.0066714329 0.76099998 0.0066714329 1.5739806e-38 325 235
0.0080057196 0.76099998 0.0066714329 1.5646167e-38 326 235
0.0093400059 0.76099998 0.0066714329 1.5369582e-38 327 235
0.010674292 0.76099998 0.0066714329 1.4727438e-38 328 235
0.01202436 0.76200002 0.0066801999 1.4542688e-38 329 235
0.0133604 0.76200002 0.0066801999 1.4266824e-38 330 235
0.01469644 0.76200002 0.0066801999 1.4174629e-38 331 235
0.01603248 0.76200002 0.0066801999 1.3898768e-38 332 235
0.01736852 0.76200002 0.0066801999 1.3714375e-38 333 235
0.01870456 0.76200002 0.0066801999 1.3621823e-38 334 235
0.020093199 0.764 0.006697733 1.3345597e-38 335 235
0.021432746 0.764 0.006697733 1.352819e-38 336 235
0.022831906 0.76599997 0.0067152665 1.3435993e-38 337 235
0.024206521 0.76700002 0.006724033 1.3527112e-38 338 235
0.025617953 0.76899999 0.0067415666 1.3434558e-38 339 235
0.027036399 0.77100003 0.0067590997 1.31587e-38 340 235
0.028461859 0.773 0.0067766332 1.31587e-38 341 235
0.029817186 0.773 0.0067766332 1.2699536e-38 342 235
0.031212838 0.77399999 0.0067853997 1.2884286e-38 343 235
0.032654081 0.77600002 0.0068029333 1.1229117e-38 344 235
0.034014668 0.77600002 0.0068029333 1.1413867e-38 345 235
0.035466425 0.778 0.0068204664 1.4195606e-38 346 235
-0.041080598 0.78100002 0.0054774131 1.8163633e-38 290 236
-0.039660398 0.77999997 0.0054703997 1.8071438e-38 291 236
-0.038292799 0.77999997 0.0054703997 1.576184e-38 292 236
-0.036830518 0.778 0.0054563731 1.3180363e-38 293 236
-0.035466425 0.778 0.0054563731 1.4547052e-38 294 236
-0.034102332 0.778 0.0054563731 1.4915474e-38 295 236
-0.032654081 0.77600002 0.0054423464 1.5740528e-38 296 236
-0.031212838 0.77399999 0.0054283198 1.5372104e-38 297 236
-0.029817186 0.773 0.0054213065 1.5647246e-38 298 236
-0.028314579 0.76899999 0.0053932532 1.5647246e-38 299 236
-0.026896132 0.76700002 0.0053792265 1.574051e-38 300 236
-0.025518013 0.76599997 0.0053722127 1.5833064e-38 301 236
-0.024111839 0.764 0.0053581866 1.5925978e-38 302 236
-0.022682872 0.76099998 0.0053371461 1.611037e-38 303 236
-0.021348584 0.76099998 0.0053371461 1.6202938e-38 304 236
-0.020014299 0.76099998 0.0053371461 1.6295134e-38 305 236
-0.018680012 0.76099998 0.0053371461 1.6571363e-38 306 236
-0.017345725 0.76099998 0.0053371461 1.6847952e-38 307 236
-0.015969358 0.759 0.0053231199 1.6756475e-38 308 236
-0.014638579 0.759 0.0053231199 1.6756475e-38 309 236
-0.0133078 0.759 0.0053231199 1.6848673e-38 310 236
-0.01197702 0.759 0.0053231199 1.6940869e-38 311 236
-0.01064624 0.759 0.0053231199 1.6850841e-38 312 236
-0.0092909131 0.75700003 0.0053090933 1.7035232e-38 313 236
-0.0079636406 0.75700003 0.0053090933 1.6943765e-38 314 236
-0.0066188332 0.755 0.0052950666 1.7127796e-38 315 236
-0.0052950666 0.755 0.0052950666 1.7220344e-38 316 236
-0.0039923396 0.759 0.0053231199 1.7312898e-38 317 236
-0.0026685731 0.76099998 0.0053371461 1.767988e-38 318 236
-0.00133078 0.759 0.0053231199 1.7403292e-38 319 236
0 0.759 0.0053231199 1.657101e-38 320 236
0.00133078 0.759 0.0053231199 1.6202229e-38 321 236
0.00266156 0.759 0.0053231199 1.6477377e-38 322 236
0.0039923396 0.759 0.0053231199 1.6477377e-38 323 236
0.0053371461 0.76099998 0.0053371461 1.5741607e-38 324 236
0.0066714329 0.76099998 0.0053371461 1.546502e-38 325 236
0.0080057196 0.76099998 0.0053371461 1.5554322e-38 326 236
0.0093400059 0.76099998 0.0053371461 1.5369932e-38 327 236
0.010674292 0.76099998 0.0053371461 1.4635956e-38 328 236
0.012008579 0.76099998 0.0053371461 1.4635956e-38 329 236
0.013342866 0.76099998 0.0053371461 1.4267896e-38 330 236
0.01469644 0.76200002 0.0053441599 1.4175701e-38 331 236
0.01603248 0.76200002 0.0053441599 1.3991672e-38 332 236
0.01736852 0.76200002 0.0053441599 1.3806921e-38 333 236
0.01870456 0.76200002 0.0053441599 1.3531063e-38 334 236
0.020093199 0.764 0.0053581866 1.3254117e-38 335 236
0.021432746 0.764 0.0053581866 1.3436713e-38 336 236
0.022831906 0.76599997 0.0053722127 1.3344516e-38 337 236
0.024206521 0.76700002 0.0053792265 1.3067934e-38 338 236
0.025617953 0.76899999 0.0053932532 1.2883542e-38 339 236
0.026966266 0.76899999 0.0053932532 1.2883189e-38 340 236
0.028388219 0.77100003 0.0054072798 1.2883189e-38 341 236
0.029817186 0.773 0.0054213065 1.251658e-38 342 236
0.031212838 0.77399999 0.0054283198 1.2792807e-38 343 236
0.032654081 0.77600002 0.0054423464 1.1688647e-38 344 236
0.034014668 0.77600002 0.0054423464 1.1780842e-38 345 236
0.035466425 0.778 0.0054563731 1.3917577e-38 346 236
-0.041027997 0.77999997 0.0041027996 1.8163631e-38 290 237
-0.039660398 0.77999997 0.0041027996 1.7979239e-38 291 237
-0.038194612 0.778 0.0040922803 1.5115752e-38 292 237
-0.036735836 0.77600002 0.0040817601 1.2995251e-38 293 237
-0.035375252 0.77600002 0.0040817601 1.491583e-38 294 237
-0.033927001 0.77399999 0.0040712398 1.491583e-38 295 237
-0.032569919 0.77399999 0.0040712398 1.5464654e-38 296 237
-0.031212838 0.77399999 0.0040712398 1.5279903e-38 297 237
-0.029817186 0.773 0.0040659797 1.5646167e-38 298 237
-0.02824094 0.76700002 0.00403442 1.5738363e-38 299 237
-0.026861066 0.76599997 0.0040291594 1.5555401e-38 300 237
-0.025518013 0.76599997 0.0040291594 1.5831628e-38 301 237
-0.024111839 0.764 0.0040186401 1.5833064e-38 302 237
-0.022682872 0.76099998 0.0040028598 1.6109291e-38 303 237
-0.021348584 0.76099998 0.0040028598 1.6018188e-38 304 237
-0.020014299 0.76099998 0.0040028598 1.6110384e-38 305 237
-0.018680012 0.76099998 0.0040028598 1.656957e-38 306 237
-0.017345725 0.76099998 0.0040028598 1.6846155e-38 307 237
-0.015969358 0.759 0.0039923396 1.666356e-38 308 237
-0.014638579 0.759 0.0039923396 1.666356e-38 309 237
-0.0133078 0.759 0.0039923396 1.6571363e-38 310 237
-0.01197702 0.759 0.0039923396 1.6571363e-38 311 237
-0.01064624 0.759 0.0039923396 1.62062e-38 312 237
-0.0092909131 0.75700003 0.0039818203 1.685157e-38 313 237
-0.0079636406 0.75700003 0.0039818203 1.6943409e-38 314 237
-0.0066188332 0.755 0.0039712996 1.7127799e-38 315 237
-0.0052950666 0.755 0.0039712996 1.7128503e-38 316 237
-0.0039923396 0.759 0.0039923396 1.6944113e-38 317 237
-0.0026685731 0.76099998 0.0040028598 1.7033788e-38 318 237
-0.00133078 0.759 0.0039923396 1.6665005e-38 319 237
0 0.759 0.0039923396 1.6110389e-38 320 237
0.00133078 0.759 0.0039923396 1.5925638e-38 321 237
0.00266156 0.759 0.0039923396 1.6017471e-38 322 237
0.0039923396 0.759 0.0039923396 1.6017471e-38 323 237
0.0053371461 0.76099998 0.0040028598 1.5648329e-38 324 237
0.0066538998 0.759 0.0039923396 1.5279906e-38 325 237
0.0079846792 0.759 0.0039923396 1.5186258e-38 326 237
0.0093400059 0.76099998 0.0040028598 1.5186258e-38 327 237
0.010674292 0.76099998 0.0040028598 1.4728151e-38 328 237
0.012008579 0.76099998 0.0040028598 1.4635956e-38 329 237
0.013342866 0.76099998 0.0040028598 1.4360092e-38 330 237
0.014677152 0.76099998 0.0040028598 1.4267896e-38 331 237
0.01603248 0.76200002 0.0040081199 1.380872e-38 332 237
0.01736852 0.76200002 0.0040081199 1.3624329e-38 333 237
0.01870456 0.76200002 0.0040081199 1.3348466e-38 334 237
0.0200406 0.76200002 0.0040081199 1.3071521e-38 335 237
0.021432746 0.764 0.0040186401 1.325412e-38 336 237
0.022831906 0.76599997 0.0040291594 1.2977533e-38 337 237
0.024206521 0.76700002 0.00403442 1.2976457e-38 338 237
0.025551327 0.76700002 0.00403442 1.2884261e-38 339 237
0.026966266 0.76899999 0.0040449398 1.3066501e-38 340 237
0.028388219 0.77100003 0.0040554604 1.3066501e-38 341 237
0.029817186 0.773 0.0040659797 1.2332549e-38 342 237
0.03117251 0.773 0.0040659797 1.2517299e-38 343 237
0.032654081 0.77600002 0.0040817601 1.1689723e-38 344 237
0.034014668 0.77600002 0.0040817601 1.1782277e-38 345 237
0.035466425 0.778 0.0040922803 1.3823577e-38 346 237
0.036925197 0.77999997 0.0041027996 1.6221023e-38 347 237
-0.040922798 0.778 0.0027281865 1.834658e-38 290 238
-0.039558705 0.778 0.0027281865 1.8254384e-38 291 238
-0.038194612 0.778 0.0027281865 1.5022473e-38 292 238
-0.036735836 0.77600002 0.0027211732 1.3086365e-38 293 238
-0.035375252 0.77600002 0.0027211732 1.4915827e-38 294 238
-0.033927001 0.77399999 0.0027141599 1.4823632e-38 295 238
-0.032569919 0.77399999 0.0027141599 1.5280978e-38 296 238
-0.03117251 0.773 0.0027106532 1.5004392e-38 297 238
-0.029740039 0.77100003 0.0027036399 1.5462852e-38 298 238
-0.02824094 0.76700002 0.0026896133 1.5462852e-38 299 238
-0.026861066 0.76599997 0.0026861064 1.5462852e-38 300 238
-0.025518013 0.76599997 0.0026861064 1.5555048e-38 301 238
-0.024017159 0.76099998 0.0026685731 1.5647964e-38 302 238
-0.022682872 0.76099998 0.0026685731 1.5832355e-38 303 238
-0.021348584 0.76099998 0.0026685731 1.5924203e-38 304 238
-0.020014299 0.76099998 0.0026685731 1.620043e-38 305 238
-0.018680012 0.76099998 0.0026685731 1.6108967e-38 306 238
-0.017345725 0.76099998 0.0026685731 1.6385194e-38 307 238
-0.015969358 0.759 0.00266156 1.6201879e-38 308 238
-0.014638579 0.759 0.00266156 1.6201879e-38 309 238
-0.0133078 0.759 0.00266156 1.6201879e-38 310 238
-0.01197702 0.759 0.00266156 1.6109683e-38 311 238
-0.01064624 0.759 0.00266156 1.5558324e-38 312 238
-0.00931546 0.759 0.00266156 1.6480639e-38 313 238
-0.0079846792 0.759 0.00266156 1.7126727e-38 314 238
-0.0066538998 0.759 0.00266156 1.6942336e-38 315 238
-0.0053231199 0.759 0.00266156 1.6666457e-38 316 238
-0.0039923396 0.759 0.00266156 1.657426e-38 317 238
-0.00266156 0.759 0.00266156 1.6480617e-38 318 238
-0.00133078 0.759 0.00266156 1.6019638e-38 319 238
0 0.759 0.00266156 1.5925638e-38 320 238
0.0013272733 0.75700003 0.0026545466 1.5649411e-38 321 238
0.0026545466 0.75700003 0.0026545466 1.5740531e-38 322 238
0.0039818203 0.75700003 0.0026545466 1.5648335e-38 323 238
0.0053231199 0.759 0.00266156 1.5372104e-38 324 238
0.0066538998 0.759 0.00266156 1.5095158e-38 325 238
0.0079846792 0.759 0.00266156 1.4819282e-38 326 238
0.00931546 0.759 0.00266156 1.4819282e-38 327 238
0.010674292 0.76099998 0.0026685731 1.445229e-38 328 238
0.012008579 0.76099998 0.0026685731 1.4544486e-38 329 238
0.013342866 0.76099998 0.0026685731 1.4268978e-38 330 238
0.014677152 0.76099998 0.0026685731 1.4176782e-38 331 238
0.016011439 0.76099998 0.0026685731 1.399346e-38 332 238
0.017345725 0.76099998 0.0026685731 1.380907e-38 333 238
0.01870456 0.76200002 0.00267208 1.3441368e-38 334 238
0.0200406 0.76200002 0.00267208 1.3256618e-38 335 238
0.02137664 0.76200002 0.00267208 1.3254473e-38 336 238
0.022772292 0.764 0.0026790933 1.2977886e-38 337 238
0.024174958 0.76599997 0.0026861064 1.2792789e-38 338 238
0.025551327 0.76700002 0.0026896133 1.2700593e-38 339 238
0.026966266 0.76899999 0.0026966266 1.2699527e-38 340 238
0.028388219 0.77100003 0.0027036399 1.2606972e-38 341 238
0.029740039 0.77100003 0.0027036399 1.2056691e-38 342 238
0.03117251 0.773 0.0027106532 1.2241082e-38 343 238
0.032569919 0.77399999 0.0027141599 1.178264e-38 344 238
0.034014668 0.77600002 0.0027211732 1.178264e-38 345 238
0.035375252 0.77600002 0.0027211732 1.3453708e-38 346 238
0.036925197 0.77999997 0.0027351999 1.6127383e-38 347 238
-0.040922798 0.778 0.0013640933 1.8071435e-38 290 239
-0.039457016 0.77600002 0.0013605866 1.8071435e-38 291 239
-0.037998237 0.77399999 0.0013570799 1.5115025e-38 292 239
-0.036641158 0.77399999 0.0013570799 1.2810135e-38 293 239
-0.03528408 0.77399999 0.0013570799 1.4729645e-38 294 239
-0.033927001 0.77399999 0.0013570799 1.4913676e-38 295 239
-0.032527838 0.773 0.0013553266 1.5372101e-38 296 239
-0.03117251 0.773 0.0013553266 1.518771e-38 297 239
-0.02966289 0.76899999 0.0013483133 1.5553966e-38 298 239
-0.02824094 0.76700002 0.0013448066 1.5553966e-38 299 239
-0.026861066 0.76599997 0.0013430532 1.55536e-38 300 239
-0.025518013 0.76599997 0.0013430532 1.5645796e-38 301 239
-0.024017159 0.76099998 0.0013342865 1.573871e-38 302 239
-0.022682872 0.76099998 0.0013342865 1.592346e-38 303 239
-0.021348584 0.76099998 0.0013342865 1.6106417e-38 304 239
-0.020014299 0.76099998 0.0013342865 1.6106417e-38 305 239
-0.018680012 0.76099998 0.0013342865 1.6015307e-38 306 239
-0.017345725 0.76099998 0.0013342865 1.6291534e-38 307 239
-0.016011439 0.76099998 0.0013342865 1.6199335e-38 308 239
-0.014638579 0.759 0.00133078 1.6015304e-38 309 239
-0.0133078 0.759 0.00133078 1.6199688e-38 310 239
-0.01197702 0.759 0.00133078 1.6015657e-38 311 239
-0.01064624 0.759 0.00133078 1.6016376e-38 312 239
-0.00931546 0.759 0.00133078 1.6200767e-38 313 239
-0.0079846792 0.759 0.00133078 1.5559736e-38 314 239
-0.0066188332 0.755 0.0013237667 1.6020355e-38 315 239
-0.0052950666 0.755 0.0013237667 1.6110758e-38 316 239
-0.0039818203 0.75700003 0.0013272733 1.564978e-38 317 239
-0.00266156 0.759 0.00133078 1.6292616e-38 318 239
-0.00133078 0.759 0.00133078 1.6107866e-38 319 239
0 0.759 0.00133078 1.5923104e-38 320 239
0.0013272733 0.75700003 0.0013272733 1.5738713e-38 321 239
0.0026545466 0.75700003 0.0013272733 1.5555401e-38 322 239
0.0039818203 0.75700003 0.0013272733 1.5370651e-38 323 239
0.0053231199 0.759 0.00133078 1.5095143e-38 324 239
0.0066538998 0.759 0.00133078 1.5002946e-38 325 239
0.0079846792 0.759 0.00133078 1.4818552e-38 326 239
0.00931546 0.759 0.00133078 1.4818552e-38 327 239
0.01064624 0.759 0.00133078 1.4360092e-38 328 239
0.012008579 0.76099998 0.0013342865 1.4452646e-38 329 239
0.013342866 0.76099998 0.0013342865 1.4269331e-38 330 239
0.014677152 0.76099998 0.0013342865 1.4177136e-38 331 239
0.016011439 0.76099998 0.0013342865 1.3901988e-38 332 239
0.017345725 0.76099998 0.0013342865 1.3717597e-38 333 239
0.01870456 0.76200002 0.00133604 1.3441736e-38 334 239
0.0200406 0.76200002 0.00133604 1.2980757e-38 335 239
0.02137664 0.76200002 0.00133604 1.2978609e-38 336 239
0.022772292 0.764 0.0013395466 1.2701662e-38 337 239
0.024174958 0.76599997 0.0013430532 1.2700593e-38 338 239
0.025551327 0.76700002 0.0013448066 1.2608397e-38 339 239
0.026896132 0.76700002 0.0013448066 1.24233e-38 340 239
0.028314579 0.76899999 0.0013483133 1.24233e-38 341 239
0.029740039 0.77100003 0.00135182 1.1964492e-38 342 239
0.03117251 0.773 0.0013553266 1.2148884e-38 343 239
0.032569919 0.77399999 0.0013570799 1.1782277e-38 344 239
0.034014668 0.77600002 0.0013605866 1.1782277e-38 345 239
0.035375252 0.77600002 0.0013605866 1.2900536e-38 346 239
0.036925197 0.77999997 0.0013675999 1.5850436e-38 347 239
0.038292799 0.77999997 0.0013675999 1.6872173e-38 348 239
-0.0406598 0.773 -0 1.8438778e-38 290 240
-0.039304473 0.773 -0 1.8346224e-38 291 240
-0.037949149 0.773 -0 1.4839158e-38 292 240
-0.036593821 0.773 -0 1.225768e-38 293 240
-0.035238493 0.773 -0 1.4637449e-38 294 240
-0.033883166 0.773 -0 1.4637449e-38 295 240
-0.032527838 0.773 -0 1.5187357e-38 296 240
-0.031011207 0.76899999 -0 1.5002966e-38 297 240
-0.029585747 0.76700002 -0 1.5095146e-38 298 240
-0.02824094 0.76700002 -0 1.500295e-38 299 240
-0.026861066 0.76599997 -0 1.5278458e-38 300 240
-0.025518013 0.76599997 -0 1.5278458e-38 301 240
-0.024017159 0.76099998 -0 1.5187704e-38 302 240
-0.022682872 0.76099998 -0 1.5280259e-38 303 240
-0.021348584 0.76099998 -0 1.5555051e-38 304 240
-0.020014299 0.76099998 -0 1.5555051e-38 305 240
-0.018680012 0.76099998 -0 1.5462868e-38 306 240
-0.017345725 0.76099998 -0 1.5555063e-38 307 240
-0.016011439 0.76099998 -0 1.5554344e-38 308 240
-0.014638579 0.759 -0 1.5554344e-38 309 240
-0.0133078 0.759 -0 1.5463568e-38 310 240
-0.01197702 0.759 -0 1.5555764e-38 311 240
-0.01064624 0.759 -0 1.5649019e-38 312 240
-0.00931546 0.759 -0 1.5095846e-38 313 240
-0.0079846792 0.759 -0 1.5371375e-38 314 240
-0.0066188332 0.755 -0 1.5924909e-38 315 240
-0.0052950666 0.755 -0 1.5281733e-38 316 240
-0.0039818203 0.75700003 -0 1.5281733e-38 317 240
-0.00266156 0.759 -0 1.5648335e-38 318 240
-0.00133078 0.759 -0 1.5463945e-38 319 240
0 0.759 -0 1.5555401e-38 320 240
0.0013272733 0.75700003 -0 1.5463205e-38 321 240
0.0026545466 0.75700003 -0 1.5278458e-38 322 240
0.0039818203 0.75700003 -0 1.5278458e-38 323 240
0.0053231199 0.759 -0 1.4819279e-38 324 240
0.0066538998 0.759 -0 1.4634887e-38 325 240
0.0079846792 0.759 -0 1.4451574e-38 326 240
0.00931546 0.759 -0 1.4359379e-38 327 240
0.01064624 0.759 -0 1.408495e-38 328 240
0.01197702 0.759 -0 1.4177145e-38 329 240
0.0133078 0.759 -0 1.4085303e-38 330 240
0.014677152 0.76099998 -0 1.4085303e-38 331 240
0.016011439 0.76099998 -0 1.3993107e-38 332 240
0.017345725 0.76099998 -0 1.3809076e-38 333 240
0.018680012 0.76099998 -0 1.3348464e-38 334 240
0.0200406 0.76200002 -0 1.3071877e-38 335 240
0.02137664 0.76200002 -0 1.2702741e-38 336 240
0.02271268 0.76200002 -0 1.251835e-38 337 240
0.024111839 0.764 -0 1.2608395e-38 338 240
0.025518013 0.76599997 -0 1.2516199e-38 339 240
0.026896132 0.76700002 -0 1.2423656e-38 340 240
0.028314579 0.76899999 -0 1.2423656e-38 341 240
0.029740039 0.77100003 -0 1.1873376e-38 342 240
0.03117251 0.773 -0 1.2149602e-38 343 240
0.032569919 0.77399999 -0 1.178336e-38 344 240
0.034014668 0.77600002 -0 1.1507132e-38 345 240
0.035466425 0.778 -0 1.280762e-38 346 240
0.036925197 0.77999997 -0 1.5665326e-38 347 240
0.038292799 0.77999997 -0 1.696329e-38 348 240
-0.0406598 0.773 -0.0013553266 1.8071438e-38 290 241
-0.039304473 0.773 -0.0013553266 1.7886688e-38 291 241
-0.037949149 0.773 -0.0013553266 1.4654767e-38 292 241
-0.036593821 0.773 -0.0013553266 1.2442432e-38 293 241
-0.035238493 0.773 -0.0013553266 1.4822557e-38 294 241
-0.033795502 0.77100003 -0.00135182 1.4638166e-38 295 241
-0.032443684 0.77100003 -0.00135182 1.5004039e-38 296 241
-0.031011207 0.76899999 -0.0013483133 1.4727452e-38 297 241
-0.029585747 0.76700002 -0.0013448066 1.500295e-38 298 241
-0.02824094 0.76700002 -0.0013448066 1.4910394e-38 299 241
-0.026861066 0.76599997 -0.0013430532 1.518589e-38 300 241
-0.025518013 0.76599997 -0.0013430532 1.5278085e-38 301 241
-0.024111839 0.764 -0.0013395466 1.5370285e-38 302 241
-0.022682872 0.76099998 -0.0013342865 1.5370285e-38 303 241
-0.021348584 0.76099998 -0.0013342865 1.5461051e-38 304 241
-0.0200406 0.76200002 -0.00133604 1.5461051e-38 305 241
-0.018680012 0.76099998 -0.0013342865 1.5277383e-38 306 241
-0.017345725 0.76099998 -0.0013342865 1.5369938e-38 307 241
-0.016011439 0.76099998 -0.0013342865 1.5461051e-38 308 241
-0.014638579 0.759 -0.00133078 1.5368854e-38 309 241
-0.0133078 0.759 -0.00133078 1.5278441e-38 310 241
-0.01194546 0.75700003 -0.0013272733 1.5370638e-38 311 241
-0.010618187 0.75700003 -0.0013272733 1.5554669e-38 312 241
-0.00931546 0.759 -0.00133078 1.5370638e-38 313 241
-0.0079846792 0.759 -0.00133078 1.5463205e-38 314 241
-0.0066188332 0.755 -0.0013237667 1.5555401e-38 315 241
-0.0052950666 0.755 -0.0013237667 1.5463568e-38 316 241
-0.0039818203 0.75700003 -0.0013272733 1.5371373e-38 317 241
-0.00266156 0.759 -0.00133078 1.5462852e-38 318 241
-0.0013342865 0.76099998 -0.0013342865 1.5370656e-38 319 241
0 0.759 -0.00133078 1.5461047e-38 320 241
0.00133078 0.759 -0.00133078 1.5368852e-38 321 241
0.0026545466 0.75700003 -0.0013272733 1.5002227e-38 322 241
0.0039818203 0.75700003 -0.0013272733 1.5002227e-38 323 241
0.0053231199 0.759 -0.00133078 1.4818202e-38 324 241
0.0066538998 0.759 -0.00133078 1.4541616e-38 325 241
0.0079636406 0.75700003 -0.0013272733 1.4174631e-38 326 241
0.0092909131 0.75700003 -0.0013272733 1.4266827e-38 327 241
0.010618187 0.75700003 -0.0013272733 1.3992751e-38 328 241
0.01197702 0.759 -0.00133078 1.3992751e-38 329 241
0.0133078 0.759 -0.00133078 1.4085303e-38 330 241
0.014677152 0.76099998 -0.0013342865 1.3993107e-38 331 241
0.016011439 0.76099998 -0.0013342865 1.3808723e-38 332 241
0.017345725 0.76099998 -0.0013342865 1.3531776e-38 333 241
0.018680012 0.76099998 -0.0013342865 1.3255918e-38 334 241
0.020014299 0.76099998 -0.0013342865 1.2794941e-38 335 241
0.02137664 0.76200002 -0.00133604 1.2793863e-38 336 241
0.02271268 0.76200002 -0.00133604 1.2425082e-38 337 241
0.024111839 0.764 -0.0013395466 1.2425082e-38 338 241
0.025518013 0.76599997 -0.0013430532 1.2425082e-38 339 241
0.026896132 0.76700002 -0.0013448066 1.2240336e-38 340 241
0.028314579 0.76899999 -0.0013483133 1.2240336e-38 341 241
0.02966289 0.76899999 -0.0013483133 1.168898e-38 342 241
0.031091858 0.77100003 -0.00135182 1.1965927e-38 343 241
0.032527838 0.773 -0.0013553266 1.1599325e-38 344 241
0.033927001 0.77399999 -0.0013570799 1.1875912e-38 345 241
0.035375252 0.77600002 -0.0013605866 1.3083125e-38 346 241
0.036925197 0.77999997 -0.0013675999 1.57568e-38 347 241
-0.0406598 0.773 -0.0027106532 1.8163631e-38 290 242
-0.039304473 0.773 -0.0027106532 1.7610457e-38 291 242
-0.037949149 0.773 -0.0027106532 1.4103028e-38 292 242
-0.036593821 0.773 -0.0027106532 1.2258755e-38 293 242
-0.035238493 0.773 -0.0027106532 1.4639963e-38 294 242
-0.033795502 0.77100003 -0.0027036399 1.4179345e-38 295 242
-0.032443684 0.77100003 -0.0027036399 1.4820367e-38 296 242
-0.031011207 0.76899999 -0.0026966266 1.454414e-38 297 242
-0.029585747 0.76700002 -0.0026896133 1.4635603e-38 298 242
-0.02824094 0.76700002 -0.0026896133 1.4635603e-38 299 242
-0.026861066 0.76599997 -0.0026861064 1.4911103e-38 300 242
-0.025518013 0.76599997 -0.0026861064 1.4911103e-38 301 242
-0.024111839 0.764 -0.0026790933 1.5186258e-38 302 242
-0.022682872 0.76099998 -0.0026685731 1.5186258e-38 303 242
-0.021348584 0.76099998 -0.0026685731 1.5185186e-38 304 242
-0.0200406 0.76200002 -0.00267208 1.5185186e-38 305 242
-0.018680012 0.76099998 -0.0026685731 1.5001877e-38 306 242
-0.017345725 0.76099998 -0.0026685731 1.5001877e-38 307 242
-0.016011439 0.76099998 -0.0026685731 1.5092993e-38 308 242
-0.014677152 0.76099998 -0.0026685731 1.5092993e-38 309 242
-0.0133078 0.759 -0.00266156 1.4909676e-38 310 242
-0.01194546 0.75700003 -0.0026545466 1.500223e-38 311 242
-0.010618187 0.75700003 -0.0026545466 1.491075e-38 312 242
-0.0092909131 0.75700003 -0.0026545466 1.491075e-38 313 242
-0.0079846792 0.759 -0.00266156 1.509479e-38 314 242
-0.0066188332 0.755 -0.0026475333 1.509479e-38 315 242
-0.0052950666 0.755 -0.0026475333 1.5094793e-38 316 242
-0.0039818203 0.75700003 -0.0026545466 1.5094793e-38 317 242
-0.00266156 0.759 -0.00266156 1.5002597e-38 318 242
-0.0013342865 0.76099998 -0.0026685731 1.5002597e-38 319 242
0 0.759 -0.00266156 1.5001877e-38 320 242
0.00133078 0.759 -0.00266156 1.4909681e-38 321 242
0.0026545466 0.75700003 -0.0026545466 1.4818202e-38 322 242
0.0039818203 0.75700003 -0.0026545466 1.4726006e-38 323 242
0.0053090933 0.75700003 -0.0026545466 1.4541622e-38 324 242
0.0066363667 0.75700003 -0.0026545466 1.4541622e-38 325 242
0.0079636406 0.75700003 -0.0026545466 1.3991682e-38 326 242
0.0092909131 0.75700003 -0.0026545466 1.4083878e-38 327 242
0.010618187 0.75700003 -0.0026545466 1.3809439e-38 328 242
0.01197702 0.759 -0.00266156 1.3901635e-38 329 242
0.0133078 0.759 -0.00266156 1.3809439e-38 330 242
0.014677152 0.76099998 -0.0026685731 1.3717243e-38 331 242
0.016011439 0.76099998 -0.0026685731 1.3625051e-38 332 242
0.017345725 0.76099998 -0.0026685731 1.3348464e-38 333 242
0.018680012 0.76099998 -0.0026685731 1.2980407e-38 334 242
0.020014299 0.76099998 -0.0026685731 1.2703461e-38 335 242
0.02137664 0.76200002 -0.00267208 1.2517997e-38 336 242
0.02271268 0.76200002 -0.00267208 1.2333606e-38 337 242
0.024111839 0.764 -0.0026790933 1.2057744e-38 338 242
0.025518013 0.76599997 -0.0026861064 1.1965547e-38 339 242
0.026896132 0.76700002 -0.0026896133 1.2056675e-38 340 242
0.028314579 0.76899999 -0.0026966266 1.1964478e-38 341 242
0.02966289 0.76899999 -0.0026966266 1.1689347e-38 342 242
0.031091858 0.77100003 -0.0027036399 1.1966293e-38 343 242
0.032527838 0.773 -0.0027106532 1.1600414e-38 344 242
0.033927001 0.77399999 -0.0027141599 1.187736e-38 345 242
0.035375252 0.77600002 -0.0027211732 1.3360438e-38 346 242
0.036925197 0.77999997 -0.0027351999 1.566497e-38 347 242
-0.0406598 0.773 -0.0040659797 1.7888123e-38 290 243
-0.039304473 0.773 -0.0040659797 1.7334949e-38 291 243
-0.037949149 0.773 -0.0040659797 1.4010829e-38 292 243
-0.036593821 0.773 -0.0040659797 1.2350949e-38 293 243
-0.035238493 0.773 -0.0040659797 1.4365159e-38 294 243
-0.033883166 0.773 -0.0040659797 1.4180409e-38 295 243
-0.032443684 0.77100003 -0.0040554604 1.4637402e-38 296 243
-0.031011207 0.76899999 -0.0040449398 1.4268978e-38 297 243
-0.029585747 0.76700002 -0.00403442 1.463524e-38 298 243
-0.02824094 0.76700002 -0.00403442 1.463524e-38 299 243
-0.026861066 0.76599997 -0.0040291594 1.4635237e-38 300 243
-0.025518013 0.76599997 -0.0040291594 1.4635237e-38 301 243
-0.024111839 0.764 -0.0040186401 1.4910029e-38 302 243
-0.022682872 0.76099998 -0.0040028598 1.4910029e-38 303 243
-0.021348584 0.76099998 -0.0040028598 1.4818555e-38 304 243
-0.0200406 0.76200002 -0.0040081199 1.4726e-38 305 243
-0.018680012 0.76099998 -0.0040028598 1.481748e-38 306 243
-0.017345725 0.76099998 -0.0040028598 1.481748e-38 307 243
-0.016011439 0.76099998 -0.0040028598 1.4908597e-38 308 243
-0.014677152 0.76099998 -0.0040028598 1.4908597e-38 309 243
-0.0133078 0.759 -0.0039923396 1.4725281e-38 310 243
-0.01194546 0.75700003 -0.0039818203 1.4725281e-38 311 243
-0.010618187 0.75700003 -0.0039818203 1.4725284e-38 312 243
-0.0092909131 0.75700003 -0.0039818203 1.4725284e-38 313 243
-0.0079846792 0.759 -0.0039923396 1.4817483e-38 314 243
-0.0066363667 0.75700003 -0.0039818203 1.4817483e-38 315 243
-0.0053090933 0.75700003 -0.0039818203 1.4909676e-38 316 243
-0.0039818203 0.75700003 -0.0039818203 1.481748e-38 317 243
-0.00266156 0.759 -0.0039923396 1.4817127e-38 318 243
-0.0013342865 0.76099998 -0.0040028598 1.4817127e-38 319 243
0 0.759 -0.0039923396 1.4725653e-38 320 243
0.00133078 0.759 -0.0039923396 1.4725653e-38 321 243
0.0026475333 0.755 -0.0039712996 1.4541266e-38 322 243
0.0039712996 0.755 -0.0039712996 1.444907e-38 323 243
0.0053090933 0.75700003 -0.0039818203 1.4082083e-38 324 243
0.0066363667 0.75700003 -0.0039818203 1.4174278e-38 325 243
0.0079636406 0.75700003 -0.0039818203 1.3716527e-38 326 243
0.0092909131 0.75700003 -0.0039818203 1.3808723e-38 327 243
0.010618187 0.75700003 -0.0039818203 1.3809439e-38 328 243
0.01197702 0.759 -0.0039923396 1.3901635e-38 329 243
0.0133078 0.759 -0.0039923396 1.3809439e-38 330 243
0.014677152 0.76099998 -0.0040028598 1.3717243e-38 331 243
0.016011439 0.76099998 -0.0040028598 1.3441736e-38 332 243
0.017345725 0.76099998 -0.0040028598 1.334954e-38 333 243
0.01870456 0.76200002 -0.0040081199 1.2889283e-38 334 243
0.0200406 0.76200002 -0.0040081199 1.2520502e-38 335 243
0.02137664 0.76200002 -0.0040081199 1.2425804e-38 336 243
0.022772292 0.764 -0.0040186401 1.2149218e-38 337 243
0.024174958 0.76599997 -0.0040291594 1.2147791e-38 338 243
0.025551327 0.76700002 -0.00403442 1.2055595e-38 339 243
0.026896132 0.76700002 -0.00403442 1.1964125e-38 340 243
0.028314579 0.76899999 -0.0040449398 1.1964125e-38 341 243
0.029740039 0.77100003 -0.0040554604 1.1506038e-38 342 243
0.03117251 0.773 -0.0040659797 1.1966656e-38 343 243
0.032527838 0.773 -0.0040659797 1.1417102e-38 344 243
0.033927001 0.77399999 -0.0040712398 1.1693689e-38 345 243
0.035375252 0.77600002 -0.0040817601 1.3638104e-38 346 243
0.036735836 0.77600002 -0.0040817601 1.5666408e-38 347 243
0.038096428 0.77600002 -0.0040817601 1.6962571e-38 348 243
-0.0406598 0.773 -0.0054213065 1.8163987e-38 290 244
-0.039304473 0.773 -0.0054213065 1.7887041e-38 291 244
-0.037949149 0.773 -0.0054213065 1.4470003e-38 292 244
-0.036593821 0.773 -0.0054213065 1.2533894e-38 293 244
-0.035238493 0.773 -0.0054213065 1.4365878e-38 294 244
-0.033883166 0.773 -0.0054213065 1.3997097e-38 295 244
-0.032443684 0.77100003 -0.0054072798 1.4638124e-38 296 244
-0.031011207 0.76899999 -0.0053932532 1.4177145e-38 297 244
-0.029585747 0.76700002 -0.0053792265 1.4451927e-38 298 244
-0.02824094 0.76700002 -0.0053792265 1.4359373e-38 299 244
-0.026861066 0.76599997 -0.0053722127 1.4543041e-38 300 244
-0.025518013 0.76599997 -0.0053722127 1.4543041e-38 301 244
-0.024111839 0.764 -0.0053581866 1.4818186e-38 302 244
-0.022682872 0.76099998 -0.0053371461 1.4818186e-38 303 244
-0.021348584 0.76099998 -0.0053371461 1.4817833e-38 304 244
-0.020014299 0.76099998 -0.0053371461 1.4633442e-38 305 244
-0.018680012 0.76099998 -0.0053371461 1.4633086e-38 306 244
-0.017345725 0.76099998 -0.0053371461 1.4633086e-38 307 244
-0.016011439 0.76099998 -0.0053371461 1.4632367e-38 308 244
-0.014638579 0.759 -0.0053231199 1.4632367e-38 309 244
-0.0133078 0.759 -0.0053231199 1.4724563e-38 310 244
-0.01194546 0.75700003 -0.0053090933 1.4632367e-38 311 244
-0.010618187 0.75700003 -0.0053090933 1.4723485e-38 312 244
-0.0092909131 0.75700003 -0.0053090933 1.4723485e-38 313 244
-0.0079636406 0.75700003 -0.0053090933 1.4540893e-38 314 244
-0.0066538998 0.759 -0.0053231199 1.4540893e-38 315 244
-0.0053231199 0.759 -0.0053231199 1.4724565e-38 316 244
-0.0039923396 0.759 -0.0053231199 1.4724565e-38 317 244
-0.00266156 0.759 -0.0053231199 1.4632017e-38 318 244
-0.00133078 0.759 -0.0053231199 1.4724212e-38 319 244
0 0.759 -0.0053231199 1.4724212e-38 320 244
0.0013272733 0.75700003 -0.0053090933 1.4724212e-38 321 244
0.0026475333 0.755 -0.0052950666 1.4356872e-38 322 244
0.0039712996 0.755 -0.0052950666 1.4264675e-38 323 244
0.0053090933 0.75700003 -0.0053090933 1.3990239e-38 324 244
0.0066363667 0.75700003 -0.0053090933 1.4082436e-38 325 244
0.0079636406 0.75700003 -0.0053090933 1.3716525e-38 326 244
0.0092909131 0.75700003 -0.0053090933 1.380872e-38 327 244
0.010618187 0.75700003 -0.0053090933 1.3717599e-38 328 244
