# .PCD v.7 - Point Cloud Data file format
FIELDS x y z rgb imX imY
SIZE 4 4 4 4 4 4
TYPE F F F F F F
COUNT 1 1 1 1 1 1
WIDTH 829
HEIGHT 1
VIEWPOINT 0 0 0 1 0 0 0
POINTS 829
DATA ascii
-0.0072903596 0.69300002 -0.044957221 1.4912941e-38 314 277
-0.0060577663 0.69099998 -0.044827472 1.4912941e-38 315 277
-0.0048391996 0.69 -0.0447626 1.4912938e-38 316 277
-0.0036293997 0.69 -0.0447626 1.4728546e-38 317 277
-0.0024195998 0.69 -0.0447626 1.5002259e-38 318 277
-0.0012062934 0.68800002 -0.044632856 1.4633477e-38 319 277
0 0.68800002 -0.044632856 1.4724246e-38 320 277
0.0012062934 0.68800002 -0.044632856 1.4724246e-38 321 277
0.0024125867 0.68800002 -0.044632856 1.4357268e-38 322 277
0.0036188802 0.68800002 -0.044632856 1.4449464e-38 323 277
0.0048251734 0.68800002 -0.044632856 1.4174672e-38 324 277
0.0060314666 0.68800002 -0.044632856 1.4174672e-38 325 277
0.0072377604 0.68800002 -0.044632856 1.4266869e-38 326 277
0.0084440531 0.68800002 -0.044632856 1.4266869e-38 327 277
0.0096363192 0.68699998 -0.044567976 1.4725692e-38 328 277
0.010840859 0.68699998 -0.044567976 1.4725692e-38 329 277
0.012045399 0.68699998 -0.044567976 1.4633499e-38 330 277
0.013249939 0.68699998 -0.044567976 1.4633499e-38 331 277
0.014454478 0.68699998 -0.044567976 1.3990647e-38 332 277
0.015659019 0.68699998 -0.044567976 1.3714061e-38 333 277
0.01686356 0.68699998 -0.044567976 1.3160896e-38 334 277
0.0180944 0.68800002 -0.044632856 1.3068341e-38 335 277
0.019300694 0.68800002 -0.044632856 1.3343852e-38 336 277
0.020506985 0.68800002 -0.044632856 1.3897026e-38 337 277
0.021681719 0.68699998 -0.044567976 1.435834e-38 338 277
0.022886258 0.68699998 -0.044567976 1.435834e-38 339 277
0.024090799 0.68699998 -0.044567976 1.4817848e-38 340 277
0.025295338 0.68699998 -0.044567976 1.4910044e-38 341 277
0.026499879 0.68699998 -0.044567976 1.5092993e-38 342 277
0.027704418 0.68699998 -0.044567976 1.5000798e-38 343 277
0.028951041 0.68800002 -0.044632856 1.4724581e-38 344 277
0.030157333 0.68800002 -0.044632856 1.4724581e-38 345 277
0.031454802 0.69 -0.0447626 1.4541271e-38 346 277
0.032711938 0.69099998 -0.044827472 1.4541271e-38 347 277
0.034021679 0.69300002 -0.044957221 1.4449436e-38 348 277
0.035236739 0.69300002 -0.044957221 1.4449436e-38 349 277
0.036504399 0.69400001 -0.045022093 1.4358325e-38 350 277
0.037721213 0.69400001 -0.045022093 1.4358325e-38 351 277
0.039050236 0.69599998 -0.045151837 1.4358685e-38 352 277
0.040270556 0.69599998 -0.045151837 1.4358685e-38 353 277
0.041490879 0.69599998 -0.045151837 1.4266492e-38 354 277
0.042772565 0.69700003 -0.045216713 1.4358688e-38 355 277
0.044183996 0.69999999 -0.04541133 1.3895577e-38 356 277
0.04580057 0.70599997 -0.04580057 1.4172524e-38 357 277
0.047171678 0.708 -0.045930319 1.5848645e-38 358 277
0.048413038 0.708 -0.045930319 1.9352078e-38 359 277
-0.022123558 0.70099998 -0.046705291 1.3720904e-38 302 278
-0.020894472 0.70099998 -0.046705291 1.3443957e-38 303 278
-0.019665385 0.70099998 -0.046705291 1.5648332e-38 304 278
-0.018409999 0.69999999 -0.046638668 1.5464301e-38 305 278
-0.017182667 0.69999999 -0.046638668 1.5922402e-38 306 278
-0.015909746 0.69800001 -0.046505414 1.6014598e-38 307 278
-0.01468592 0.69800001 -0.046505414 1.5648335e-38 308 278
-0.013442807 0.69700003 -0.046438783 1.5740531e-38 309 278
-0.012220734 0.69700003 -0.046438783 1.5463948e-38 310 278
-0.01095132 0.69400001 -0.046238903 1.5187001e-38 311 278
-0.0097345067 0.69400001 -0.046238903 1.4543083e-38 312 278
-0.0085054198 0.69300002 -0.04617228 1.481931e-38 313 278
-0.0072693196 0.69099998 -0.046039023 1.45456e-38 314 278
-0.0060577663 0.69099998 -0.046039023 1.4637796e-38 315 278
-0.0048391996 0.69 -0.045972396 1.4820742e-38 316 278
-0.0036293997 0.69 -0.045972396 1.4544155e-38 317 278
-0.0024125867 0.68800002 -0.045839146 1.4357972e-38 318 278
-0.0012062934 0.68800002 -0.045839146 1.4173222e-38 319 278
0 0.68800002 -0.045839146 1.4355468e-38 320 278
0.0012062934 0.68800002 -0.045839146 1.4263272e-38 321 278
0.0024125867 0.68800002 -0.045839146 1.4079607e-38 322 278
0.0036188802 0.68800002 -0.045839146 1.4355833e-38 323 278
0.0048251734 0.68800002 -0.045839146 1.3989206e-38 324 278
0.0060314666 0.68800002 -0.045839146 1.3989206e-38 325 278
0.0072377604 0.68800002 -0.045839146 1.4173237e-38 326 278
0.0084317802 0.68699998 -0.045772515 1.3989206e-38 327 278
0.0096363192 0.68699998 -0.045772515 1.4172524e-38 328 278
0.010825079 0.68599999 -0.045705888 1.4080328e-38 329 278
0.012027865 0.68599999 -0.045705888 1.3897382e-38 330 278
0.013230653 0.68599999 -0.045705888 1.3804827e-38 331 278
0.014454478 0.68699998 -0.045772515 1.3437122e-38 332 278
0.015659019 0.68699998 -0.045772515 1.3160896e-38 333 278
0.01686356 0.68699998 -0.045772515 1.2976146e-38 334 278
0.018068098 0.68699998 -0.045772515 1.288395e-38 335 278
0.019272638 0.68699998 -0.045772515 1.2976502e-38 336 278
0.020477179 0.68699998 -0.045772515 1.343712e-38 337 278
0.021681719 0.68699998 -0.045772515 1.3714414e-38 338 278
0.022886258 0.68699998 -0.045772515 1.3714414e-38 339 278
0.024090799 0.68699998 -0.045772515 1.4356887e-38 340 278
0.025295338 0.68699998 -0.045772515 1.4356887e-38 341 278
0.026499879 0.68699998 -0.045772515 1.4632388e-38 342 278
0.027704418 0.68699998 -0.045772515 1.4632388e-38 343 278
0.028908957 0.68699998 -0.045772515 1.4356524e-38 344 278
0.030113498 0.68699998 -0.045772515 1.444872e-38 345 278
0.031363625 0.68800002 -0.045839146 1.4356168e-38 346 278
0.032569919 0.68800002 -0.045839146 1.4356168e-38 347 278
0.033923492 0.69099998 -0.046039023 1.4173575e-38 348 278
0.035236739 0.69300002 -0.04617228 1.4173575e-38 349 278
0.036504399 0.69400001 -0.046238903 1.4174294e-38 350 278
0.037721213 0.69400001 -0.046238903 1.4174294e-38 351 278
0.038938027 0.69400001 -0.046238903 1.408318e-38 352 278
0.040154841 0.69400001 -0.046238903 1.408318e-38 353 278
0.041490879 0.69599998 -0.046372157 1.399135e-38 354 278
0.042711195 0.69599998 -0.046372157 1.4083546e-38 355 278
0.043931518 0.69599998 -0.046372157 1.3897013e-38 356 278
0.045281585 0.69800001 -0.046505414 1.3804818e-38 357 278
0.047105055 0.70700002 -0.047105055 1.547769e-38 358 278
0.048344657 0.70700002 -0.047105055 1.8612342e-38 359 278
-0.023352645 0.70099998 -0.047934376 1.0142949e-38 301 279
-0.022123558 0.70099998 -0.047934376 1.3992449e-38 302 279
-0.020894472 0.70099998 -0.047934376 1.417684e-38 303 279
-0.019665385 0.70099998 -0.047934376 1.5554341e-38 304 279
-0.018409999 0.69999999 -0.047865998 1.5646896e-38 305 279
-0.017182667 0.69999999 -0.047865998 1.6013518e-38 306 279
-0.015909746 0.69800001 -0.047729239 1.6105715e-38 307 279
-0.01468592 0.69800001 -0.047729239 1.5739812e-38 308 279
-0.013442807 0.69700003 -0.047660861 1.5832007e-38 309 279
-0.0122032 0.69599998 -0.047592476 1.5095884e-38 310 279
-0.01095132 0.69400001 -0.047455717 1.4450515e-38 311 279
-0.0097345067 0.69400001 -0.047455717 1.4356537e-38 312 279
-0.0085054198 0.69300002 -0.047387339 1.4633482e-38 313 279
-0.0072693196 0.69099998 -0.047250576 1.4451251e-38 314 279
-0.0060577663 0.69099998 -0.047250576 1.4543805e-38 315 279
-0.0048391996 0.69 -0.047182199 1.4726028e-38 316 279
-0.0036188802 0.68800002 -0.047045439 1.4449441e-38 317 279
-0.0024125867 0.68800002 -0.047045439 1.4539483e-38 318 279
-0.0012062934 0.68800002 -0.047045439 1.4263255e-38 319 279
0 0.68800002 -0.047045439 1.4080307e-38 320 279
0.0012062934 0.68800002 -0.047045439 1.3895915e-38 321 279
0.0024125867 0.68800002 -0.047045439 1.3988107e-38 322 279
0.0036188802 0.68800002 -0.047045439 1.3988107e-38 323 279
0.0048181596 0.68699998 -0.046977058 1.3895912e-38 324 279
0.0060226996 0.68699998 -0.046977058 1.3895912e-38 325 279
0.0072272392 0.68699998 -0.046977058 1.3896633e-38 326 279
0.0084195063 0.68599999 -0.046908677 1.3712602e-38 327 279
0.0096222926 0.68599999 -0.046908677 1.3895561e-38 328 279
0.010825079 0.68599999 -0.046908677 1.3803366e-38 329 279
0.012027865 0.68599999 -0.046908677 1.3710814e-38 330 279
0.013230653 0.68599999 -0.046908677 1.3710814e-38 331 279
0.014454478 0.68699998 -0.046977058 1.3435309e-38 332 279
0.015659019 0.68699998 -0.046977058 1.3343114e-38 333 279
0.01686356 0.68699998 -0.046977058 1.2975047e-38 334 279
0.018068098 0.68699998 -0.046977058 1.3067601e-38 335 279
0.019272638 0.68699998 -0.046977058 1.2976481e-38 336 279
0.020447372 0.68599999 -0.046908677 1.3253066e-38 337 279
0.021650158 0.68599999 -0.046908677 1.3803719e-38 338 279
0.022852944 0.68599999 -0.046908677 1.3711523e-38 339 279
0.024055731 0.68599999 -0.046908677 1.4354372e-38 340 279
0.025258519 0.68599999 -0.046908677 1.4354372e-38 341 279
0.026461305 0.68599999 -0.046908677 1.4538394e-38 342 279
0.027664091 0.68599999 -0.046908677 1.4446199e-38 343 279
0.028908957 0.68699998 -0.046977058 1.453875e-38 344 279
0.030113498 0.68699998 -0.046977058 1.4722782e-38 345 279
0.031318039 0.68699998 -0.046977058 1.4446918e-38 346 279
0.032569919 0.68800002 -0.047045439 1.4446918e-38 347 279
0.0338744 0.69 -0.047182199 1.4081732e-38 348 279
0.035135046 0.69099998 -0.047250576 1.4081732e-38 349 279
0.036451802 0.69300002 -0.047387339 1.3990616e-38 350 279
0.037721213 0.69400001 -0.047455717 1.4174647e-38 351 279
0.038938027 0.69400001 -0.047455717 1.3807666e-38 352 279
0.040154841 0.69400001 -0.047455717 1.3807666e-38 353 279
0.041371655 0.69400001 -0.047455717 1.3807669e-38 354 279
0.042711195 0.69599998 -0.047592476 1.39917e-38 355 279
0.043931518 0.69599998 -0.047592476 1.3990997e-38 356 279
0.045281585 0.69800001 -0.047729239 1.3806966e-38 357 279
0.047105055 0.70700002 -0.048344657 1.4924154e-38 358 279
-0.024546666 0.69999999 -0.049093332 1.5947303e-38 300 280
-0.023319334 0.69999999 -0.049093332 1.0138979e-38 301 280
-0.022091998 0.69999999 -0.049093332 1.3807329e-38 302 280
-0.020864666 0.69999999 -0.049093332 1.4268307e-38 303 280
-0.019637333 0.69999999 -0.049093332 1.5003689e-38 304 280
-0.018409999 0.69999999 -0.049093332 1.5095884e-38 305 280
-0.017133573 0.69800001 -0.048953064 1.5279552e-38 306 280
-0.015909746 0.69800001 -0.048953064 1.5371748e-38 307 280
-0.01466488 0.69700003 -0.048882935 1.5372118e-38 308 280
-0.013423519 0.69599998 -0.048812799 1.5279921e-38 309 280
-0.0122032 0.69599998 -0.048812799 1.4729268e-38 310 280
-0.01095132 0.69400001 -0.048672531 1.4268291e-38 311 280
-0.0097345067 0.69400001 -0.048672531 1.435834e-38 312 280
-0.0085054198 0.69300002 -0.048602402 1.4265786e-38 313 280
-0.0072693196 0.69099998 -0.04846213 1.4083195e-38 314 280
-0.0060577663 0.69099998 -0.04846213 1.380661e-38 315 280
-0.0048251734 0.68800002 -0.048251733 1.4080676e-38 316 280
-0.0036188802 0.68800002 -0.048251733 1.398848e-38 317 280
-0.0024125867 0.68800002 -0.048251733 1.389628e-38 318 280
-0.0012062934 0.68800002 -0.048251733 1.389628e-38 319 280
0 0.68800002 -0.048251733 1.3712968e-38 320 280
0.0012062934 0.68800002 -0.048251733 1.3620772e-38 321 280
0.0024090798 0.68699998 -0.048181597 1.3803363e-38 322 280
0.00360836 0.68599999 -0.048111461 1.3803363e-38 323 280
0.0048111463 0.68599999 -0.048111461 1.3527858e-38 324 280
0.0060139326 0.68599999 -0.048111461 1.3527858e-38 325 280
0.0072167199 0.68599999 -0.048111461 1.3252713e-38 326 280
0.0084195063 0.68599999 -0.048111461 1.3252713e-38 327 280
0.0095942402 0.68400002 -0.0479712 1.3160164e-38 328 280
0.01079352 0.68400002 -0.0479712 1.2883936e-38 329 280
0.0119928 0.68400002 -0.0479712 1.279175e-38 330 280
0.01319208 0.68400002 -0.0479712 1.2699555e-38 331 280
0.01443344 0.68599999 -0.048111461 1.2699555e-38 332 280
0.015636226 0.68599999 -0.048111461 1.279175e-38 333 280
0.01686356 0.68699998 -0.048181597 1.2792456e-38 334 280
0.018068098 0.68699998 -0.048181597 1.2792456e-38 335 280
0.019244585 0.68599999 -0.048111461 1.343459e-38 336 280
0.020447372 0.68599999 -0.048111461 1.3342393e-38 337 280
0.021650158 0.68599999 -0.048111461 1.3249491e-38 338 280
0.022852944 0.68599999 -0.048111461 1.3157296e-38 339 280
0.024055731 0.68599999 -0.048111461 1.334204e-38 340 280
0.025258519 0.68599999 -0.048111461 1.3434237e-38 341 280
0.026461305 0.68599999 -0.048111461 1.3435657e-38 342 280
0.027664091 0.68599999 -0.048111461 1.3620407e-38 343 280
0.02886688 0.68599999 -0.048111461 1.3895912e-38 344 280
0.030113498 0.68699998 -0.048181597 1.3895912e-38 345 280
0.031318039 0.68699998 -0.048181597 1.3988107e-38 346 280
0.032522578 0.68699998 -0.048181597 1.3988107e-38 347 280
0.0338744 0.69 -0.048391998 1.3898064e-38 348 280
0.035135046 0.69099998 -0.04846213 1.399026e-38 349 280
0.036451802 0.69300002 -0.048602402 1.3990979e-38 350 280
0.037721213 0.69400001 -0.048672531 1.3990979e-38 351 280
0.038938027 0.69400001 -0.048672531 1.3807316e-38 352 280
0.040154841 0.69400001 -0.048672531 1.3807316e-38 353 280
0.041371655 0.69400001 -0.048672531 1.3532174e-38 354 280
0.042711195 0.69599998 -0.048812799 1.362437e-38 355 280
0.043931518 0.69599998 -0.048812799 1.3349243e-38 356 280
0.045216713 0.69700003 -0.048882935 1.3533635e-38 357 280
0.046438783 0.69700003 -0.048882935 1.4001488e-38 358 280
-0.024546666 0.69999999 -0.050320663 1.5391613e-38 300 281
-0.023319334 0.69999999 -0.050320663 1.0874027e-38 301 281
-0.022091998 0.69999999 -0.050320663 1.3624382e-38 302 281
-0.020864666 0.69999999 -0.050320663 1.3716938e-38 303 281
-0.019637333 0.69999999 -0.050320663 1.4452683e-38 304 281
-0.0183574 0.69800001 -0.050176892 1.4360487e-38 305 281
-0.017133573 0.69800001 -0.050176892 1.5001538e-38 306 281
-0.015886955 0.69700003 -0.050105009 1.5186288e-38 307 281
-0.014643839 0.69599998 -0.050033119 1.5187004e-38 308 281
-0.013423519 0.69599998 -0.050033119 1.5371395e-38 309 281
-0.012168133 0.69400001 -0.049889345 1.48193e-38 310 281
-0.01095132 0.69400001 -0.049889345 1.4634549e-38 311 281
-0.0097204801 0.69300002 -0.049817458 1.4357972e-38 312 281
-0.0085054198 0.69300002 -0.049817458 1.4357972e-38 313 281
-0.0072693196 0.69099998 -0.049673684 1.4081029e-38 314 281
-0.0060314666 0.68800002 -0.049458027 1.3988833e-38 315 281
-0.0048251734 0.68800002 -0.049458027 1.4171778e-38 316 281
-0.0036188802 0.68800002 -0.049458027 1.3895193e-38 317 281
-0.0024125867 0.68800002 -0.049458027 1.3803716e-38 318 281
-0.0012062934 0.68800002 -0.049458027 1.3803716e-38 319 281
0 0.68800002 -0.049458027 1.371117e-38 320 281
0.0012045399 0.68699998 -0.049386136 1.3527139e-38 321 281
0.0024090798 0.68699998 -0.049386136 1.3709732e-38 322 281
0.00360836 0.68599999 -0.049314249 1.3617535e-38 323 281
0.0048111463 0.68599999 -0.049314249 1.3526056e-38 324 281
0.0060139326 0.68599999 -0.049314249 1.3526056e-38 325 281
0.0071956799 0.68400002 -0.049170479 1.2976483e-38 326 281
0.0083949603 0.68400002 -0.049170479 1.3160515e-38 327 281
0.0095942402 0.68400002 -0.049170479 1.2792456e-38 328 281
0.01079352 0.68400002 -0.049170479 1.2515871e-38 329 281
0.0119928 0.68400002 -0.049170479 1.2881782e-38 330 281
0.01319208 0.68400002 -0.049170479 1.2973978e-38 331 281
0.01443344 0.68599999 -0.049314249 1.260699e-38 332 281
0.015636226 0.68599999 -0.049314249 1.260699e-38 333 281
0.016839013 0.68599999 -0.049314249 1.2882851e-38 334 281
0.018041799 0.68599999 -0.049314249 1.3067601e-38 335 281
0.019244585 0.68599999 -0.049314249 1.3342388e-38 336 281
0.020447372 0.68599999 -0.049314249 1.288177e-38 337 281
0.021650158 0.68599999 -0.049314249 1.296894e-38 338 281
0.022852944 0.68599999 -0.049314249 1.3245526e-38 339 281
0.0239856 0.68400002 -0.049170479 1.3064729e-38 340 281
0.025184879 0.68400002 -0.049170479 1.3064729e-38 341 281
0.02638416 0.68400002 -0.049170479 1.3434211e-38 342 281
0.027583439 0.68400002 -0.049170479 1.3526406e-38 343 281
0.02886688 0.68599999 -0.049314249 1.3711155e-38 344 281
0.030113498 0.68699998 -0.049386136 1.3895546e-38 345 281
0.031318039 0.68699998 -0.049386136 1.407958e-38 346 281
0.032522578 0.68699998 -0.049386136 1.4263971e-38 347 281
0.033776212 0.68800002 -0.049458027 1.3988826e-38 348 281
0.035084199 0.69 -0.049601797 1.4081382e-38 349 281
0.036346599 0.69099998 -0.049673684 1.389843e-38 350 281
0.037666857 0.69300002 -0.049817458 1.389843e-38 351 281
0.03888192 0.69300002 -0.049817458 1.3805518e-38 352 281
0.040154841 0.69400001 -0.049889345 1.3897714e-38 353 281
0.041371655 0.69400001 -0.049889345 1.3439257e-38 354 281
0.042711195 0.69599998 -0.050033119 1.3439257e-38 355 281
0.043931518 0.69599998 -0.050033119 1.3347074e-38 356 281
0.045216713 0.69700003 -0.050105009 1.3531824e-38 357 281
0.046505414 0.69800001 -0.050176892 1.335467e-38 358 281
-0.024546666 0.69999999 -0.051547997 1.4834842e-38 300 282
-0.023319334 0.69999999 -0.051547997 1.1147017e-38 301 282
-0.022091998 0.69999999 -0.051547997 1.3348527e-38 302 282
-0.020864666 0.69999999 -0.051547997 1.3440722e-38 303 282
-0.019637333 0.69999999 -0.051547997 1.3989928e-38 304 282
-0.0183574 0.69800001 -0.051400717 1.4082123e-38 305 282
-0.017133573 0.69800001 -0.051400717 1.4357619e-38 306 282
-0.015886955 0.69700003 -0.051327083 1.4818597e-38 307 282
-0.014643839 0.69599998 -0.051253434 1.4818947e-38 308 282
-0.013384946 0.69400001 -0.051106159 1.4726751e-38 309 282
-0.012168133 0.69400001 -0.051106159 1.4634552e-38 310 282
-0.010935539 0.69300002 -0.051032521 1.445052e-38 311 282
-0.0097204801 0.69300002 -0.051032521 1.426542e-38 312 282
-0.008480873 0.69099998 -0.050885238 1.4081029e-38 313 282
-0.0072693196 0.69099998 -0.050885238 1.4172506e-38 314 282
-0.0060314666 0.68800002 -0.050664321 1.3988113e-38 315 282
-0.0048251734 0.68800002 -0.050664321 1.3896265e-38 316 282
-0.0036188802 0.68800002 -0.050664321 1.3711874e-38 317 282
-0.0024125867 0.68800002 -0.050664321 1.3527133e-38 318 282
-0.0012062934 0.68800002 -0.050664321 1.3342741e-38 319 282
0 0.68800002 -0.050664321 1.3249845e-38 320 282
0.0012045399 0.68699998 -0.050590675 1.315729e-38 321 282
0.0024090798 0.68699998 -0.050590675 1.3065095e-38 322 282
0.00360836 0.68599999 -0.050517038 1.3065095e-38 323 282
0.0048111463 0.68599999 -0.050517038 1.2974334e-38 324 282
0.0060139326 0.68599999 -0.050517038 1.2974334e-38 325 282
0.0071956799 0.68400002 -0.050369758 1.2699905e-38 326 282
0.0083949603 0.68400002 -0.050369758 1.2792101e-38 327 282
0.0095942402 0.68400002 -0.050369758 1.24244e-38 328 282
0.01079352 0.68400002 -0.050369758 1.2331845e-38 329 282
0.0119928 0.68400002 -0.050369758 1.2331129e-38 330 282
0.01319208 0.68400002 -0.050369758 1.2238934e-38 331 282
0.01439136 0.68400002 -0.050369758 1.2238578e-38 332 282
0.015636226 0.68599999 -0.050517038 1.2146382e-38 333 282
0.016789921 0.68400002 -0.050369758 1.2422246e-38 334 282
0.0179892 0.68400002 -0.050369758 1.2422246e-38 335 282
0.01918848 0.68400002 -0.050369758 1.3063657e-38 336 282
0.020387759 0.68400002 -0.050369758 1.2787068e-38 337 282
0.02158704 0.68400002 -0.050369758 1.2511202e-38 338 282
0.022852944 0.68599999 -0.050517038 1.2511202e-38 339 282
0.0239856 0.68400002 -0.050369758 1.2237485e-38 340 282
0.025184879 0.68400002 -0.050369758 1.232968e-38 341 282
0.02638416 0.68400002 -0.050369758 1.2972881e-38 342 282
0.027583439 0.68400002 -0.050369758 1.3157631e-38 343 282
0.02886688 0.68599999 -0.050517038 1.3435294e-38 344 282
0.030113498 0.68699998 -0.050590675 1.3711521e-38 345 282
0.031318039 0.68699998 -0.050590675 1.3803e-38 346 282
0.032522578 0.68699998 -0.050590675 1.4079227e-38 347 282
0.033776212 0.68800002 -0.050664321 1.3896636e-38 348 282
0.03498251 0.68800002 -0.050664321 1.3988833e-38 349 282
0.036346599 0.69099998 -0.050885238 1.3806237e-38 350 282
0.037666857 0.69300002 -0.051032521 1.3622206e-38 351 282
0.03888192 0.69300002 -0.051032521 1.3529653e-38 352 282
0.040154841 0.69400001 -0.051106159 1.3529653e-38 353 282
0.041371655 0.69400001 -0.051106159 1.3529303e-38 354 282
0.042588469 0.69400001 -0.051106159 1.36215e-38 355 282
0.043805279 0.69400001 -0.051106159 1.3439275e-38 356 282
0.045281585 0.69800001 -0.051400717 1.3623666e-38 357 282
0.046505414 0.69800001 -0.051400717 1.3261756e-38 358 282
0.047729239 0.69800001 -0.051400717 1.5751038e-38 359 282
-0.024546666 0.69999999 -0.052775331 1.4279149e-38 300 283
-0.023319334 0.69999999 -0.052775331 1.1144856e-38 301 283
-0.02202888 0.69800001 -0.052624546 1.288755e-38 302 283
-0.020805053 0.69800001 -0.052624546 1.3071581e-38 303 283
-0.019581227 0.69800001 -0.052624546 1.3895933e-38 304 283
-0.0183574 0.69800001 -0.052624546 1.4080325e-38 305 283
-0.017109027 0.69700003 -0.052549154 1.4265423e-38 306 283
-0.015864158 0.69599998 -0.052473757 1.4449814e-38 307 283
-0.014643839 0.69599998 -0.052473757 1.4541281e-38 308 283
-0.013384946 0.69400001 -0.052322973 1.4449086e-38 309 283
-0.012150601 0.69300002 -0.05224758 1.4357969e-38 310 283
-0.010935539 0.69300002 -0.05224758 1.4265773e-38 311 283
-0.0097204801 0.69300002 -0.05224758 1.4173225e-38 312 283
-0.008480873 0.69099998 -0.052096792 1.3988833e-38 313 283
-0.0072587994 0.69 -0.052021399 1.4263619e-38 314 283
-0.0060489997 0.69 -0.052021399 1.4171422e-38 315 283
-0.0048251734 0.68800002 -0.051870614 1.380335e-38 316 283
-0.0036136196 0.68699998 -0.051795214 1.3618958e-38 317 283
-0.0024090798 0.68699998 -0.051795214 1.3526409e-38 318 283
-0.0012045399 0.68699998 -0.051795214 1.3157628e-38 319 283
0 0.68699998 -0.051795214 1.3064732e-38 320 283
0.0012045399 0.68699998 -0.051795214 1.287998e-38 321 283
0.0024055731 0.68599999 -0.051719822 1.2604475e-38 322 283
0.00360836 0.68599999 -0.051719822 1.2788868e-38 323 283
0.0048111463 0.68599999 -0.051719822 1.2606274e-38 324 283
0.0059964 0.68400002 -0.051569041 1.269847e-38 325 283
0.0071956799 0.68400002 -0.051569041 1.2515877e-38 326 283
0.0083826864 0.68300003 -0.051493648 1.2515877e-38 327 283
0.0095802136 0.68300003 -0.051493648 1.2332201e-38 328 283
0.01077774 0.68300003 -0.051493648 1.214817e-38 329 283
0.011975267 0.68300003 -0.051493648 1.2239287e-38 330 283
0.013172794 0.68300003 -0.051493648 1.2146731e-38 331 283
0.014370319 0.68300003 -0.051493648 1.2053822e-38 332 283
0.01559064 0.68400002 -0.051569041 1.1961268e-38 333 283
0.016789921 0.68400002 -0.051569041 1.2052747e-38 334 283
0.0179892 0.68400002 -0.051569041 1.2052747e-38 335 283
0.01918848 0.68400002 -0.051569041 1.2419006e-38 336 283
0.020387759 0.68400002 -0.051569041 1.2234614e-38 337 283
0.02158704 0.68400002 -0.051569041 1.1959819e-38 338 283
0.022786319 0.68400002 -0.051569041 1.1959819e-38 339 283
0.0239856 0.68400002 -0.051569041 1.1959819e-38 340 283
0.025184879 0.68400002 -0.051569041 1.2052375e-38 341 283
0.02638416 0.68400002 -0.051569041 1.2511908e-38 342 283
0.027583439 0.68400002 -0.051569041 1.2972886e-38 343 283
0.02886688 0.68599999 -0.051719822 1.3249826e-38 344 283
0.030113498 0.68699998 -0.051795214 1.3526053e-38 345 283
0.031318039 0.68699998 -0.051795214 1.36179e-38 346 283
0.032522578 0.68699998 -0.051795214 1.380265e-38 347 283
0.033776212 0.68800002 -0.051870614 1.3620416e-38 348 283
0.03498251 0.68800002 -0.051870614 1.3712971e-38 349 283
0.0361888 0.68800002 -0.051870614 1.362185e-38 350 283
0.03755815 0.69099998 -0.052096792 1.3529653e-38 351 283
0.03888192 0.69300002 -0.05224758 1.3621126e-38 352 283
0.04009698 0.69300002 -0.05224758 1.3621126e-38 353 283
0.041371655 0.69400001 -0.052322973 1.3620772e-38 354 283
0.042588469 0.69400001 -0.052322973 1.3805165e-38 355 283
0.043805279 0.69400001 -0.052322973 1.3622584e-38 356 283
0.045216713 0.69700003 -0.052549154 1.4083923e-38 357 283
0.046505414 0.69800001 -0.052624546 1.3537617e-38 358 283
0.047729239 0.69800001 -0.052624546 1.5105302e-38 359 283
-0.024546666 0.69999999 -0.054002665 1.4091519e-38 300 284
-0.023319334 0.69999999 -0.054002665 1.1510041e-38 301 284
-0.02202888 0.69800001 -0.053848371 1.2795354e-38 302 284
-0.020805053 0.69800001 -0.053848371 1.2703157e-38 303 284
-0.019581227 0.69800001 -0.053848371 1.3343837e-38 304 284
-0.018331099 0.69700003 -0.053771228 1.3712618e-38 305 284
-0.017109027 0.69700003 -0.053771228 1.3990631e-38 306 284
-0.015864158 0.69599998 -0.053694077 1.3990631e-38 307 284
-0.01460176 0.69400001 -0.053539783 1.4356168e-38 308 284
-0.013384946 0.69400001 -0.053539783 1.4171776e-38 309 284
-0.012150601 0.69300002 -0.053462639 1.3898067e-38 310 284
-0.010935539 0.69300002 -0.053462639 1.3990263e-38 311 284
-0.0096924258 0.69099998 -0.053308345 1.4081379e-38 312 284
-0.008480873 0.69099998 -0.053308345 1.3989182e-38 313 284
-0.0072377604 0.68800002 -0.053076908 1.4078864e-38 314 284
-0.0060314666 0.68800002 -0.053076908 1.3894114e-38 315 284
-0.0048251734 0.68800002 -0.053076908 1.3617883e-38 316 284
-0.0036136196 0.68699998 -0.052999757 1.3525687e-38 317 284
-0.0024090798 0.68699998 -0.052999757 1.3158703e-38 318 284
-0.0012045399 0.68699998 -0.052999757 1.2789922e-38 319 284
0 0.68699998 -0.052999757 1.2604823e-38 320 284
0.0012045399 0.68699998 -0.052999757 1.2420431e-38 321 284
0.0024055731 0.68599999 -0.05292261 1.2053098e-38 322 284
0.00359784 0.68400002 -0.05276832 1.2237129e-38 323 284
0.0047971201 0.68400002 -0.05276832 1.2146734e-38 324 284
0.0059964 0.68400002 -0.05276832 1.2238931e-38 325 284
0.0071956799 0.68400002 -0.05276832 1.2055622e-38 326 284
0.0083826864 0.68300003 -0.052691177 1.2055622e-38 327 284
0.0095802136 0.68300003 -0.052691177 1.2056338e-38 328 284
0.01077774 0.68300003 -0.052691177 1.1871945e-38 329 284
0.011975267 0.68300003 -0.052691177 1.1870504e-38 330 284
0.013172794 0.68300003 -0.052691177 1.1686113e-38 331 284
0.014370319 0.68300003 -0.052691177 1.1592841e-38 332 284
0.015567848 0.68300003 -0.052691177 1.1592841e-38 333 284
0.016765373 0.68300003 -0.052691177 1.1592846e-38 334 284
0.0179892 0.68400002 -0.05276832 1.1592846e-38 335 284
0.01918848 0.68400002 -0.05276832 1.1683961e-38 336 284
0.020387759 0.68400002 -0.05276832 1.131518e-38 337 284
0.02158704 0.68400002 -0.05276832 1.1315536e-38 338 284
0.022786319 0.68400002 -0.05276832 1.1315536e-38 339 284
0.0239856 0.68400002 -0.05276832 1.1315536e-38 340 284
0.025184879 0.68400002 -0.05276832 1.1407731e-38 341 284
0.02638416 0.68400002 -0.05276832 1.1959106e-38 342 284
0.027583439 0.68400002 -0.05276832 1.2235694e-38 343 284
0.02886688 0.68599999 -0.05292261 1.297181e-38 344 284
0.030069664 0.68599999 -0.05292261 1.3248397e-38 345 284
0.031318039 0.68699998 -0.052999757 1.3340593e-38 346 284
0.032522578 0.68699998 -0.052999757 1.3617179e-38 347 284
0.033776212 0.68800002 -0.053076908 1.3251997e-38 348 284
0.03498251 0.68800002 -0.053076908 1.3528224e-38 349 284
0.0361888 0.68800002 -0.053076908 1.3438179e-38 350 284
0.03755815 0.69099998 -0.053308345 1.3345625e-38 351 284
0.038769703 0.69099998 -0.053308345 1.3527858e-38 352 284
0.04009698 0.69300002 -0.053462639 1.3527858e-38 353 284
0.041312039 0.69300002 -0.053462639 1.3344906e-38 354 284
0.042588469 0.69400001 -0.053539783 1.3529656e-38 355 284
0.043805279 0.69400001 -0.053539783 1.3622937e-38 356 284
0.045151837 0.69599998 -0.053694077 1.4268307e-38 357 284
0.046438783 0.69700003 -0.053771228 1.3445774e-38 358 284
0.047660861 0.69700003 -0.053771228 1.4828709e-38 359 284
0.048882935 0.69700003 -0.053771228 1.8710308e-38 360 284
-0.024476532 0.69800001 -0.0550722 1.3997523e-38 300 285
-0.023252707 0.69800001 -0.0550722 1.2061414e-38 301 285
-0.02202888 0.69800001 -0.0550722 1.2978662e-38 302 285
-0.020805053 0.69800001 -0.0550722 1.261024e-38 303 285
-0.019553173 0.69700003 -0.054993302 1.3161596e-38 304 285
-0.018331099 0.69700003 -0.054993302 1.3437823e-38 305 285
-0.017084479 0.69599998 -0.054914396 1.3898433e-38 306 285
-0.015818574 0.69400001 -0.054756597 1.3806237e-38 307 285
-0.01460176 0.69400001 -0.054756597 1.37126e-38 308 285
-0.01336566 0.69300002 -0.054677699 1.37126e-38 309 285
-0.012150601 0.69300002 -0.054677699 1.3530729e-38 310 285
-0.01090398 0.69099998 -0.054519895 1.3530729e-38 311 285
-0.0096924258 0.69099998 -0.054519895 1.343746e-38 312 285
-0.0084686 0.69 -0.054440998 1.3344906e-38 313 285
-0.0072377604 0.68800002 -0.054283202 1.3159796e-38 314 285
-0.0060314666 0.68800002 -0.054283202 1.3067599e-38 315 285
-0.0048251734 0.68800002 -0.054283202 1.3157994e-38 316 285
-0.0036136196 0.68699998 -0.054204296 1.3065798e-38 317 285
-0.0024090798 0.68699998 -0.054204296 1.2514782e-38 318 285
-0.0012045399 0.68699998 -0.054204296 1.2330031e-38 319 285
0 0.68699998 -0.054204296 1.1778662e-38 320 285
0.0012027866 0.68599999 -0.054125395 1.1593912e-38 321 285
0.0024055731 0.68599999 -0.054125395 1.1686113e-38 322 285
0.00359784 0.68400002 -0.053967599 1.1778309e-38 323 285
0.0047901068 0.68300003 -0.053888701 1.1595009e-38 324 285
0.0059876335 0.68300003 -0.053888701 1.1687205e-38 325 285
0.0071851597 0.68300003 -0.053888701 1.1412063e-38 326 285
0.0083826864 0.68300003 -0.053888701 1.1412063e-38 327 285
0.0095802136 0.68300003 -0.053888701 1.1412416e-38 328 285
0.01077774 0.68300003 -0.053888701 1.132022e-38 329 285
0.011975267 0.68300003 -0.053888701 1.1318419e-38 330 285
0.013172794 0.68300003 -0.053888701 1.1226224e-38 331 285
0.014370319 0.68300003 -0.053888701 1.1408816e-38 332 285
0.015567848 0.68300003 -0.053888701 1.1408816e-38 333 285
0.016765373 0.68300003 -0.053888701 1.1408453e-38 334 285
0.017962901 0.68300003 -0.053888701 1.1315898e-38 335 285
0.019160427 0.68300003 -0.053888701 1.1223706e-38 336 285
0.020357953 0.68300003 -0.053888701 1.094712e-38 337 285
0.02158704 0.68400002 -0.053967599 1.0672334e-38 338 285
0.022786319 0.68400002 -0.053967599 1.0580137e-38 339 285
0.0239856 0.68400002 -0.053967599 1.0855649e-38 340 285
0.025184879 0.68400002 -0.053967599 1.0763093e-38 341 285
0.02638416 0.68400002 -0.053967599 1.1130804e-38 342 285
0.027583439 0.68400002 -0.053967599 1.1407749e-38 343 285
0.02886688 0.68599999 -0.054125395 1.1868722e-38 344 285
0.030069664 0.68599999 -0.054125395 1.2145309e-38 345 285
0.031318039 0.68699998 -0.054204296 1.2789233e-38 346 285
0.032522578 0.68699998 -0.054204296 1.2973625e-38 347 285
0.033776212 0.68800002 -0.054283202 1.2884303e-38 348 285
0.03498251 0.68800002 -0.054283202 1.3068694e-38 349 285
0.0361888 0.68800002 -0.054283202 1.3069048e-38 350 285
0.037503798 0.69 -0.054440998 1.3069048e-38 351 285
0.038769703 0.69099998 -0.054519895 1.3252357e-38 352 285
0.039981257 0.69099998 -0.054519895 1.3252357e-38 353 285
0.041312039 0.69300002 -0.054677699 1.3252357e-38 354 285
0.042588469 0.69400001 -0.054756597 1.3529303e-38 355 285
0.043805279 0.69400001 -0.054756597 1.3439991e-38 356 285
0.045151837 0.69599998 -0.054914396 1.3809134e-38 357 285
0.046372157 0.69599998 -0.054914396 1.3445055e-38 358 285
0.047660861 0.69700003 -0.054993302 1.4920185e-38 359 285
0.048882935 0.69700003 -0.054993302 1.9171281e-38 360 285
-0.024476532 0.69800001 -0.056296028 1.3722012e-38 300 286
-0.023252707 0.69800001 -0.056296028 1.1878099e-38 301 286
-0.02202888 0.69800001 -0.056296028 1.3344924e-38 302 286
-0.020805053 0.69800001 -0.056296028 1.3160893e-38 303 286
-0.019553173 0.69700003 -0.056215372 1.3069395e-38 304 286
-0.018304799 0.69599998 -0.056134716 1.3438176e-38 305 286
-0.017084479 0.69599998 -0.056134716 1.3805864e-38 306 286
-0.015818574 0.69400001 -0.055973411 1.3805864e-38 307 286
-0.01460176 0.69400001 -0.055973411 1.3804422e-38 308 286
-0.01336566 0.69300002 -0.055892758 1.3527837e-38 309 286
-0.012150601 0.69300002 -0.055892758 1.3344893e-38 310 286
-0.01090398 0.69099998 -0.055731449 1.3160501e-38 311 286
-0.0096783992 0.69 -0.055650797 1.3064726e-38 312 286
-0.0084686 0.69 -0.055650797 1.315728e-38 313 286
-0.0072377604 0.68800002 -0.055489492 1.278994e-38 314 286
-0.0060314666 0.68800002 -0.055489492 1.2697744e-38 315 286
-0.0048251734 0.68800002 -0.055489492 1.2697018e-38 316 286
-0.0036136196 0.68699998 -0.055408835 1.2604823e-38 317 286
-0.0024090798 0.68699998 -0.055408835 1.2236763e-38 318 286
-0.0012045399 0.68699998 -0.055408835 1.2052372e-38 319 286
0 0.68599999 -0.055328183 1.1959819e-38 320 286
0.0012027866 0.68599999 -0.055328183 1.1959819e-38 321 286
0.0023985601 0.68400002 -0.055166878 1.1501718e-38 322 286
0.0035925799 0.68300003 -0.055086225 1.1593915e-38 323 286
0.0047901068 0.68300003 -0.055086225 1.1227303e-38 324 286
0.0059876335 0.68300003 -0.055086225 1.1135107e-38 325 286
0.0071851597 0.68300003 -0.055086225 1.1135473e-38 326 286
0.0083826864 0.68300003 -0.055086225 1.1043277e-38 327 286
0.0095802136 0.68300003 -0.055086225 1.1134751e-38 328 286
0.01077774 0.68300003 -0.055086225 1.1042556e-38 329 286
0.011975267 0.68300003 -0.055086225 1.1224785e-38 330 286
0.013172794 0.68300003 -0.055086225 1.1132589e-38 331 286
0.014370319 0.68300003 -0.055086225 1.140845e-38 332 286
0.015567848 0.68300003 -0.055086225 1.140845e-38 333 286
0.016765373 0.68300003 -0.055086225 1.140845e-38 334 286
0.017962901 0.68300003 -0.055086225 1.1316254e-38 335 286
0.019160427 0.68300003 -0.055086225 1.0947842e-38 336 286
0.020357953 0.68300003 -0.055086225 1.0763449e-38 337 286
0.02155548 0.68300003 -0.055086225 1.0396466e-38 338 286
0.022786319 0.68400002 -0.055166878 1.0396466e-38 339 286
0.0239856 0.68400002 -0.055166878 1.0580134e-38 340 286
0.025184879 0.68400002 -0.055166878 1.0580134e-38 341 286
0.02638416 0.68400002 -0.055166878 1.0854923e-38 342 286
0.027583439 0.68400002 -0.055166878 1.113151e-38 343 286
0.028908957 0.68699998 -0.055408835 1.1865832e-38 344 286
0.030113498 0.68699998 -0.055408835 1.2326811e-38 345 286
0.031318039 0.68699998 -0.055408835 1.2511558e-38 346 286
0.032522578 0.68699998 -0.055408835 1.2972536e-38 347 286
0.033776212 0.68800002 -0.055489492 1.2789584e-38 348 286
0.03498251 0.68800002 -0.055489492 1.3250561e-38 349 286
0.0361888 0.68800002 -0.055489492 1.3251994e-38 350 286
0.037503798 0.69 -0.055650797 1.334419e-38 351 286
0.038713597 0.69 -0.055650797 1.3160512e-38 352 286
0.0399234 0.69 -0.055650797 1.3253066e-38 353 286
0.041192811 0.69099998 -0.055731449 1.3253066e-38 354 286
0.042527102 0.69300002 -0.055892758 1.3437457e-38 355 286
0.043805279 0.69400001 -0.055973411 1.3347074e-38 356 286
0.045151837 0.69599998 -0.056134716 1.3900247e-38 357 286
0.046372157 0.69599998 -0.056134716 1.3445052e-38 358 286
0.047660861 0.69700003 -0.056215372 1.5012737e-38 359 286
0.049093332 0.69999999 -0.056457333 1.9448592e-38 360 286
-0.024546666 0.69999999 -0.05768466 1.3813478e-38 300 287
-0.023319334 0.69999999 -0.05768466 1.1877369e-38 301 287
-0.02202888 0.69800001 -0.057519849 1.3255228e-38 302 287
-0.020805053 0.69800001 -0.057519849 1.3163031e-38 303 287
-0.019553173 0.69700003 -0.05743745 1.3438882e-38 304 287
-0.018304799 0.69599998 -0.057355035 1.3531078e-38 305 287
-0.017035386 0.69400001 -0.057190225 1.3622552e-38 306 287
-0.015818574 0.69400001 -0.057190225 1.3530356e-38 307 287
-0.01460176 0.69400001 -0.057190225 1.334489e-38 308 287
-0.01336566 0.69300002 -0.057107817 1.3160498e-38 309 287
-0.012115533 0.69099998 -0.056942999 1.3067599e-38 310 287
-0.01090398 0.69099998 -0.056942999 1.2698818e-38 311 287
-0.0096783992 0.69 -0.0568606 1.2422243e-38 312 287
-0.0084686 0.69 -0.0568606 1.2238211e-38 313 287
-0.0072377604 0.68800002 -0.056695789 1.2054538e-38 314 287
-0.0060314666 0.68800002 -0.056695789 1.2054538e-38 315 287
-0.0048251734 0.68800002 -0.056695789 1.1870507e-38 316 287
-0.0036136196 0.68699998 -0.056613375 1.1778312e-38 317 287
-0.0024090798 0.68699998 -0.056613375 1.1502445e-38 318 287
-0.0012045399 0.68699998 -0.056613375 1.1318052e-38 319 287
0 0.68599999 -0.056530971 1.1225857e-38 320 287
0.0012027866 0.68599999 -0.056530971 1.1225857e-38 321 287
0.0023985601 0.68400002 -0.056366164 1.1042191e-38 322 287
0.0035925799 0.68300003 -0.056283753 1.1226224e-38 323 287
0.0047901068 0.68300003 -0.056283753 1.1043277e-38 324 287
0.0059876335 0.68300003 -0.056283753 1.1043277e-38 325 287
0.0071851597 0.68300003 -0.056283753 1.0859959e-38 326 287
0.0083826864 0.68300003 -0.056283753 1.0859959e-38 327 287
0.0095802136 0.68300003 -0.056283753 1.1042912e-38 328 287
0.01077774 0.68300003 -0.056283753 1.085816e-38 329 287
0.011975267 0.68300003 -0.056283753 1.0857447e-38 330 287
0.013153506 0.68199998 -0.056201346 1.0857447e-38 331 287
0.01434928 0.68199998 -0.056201346 1.1133308e-38 332 287
0.015567848 0.68300003 -0.056283753 1.1041112e-38 333 287
0.016765373 0.68300003 -0.056283753 1.1132586e-38 334 287
0.017962901 0.68300003 -0.056283753 1.0948195e-38 335 287
0.019160427 0.68300003 -0.056283753 1.0763449e-38 336 287
0.020357953 0.68300003 -0.056283753 1.0763449e-38 337 287
0.02155548 0.68300003 -0.056283753 1.0304626e-38 338 287
0.022753006 0.68300003 -0.056283753 1.0396822e-38 339 287
0.0239856 0.68400002 -0.056366164 1.0305339e-38 340 287
0.025184879 0.68400002 -0.056366164 1.0305339e-38 341 287
0.02638416 0.68400002 -0.056366164 1.0305345e-38 342 287
0.027664091 0.68599999 -0.056530971 1.0397542e-38 343 287
0.028908957 0.68699998 -0.056613375 1.0857094e-38 344 287
0.030113498 0.68699998 -0.056613375 1.1225518e-38 345 287
0.031318039 0.68699998 -0.056613375 1.1501388e-38 346 287
0.032522578 0.68699998 -0.056613375 1.1685778e-38 347 287
0.033776212 0.68800002 -0.056695789 1.1686854e-38 348 287
0.03498251 0.68800002 -0.056695789 1.2055637e-38 349 287
0.0361888 0.68800002 -0.056695789 1.233293e-38 350 287
0.037395094 0.68800002 -0.056695789 1.2516961e-38 351 287
0.038713597 0.69 -0.0568606 1.2701341e-38 352 287
0.0399234 0.69 -0.0568606 1.2793537e-38 353 287
0.041192811 0.69099998 -0.056942999 1.3069766e-38 354 287
0.042527102 0.69300002 -0.057107817 1.3346355e-38 355 287
0.043742158 0.69300002 -0.057107817 1.2981536e-38 356 287
0.045216713 0.69700003 -0.05743745 1.353471e-38 357 287
0.046438783 0.69700003 -0.05743745 1.3261743e-38 358 287
0.047660861 0.69700003 -0.05743745 1.5013101e-38 359 287
0.049093332 0.69999999 -0.05768466 1.9448242e-38 360 287
-0.023252707 0.69800001 -0.058743682 1.1969925e-38 301 288
-0.02202888 0.69800001 -0.058743682 1.3622937e-38 302 288
-0.020805053 0.69800001 -0.058743682 1.3622937e-38 303 288
-0.019553173 0.69700003 -0.05865952 1.334813e-38 304 288
-0.018304799 0.69599998 -0.058575355 1.3255933e-38 305 288
-0.017035386 0.69400001 -0.058407038 1.353071e-38 306 288
-0.015818574 0.69400001 -0.058407038 1.3253764e-38 307 288
-0.014580719 0.69300002 -0.058322877 1.3344166e-38 308 288
-0.01336566 0.69300002 -0.058322877 1.306758e-38 309 288
-0.012115533 0.69099998 -0.058154557 1.2699527e-38 310 288
-0.01090398 0.69099998 -0.058154557 1.2514777e-38 311 288
-0.0096783992 0.69 -0.058070395 1.2146719e-38 312 288
-0.0084686 0.69 -0.058070395 1.2146719e-38 313 288
-0.0072377604 0.68800002 -0.057902083 1.1961974e-38 314 288
-0.0060314666 0.68800002 -0.057902083 1.205417e-38 315 288
-0.0048181596 0.68699998 -0.057817914 1.1778309e-38 316 288
-0.0036136196 0.68699998 -0.057817914 1.1593917e-38 317 288
-0.0024090798 0.68699998 -0.057817914 1.1318052e-38 318 288
-0.0012045399 0.68699998 -0.057817914 1.1318052e-38 319 288
0 0.68599999 -0.057733759 1.1225857e-38 320 288
0.0012027866 0.68599999 -0.057733759 1.1133661e-38 321 288
0.0023985601 0.68400002 -0.057565439 1.1225504e-38 322 288
0.00359784 0.68400002 -0.057565439 1.1409896e-38 323 288
0.0047971201 0.68400002 -0.057565439 1.1135826e-38 324 288
0.0059876335 0.68300003 -0.057481278 1.1228022e-38 325 288
0.0071851597 0.68300003 -0.057481278 1.095323e-38 326 288
0.0083826864 0.68300003 -0.057481278 1.095323e-38 327 288
0.0095802136 0.68300003 -0.057481278 1.0859599e-38 328 288
0.01077774 0.68300003 -0.057481278 1.0674848e-38 329 288
0.011957732 0.68199998 -0.05739712 1.0765248e-38 330 288
0.013153506 0.68199998 -0.05739712 1.0673053e-38 331 288
0.01434928 0.68199998 -0.05739712 1.0948195e-38 332 288
0.015545053 0.68199998 -0.05739712 1.1040391e-38 333 288
0.016740825 0.68199998 -0.05739712 1.0947476e-38 334 288
0.017962901 0.68300003 -0.057481278 1.0947476e-38 335 288
0.019160427 0.68300003 -0.057481278 1.0763449e-38 336 288
0.020357953 0.68300003 -0.057481278 1.0579418e-38 337 288
0.02155548 0.68300003 -0.057481278 1.0304626e-38 338 288
0.022753006 0.68300003 -0.057481278 1.0304626e-38 339 288
0.023950534 0.68300003 -0.057481278 1.0580131e-38 340 288
0.02514806 0.68300003 -0.057481278 1.0580131e-38 341 288
0.026345588 0.68300003 -0.057481278 1.0305345e-38 342 288
0.027664091 0.68599999 -0.057733759 1.0397542e-38 343 288
0.028908957 0.68699998 -0.057817914 1.0948914e-38 344 288
0.030113498 0.68699998 -0.057817914 1.1225501e-38 345 288
0.031318039 0.68699998 -0.057817914 1.1500648e-38 346 288
0.032522578 0.68699998 -0.057817914 1.1592846e-38 347 288
0.033727121 0.68699998 -0.057817914 1.1775805e-38 348 288
0.03498251 0.68800002 -0.057902083 1.205275e-38 349 288
0.0361888 0.68800002 -0.057902083 1.2146382e-38 350 288
0.037395094 0.68800002 -0.057902083 1.2423328e-38 351 288
0.038601387 0.68800002 -0.057902083 1.2700261e-38 352 288
0.0399234 0.69 -0.058070395 1.2792456e-38 353 288
0.041133199 0.69 -0.058070395 1.2794256e-38 354 288
0.042527102 0.69300002 -0.058322877 1.2978647e-38 355 288
0.043742158 0.69300002 -0.058322877 1.3072287e-38 356 288
0.045151837 0.69599998 -0.058575355 1.344107e-38 357 288
0.046372157 0.69599998 -0.058575355 1.3630521e-38 358 288
0.047660861 0.69700003 -0.05865952 1.5381879e-38 359 288
-0.023219392 0.69700003 -0.05988159 1.2155032e-38 301 289
-0.02199732 0.69700003 -0.05988159 1.3256307e-38 302 289
-0.020775247 0.69700003 -0.05988159 1.3256307e-38 303 289
-0.019525118 0.69599998 -0.059795678 1.3622555e-38 304 289
-0.0182522 0.69400001 -0.059623852 1.3438164e-38 305 289
-0.017035386 0.69400001 -0.059623852 1.325377e-38 306 289
-0.015795778 0.69300002 -0.05953794 1.2977183e-38 307 289
-0.014580719 0.69300002 -0.05953794 1.2976106e-38 308 289
-0.013327086 0.69099998 -0.059366114 1.2883911e-38 309 289
-0.012115533 0.69099998 -0.059366114 1.2332183e-38 310 289
-0.010888199 0.69 -0.059280202 1.2239988e-38 311 289
-0.0096783992 0.69 -0.059280202 1.2146719e-38 312 289
-0.0084440531 0.68800002 -0.059108373 1.2054523e-38 313 289
-0.0072377604 0.68800002 -0.059108373 1.1870858e-38 314 289
-0.0060314666 0.68800002 -0.059108373 1.1686466e-38 315 289
-0.0048181596 0.68699998 -0.059022456 1.1593917e-38 316 289
-0.0036136196 0.68699998 -0.059022456 1.1501362e-38 317 289
-0.0024090798 0.68699998 -0.059022456 1.1319126e-38 318 289
-0.0012045399 0.68699998 -0.059022456 1.1319126e-38 319 289
0 0.68599999 -0.058936544 1.122657e-38 320 289
0.0012027866 0.68599999 -0.058936544 1.122657e-38 321 289
0.0024055731 0.68599999 -0.058936544 1.1318773e-38 322 289
0.00359784 0.68400002 -0.058764715 1.1410968e-38 323 289
0.0047901068 0.68300003 -0.05867881 1.1410971e-38 324 289
0.0059876335 0.68300003 -0.05867881 1.1595362e-38 325 289
0.0071851597 0.68300003 -0.05867881 1.1135823e-38 326 289
0.0083826864 0.68300003 -0.05867881 1.1135823e-38 327 289
0.0095802136 0.68300003 -0.05867881 1.0767046e-38 328 289
0.01077774 0.68300003 -0.05867881 1.0674851e-38 329 289
0.011957732 0.68199998 -0.058592889 1.0490101e-38 330 289
0.013153506 0.68199998 -0.058592889 1.0397905e-38 331 289
0.01434928 0.68199998 -0.058592889 1.0672331e-38 332 289
0.015545053 0.68199998 -0.058592889 1.0580134e-38 333 289
0.016740825 0.68199998 -0.058592889 1.0579415e-38 334 289
0.017936599 0.68199998 -0.058592889 1.0579415e-38 335 289
0.019160427 0.68300003 -0.05867881 1.0487938e-38 336 289
0.020357953 0.68300003 -0.05867881 1.0487938e-38 337 289
0.02155548 0.68300003 -0.05867881 1.0487938e-38 338 289
0.022753006 0.68300003 -0.05867881 1.0395743e-38 339 289
0.023950534 0.68300003 -0.05867881 1.0395743e-38 340 289
0.02514806 0.68300003 -0.05867881 1.0395743e-38 341 289
0.026345588 0.68300003 -0.05867881 1.0487936e-38 342 289
0.027664091 0.68599999 -0.058936544 1.0672328e-38 343 289
0.028908957 0.68699998 -0.059022456 1.0948911e-38 344 289
0.030113498 0.68699998 -0.059022456 1.1133661e-38 345 289
0.031318039 0.68699998 -0.059022456 1.1133305e-38 346 289
0.032522578 0.68699998 -0.059022456 1.1041109e-38 347 289
0.033727121 0.68699998 -0.059022456 1.1040759e-38 348 289
0.034931656 0.68699998 -0.059022456 1.122515e-38 349 289
0.036136195 0.68699998 -0.059022456 1.1319501e-38 350 289
0.037395094 0.68800002 -0.059108373 1.1780121e-38 351 289
0.038601387 0.68800002 -0.059108373 1.2241804e-38 352 289
0.0399234 0.69 -0.059280202 1.2333999e-38 353 289
0.041133199 0.69 -0.059280202 1.2518395e-38 354 289
0.042527102 0.69300002 -0.05953794 1.2886817e-38 355 289
0.043742158 0.69300002 -0.05953794 1.2705307e-38 356 289
0.045151837 0.69599998 -0.059795678 1.2981534e-38 357 289
0.046372157 0.69599998 -0.059795678 1.344685e-38 358 289
0.047660861 0.69700003 -0.05988159 1.5475513e-38 359 289
-0.024441468 0.69700003 -0.061103668 1.4000024e-38 300 290
-0.023219392 0.69700003 -0.061103668 1.2340503e-38 301 290
-0.02199732 0.69700003 -0.061103668 1.3440697e-38 302 290
-0.020775247 0.69700003 -0.061103668 1.3164112e-38 303 290
-0.019525118 0.69599998 -0.061015997 1.3345612e-38 304 290
-0.0182522 0.69400001 -0.060840666 1.3253416e-38 305 290
-0.017035386 0.69400001 -0.060840666 1.2884637e-38 306 290
-0.015795778 0.69300002 -0.060752999 1.2515495e-38 307 290
-0.014580719 0.69300002 -0.060752999 1.2239634e-38 308 290
-0.013327086 0.69099998 -0.060577665 1.2239634e-38 309 290
-0.012097999 0.69 -0.060489997 1.1872295e-38 310 290
-0.010888199 0.69 -0.060489997 1.1688264e-38 311 290
-0.0096503468 0.68800002 -0.060314666 1.1870858e-38 312 290
-0.0084440531 0.68800002 -0.060314666 1.1778662e-38 313 290
-0.0072377604 0.68800002 -0.060314666 1.1686466e-38 314 290
-0.0060226996 0.68699998 -0.060226995 1.1593912e-38 315 290
-0.0048181596 0.68699998 -0.060226995 1.1501715e-38 316 290
-0.0036136196 0.68699998 -0.060226995 1.1593912e-38 317 290
-0.0024090798 0.68699998 -0.060226995 1.1319126e-38 318 290
-0.0012045399 0.68699998 -0.060226995 1.1319126e-38 319 290
0 0.68599999 -0.060139328 1.1319126e-38 320 290
0.0012027866 0.68599999 -0.060139328 1.1319126e-38 321 290
0.0024055731 0.68599999 -0.060139328 1.113546e-38 322 290
0.00359784 0.68400002 -0.059964001 1.1227656e-38 323 290
0.0047901068 0.68300003 -0.059876334 1.12273e-38 324 290
0.0059876335 0.68300003 -0.059876334 1.12273e-38 325 290
0.0071851597 0.68300003 -0.059876334 1.1134751e-38 326 290
0.0083826864 0.68300003 -0.059876334 1.1042556e-38 327 290
0.0095802136 0.68300003 -0.059876334 1.0767049e-38 328 290
0.01077774 0.68300003 -0.059876334 1.0674495e-38 329 290
0.011957732 0.68199998 -0.059788663 1.0490101e-38 330 290
0.013153506 0.68199998 -0.059788663 1.0397905e-38 331 290
0.01434928 0.68199998 -0.059788663 1.0763446e-38 332 290
0.015545053 0.68199998 -0.059788663 1.048722e-38 333 290
0.016740825 0.68199998 -0.059788663 1.0303191e-38 334 290
0.017936599 0.68199998 -0.059788663 1.0303191e-38 335 290
0.019132372 0.68199998 -0.059788663 1.0119879e-38 336 290
0.020357953 0.68300003 -0.059876334 1.0212075e-38 337 290
0.02155548 0.68300003 -0.059876334 9.9365668e-39 338 290
0.022753006 0.68300003 -0.059876334 9.9365668e-39 339 290
0.023950534 0.68300003 -0.059876334 1.0027333e-38 340 290
0.02514806 0.68300003 -0.059876334 9.9347787e-39 341 290
0.02638416 0.68400002 -0.059964001 9.844381e-39 342 290
0.027583439 0.68400002 -0.059964001 1.0029131e-38 343 290
0.028908957 0.68699998 -0.060226995 1.0397186e-38 344 290
0.030113498 0.68699998 -0.060226995 1.0489382e-38 345 290
0.031318039 0.68699998 -0.060226995 1.0765246e-38 346 290
0.032522578 0.68699998 -0.060226995 1.0580854e-38 347 290
0.033727121 0.68699998 -0.060226995 1.0672331e-38 348 290
0.034931656 0.68699998 -0.060226995 1.0948558e-38 349 290
0.036136195 0.68699998 -0.060226995 1.12273e-38 350 290
0.037395094 0.68800002 -0.060314666 1.1688277e-38 351 290
0.038601387 0.68800002 -0.060314666 1.1966293e-38 352 290
0.0399234 0.69 -0.060489997 1.2150684e-38 353 290
0.041133199 0.69 -0.060489997 1.2518395e-38 354 290
0.042404365 0.69099998 -0.060577665 1.2979013e-38 355 290
0.043742158 0.69300002 -0.060752999 1.2705675e-38 356 290
0.045151837 0.69599998 -0.061015997 1.2797871e-38 357 290
0.046438783 0.69700003 -0.061103668 1.3171711e-38 358 290
0.047660861 0.69700003 -0.061103668 1.5568439e-38 359 290
-0.024441468 0.69700003 -0.062325738 1.409294e-38 300 291
-0.023219392 0.69700003 -0.062325738 1.2249386e-38 301 291
-0.02199732 0.69700003 -0.062325738 1.3532893e-38 302 291
-0.020775247 0.69700003 -0.062325738 1.3071916e-38 303 291
-0.019553173 0.69700003 -0.062325738 1.3160512e-38 304 291
-0.0182522 0.69400001 -0.06205748 1.2792088e-38 305 291
-0.017035386 0.69400001 -0.06205748 1.1961977e-38 306 291
