# .PCD v.7 - Point Cloud Data file format
FIELDS x y z rgb imX imY
SIZE 4 4 4 4 4 4
TYPE F F F F F F
COUNT 1 1 1 1 1 1
WIDTH 834
HEIGHT 1
VIEWPOINT 0 0 0 1 0 0 0
POINTS 834
DATA ascii
0.013442807 0.69700003 -0.037884273 1.712704e-38 331 271
0.01466488 0.69700003 -0.037884273 1.7125966e-38 332 271
0.015886955 0.69700003 -0.037884273 1.7125966e-38 333 271
0.017133573 0.69800001 -0.037938625 1.7033418e-38 334 271
0.018331099 0.69700003 -0.037884273 1.6941222e-38 335 271
0.019553173 0.69700003 -0.037884273 1.6847952e-38 336 271
0.020775247 0.69700003 -0.037884273 1.6847952e-38 337 271
0.02199732 0.69700003 -0.037884273 1.6940519e-38 338 271
0.023219392 0.69700003 -0.037884273 1.6848323e-38 339 271
0.024441468 0.69700003 -0.037884273 1.6849049e-38 340 271
0.025663542 0.69700003 -0.037884273 1.6849049e-38 341 271
0.026847038 0.69599998 -0.037829921 1.6847604e-38 342 271
0.028067358 0.69599998 -0.037829921 1.6386626e-38 343 271
0.029287677 0.69599998 -0.037829921 1.6202951e-38 344 271
0.030507999 0.69599998 -0.037829921 1.5741973e-38 345 271
0.031728316 0.69599998 -0.037829921 1.5464316e-38 346 271
0.032948639 0.69599998 -0.037829921 1.5279565e-38 347 271
0.034070771 0.69400001 -0.037721213 1.454308e-38 348 271
0.035287585 0.69400001 -0.037721213 1.4635635e-38 349 271
0.036609598 0.69599998 -0.037829921 1.4543799e-38 350 271
0.037884273 0.69700003 -0.037884273 1.4175376e-38 351 271
0.039106347 0.69700003 -0.037884273 1.4263625e-38 352 271
0.040328421 0.69700003 -0.037884273 1.3710451e-38 353 271
0.041610107 0.69800001 -0.037938625 1.3618256e-38 354 271
0.042833932 0.69800001 -0.037938625 1.3710451e-38 355 271
0.04405776 0.69800001 -0.037938625 1.3528577e-38 356 271
0.04541133 0.69999999 -0.038047329 1.3528577e-38 357 271
0.046638668 0.69999999 -0.038047329 1.3528577e-38 358 271
0.047934376 0.70099998 -0.038101684 1.3528577e-38 359 271
0.049303733 0.70300001 -0.038210396 1.3528208e-38 360 271
0.050536323 0.70300001 -0.038210396 1.3436013e-38 361 271
0.051842559 0.704 -0.038264744 1.297683e-38 362 271
0.053227689 0.70599997 -0.038373452 1.2792438e-38 363 271
0.054619838 0.708 -0.038482159 1.242475e-38 364 271
0.056018997 0.70999998 -0.038590867 1.242475e-38 365 271
0.057344519 0.71100003 -0.038645219 1.2149255e-38 366 271
0.058755953 0.713 -0.038753927 1.1135104e-38 367 271
0.060090236 0.71399999 -0.038808275 1.1228783e-38 368 271
0.061513945 0.71600002 -0.038916986 1.5377586e-38 369 271
0.062769331 0.71600002 -0.038916986 1.5860187e-38 370 271
0.064114138 0.71700001 -0.038971342 1.816508e-38 371 271
-0.010085173 0.71899998 -0.040340692 1.8716059e-38 312 272
-0.0087999795 0.71700001 -0.040228479 1.3184681e-38 313 272
-0.00753232 0.71600002 -0.040172372 1.6115074e-38 314 272
-0.0062769335 0.71600002 -0.040172372 1.5654096e-38 315 272
-0.0050075199 0.71399999 -0.040060159 1.7307813e-38 316 272
-0.0037503797 0.713 -0.040004052 1.7215616e-38 317 272
-0.0024932399 0.71100003 -0.039891839 1.73071e-38 318 272
-0.00124136 0.708 -0.039723519 1.7399295e-38 319 272
0 0.70700002 -0.039667413 1.7307112e-38 320 272
0.0012343467 0.704 -0.039499093 1.7584058e-38 321 272
0.0024651866 0.70300001 -0.039442986 1.8044683e-38 322 272
0.0036872597 0.70099998 -0.039330769 1.9150672e-38 323 272
0.0049093333 0.69999999 -0.039274666 1.8512141e-38 324 272
0.0061366665 0.69999999 -0.039274666 1.814336e-38 325 272
0.0073639993 0.69999999 -0.039274666 1.8140841e-38 326 272
0.0085667865 0.69800001 -0.039162453 1.795645e-38 327 272
0.0097906133 0.69800001 -0.039162453 1.7496544e-38 328 272
0.01099866 0.69700003 -0.039106347 1.7312153e-38 329 272
0.012220734 0.69700003 -0.039106347 1.7128472e-38 330 272
0.013442807 0.69700003 -0.039106347 1.7035918e-38 331 272
0.01466488 0.69700003 -0.039106347 1.7127037e-38 332 272
0.015886955 0.69700003 -0.039106347 1.6758613e-38 333 272
0.017109027 0.69700003 -0.039106347 1.7216361e-38 334 272
0.018331099 0.69700003 -0.039106347 1.703197e-38 335 272
0.019525118 0.69599998 -0.039050236 1.6938698e-38 336 272
0.020745439 0.69599998 -0.039050236 1.6938698e-38 337 272
0.021965759 0.69599998 -0.039050236 1.6662843e-38 338 272
0.023186078 0.69599998 -0.039050236 1.6478093e-38 339 272
0.0244064 0.69599998 -0.039050236 1.6659986e-38 340 272
0.025626717 0.69599998 -0.039050236 1.6659986e-38 341 272
0.026847038 0.69599998 -0.039050236 1.5923497e-38 342 272
0.028067358 0.69599998 -0.039050236 1.5554713e-38 343 272
0.029287677 0.69599998 -0.039050236 1.5094805e-38 344 272
0.030507999 0.69599998 -0.039050236 1.4726381e-38 345 272
0.031728316 0.69599998 -0.039050236 1.4726381e-38 346 272
0.032853961 0.69400001 -0.038938027 1.4726381e-38 347 272
0.034070771 0.69400001 -0.038938027 1.4541271e-38 348 272
0.035287585 0.69400001 -0.038938027 1.4356521e-38 349 272
0.036609598 0.69599998 -0.039050236 1.4263252e-38 350 272
0.037829921 0.69599998 -0.039050236 1.3617883e-38 351 272
0.039106347 0.69700003 -0.039106347 1.3800132e-38 352 272
0.040328421 0.69700003 -0.039106347 1.3615382e-38 353 272
0.041610107 0.69800001 -0.039162453 1.3432788e-38 354 272
0.042833932 0.69800001 -0.039162453 1.3524984e-38 355 272
0.04405776 0.69800001 -0.039162453 1.3435659e-38 356 272
0.045281585 0.69800001 -0.039162453 1.3435659e-38 357 272
0.046638668 0.69999999 -0.039274666 1.3526783e-38 358 272
0.047934376 0.70099998 -0.039330769 1.3710814e-38 359 272
0.049163464 0.70099998 -0.039330769 1.3527855e-38 360 272
0.050392549 0.70099998 -0.039330769 1.3527855e-38 361 272
0.051842559 0.704 -0.039499093 1.2977199e-38 362 272
0.053227689 0.70599997 -0.039611302 1.2885004e-38 363 272
0.054542694 0.70700002 -0.039667413 1.2333634e-38 364 272
0.055861197 0.708 -0.039723519 1.2241079e-38 365 272
0.057263866 0.70999998 -0.039835732 1.2149252e-38 366 272
0.058591139 0.71100003 -0.039891839 1.1873025e-38 367 272
0.060006075 0.713 -0.040004052 1.0952553e-38 368 272
0.061342116 0.71399999 -0.040060159 1.2796464e-38 369 272
0.062593997 0.71399999 -0.040060159 1.5212299e-38 370 272
0.064024724 0.71600002 -0.040172372 1.8439144e-38 371 272
0.065371275 0.71700001 -0.040228479 1.7887417e-38 372 272
-0.01005712 0.71700001 -0.041485619 1.8253986e-38 312 273
-0.0087999795 0.71700001 -0.041485619 1.2445662e-38 313 273
-0.00753232 0.71600002 -0.041427758 1.611254e-38 314 273
-0.0062769335 0.71600002 -0.041427758 1.6480964e-38 315 273
-0.0050075199 0.71399999 -0.041312039 1.6849712e-38 316 273
-0.0037503797 0.713 -0.041254178 1.6849712e-38 317 273
-0.0024897333 0.70999998 -0.041080594 1.7124506e-38 318 273
-0.0012396066 0.70700002 -0.040907022 1.7216702e-38 319 273
0 0.70599997 -0.040849157 1.7033402e-38 320 273
0.0012325933 0.70300001 -0.040675577 1.7401826e-38 321 273
0.0024546667 0.69999999 -0.040502001 1.7679137e-38 322 273
0.0036819996 0.69999999 -0.040502001 1.8416702e-38 323 273
0.0049093333 0.69999999 -0.040502001 1.8144078e-38 324 273
0.006119133 0.69800001 -0.040386278 1.8051883e-38 325 273
0.0073429602 0.69800001 -0.040386278 1.7958248e-38 326 273
0.0085667865 0.69800001 -0.040386278 1.7681302e-38 327 273
0.0097906133 0.69800001 -0.040386278 1.7496541e-38 328 273
0.01099866 0.69700003 -0.040328421 1.731215e-38 329 273
0.012220734 0.69700003 -0.040328421 1.7035918e-38 330 273
0.013442807 0.69700003 -0.040328421 1.6943722e-38 331 273
0.014643839 0.69599998 -0.040270556 1.6850809e-38 332 273
0.015864158 0.69599998 -0.040270556 1.6666059e-38 333 273
0.017084479 0.69599998 -0.040270556 1.6572797e-38 334 273
0.018304799 0.69599998 -0.040270556 1.6388045e-38 335 273
0.019525118 0.69599998 -0.040270556 1.6294783e-38 336 273
0.020745439 0.69599998 -0.040270556 1.6110033e-38 337 273
0.021965759 0.69599998 -0.040270556 1.6109686e-38 338 273
0.023186078 0.69599998 -0.040270556 1.601749e-38 339 273
0.0244064 0.69599998 -0.040270556 1.6109333e-38 340 273
0.025626717 0.69599998 -0.040270556 1.5648355e-38 341 273
0.026769891 0.69400001 -0.040154841 1.564654e-38 342 273
0.027986705 0.69400001 -0.040154841 1.4632388e-38 343 273
0.029203519 0.69400001 -0.040154841 1.4263622e-38 344 273
0.030420333 0.69400001 -0.040154841 1.4540568e-38 345 273
0.031637147 0.69400001 -0.040154841 1.3989209e-38 346 273
0.032853961 0.69400001 -0.040154841 1.3989209e-38 347 273
0.034021679 0.69300002 -0.04009698 1.3711152e-38 348 273
0.035236739 0.69300002 -0.04009698 1.3250533e-38 349 273
0.036504399 0.69400001 -0.040154841 1.2790638e-38 350 273
0.037721213 0.69400001 -0.040154841 1.2606245e-38 351 273
0.039050236 0.69599998 -0.040270556 1.2237132e-38 352 273
0.040270556 0.69599998 -0.040270556 1.2421523e-38 353 273
0.041550495 0.69700003 -0.040328421 1.2238934e-38 354 273
0.042772565 0.69700003 -0.040328421 1.2423325e-38 355 273
0.04405776 0.69800001 -0.040386278 1.2698836e-38 356 273
0.045281585 0.69800001 -0.040386278 1.2791031e-38 357 273
0.046505414 0.69800001 -0.040386278 1.3066543e-38 358 273
0.047865998 0.69999999 -0.040502001 1.3158739e-38 359 273
0.049093332 0.69999999 -0.040502001 1.3161596e-38 360 273
0.050392549 0.70099998 -0.040559858 1.3161596e-38 361 273
0.051621638 0.70099998 -0.040559858 1.3160865e-38 362 273
0.053076904 0.704 -0.040733438 1.2976834e-38 363 273
0.054465543 0.70599997 -0.040849157 1.2516946e-38 364 273
0.055782299 0.70700002 -0.040907022 1.2332555e-38 365 273
0.057102561 0.708 -0.040964879 1.1873038e-38 366 273
0.058343921 0.708 -0.040964879 1.2149985e-38 367 273
0.059837762 0.71100003 -0.041138459 1.1228417e-38 368 273
0.061256204 0.713 -0.041254178 1.1228417e-38 369 273
0.062506333 0.713 -0.041254178 1.4469692e-38 370 273
0.064024724 0.71600002 -0.041427758 1.8987277e-38 371 273
0.06528011 0.71600002 -0.041427758 1.7979618e-38 372 273
-0.01131426 0.71700001 -0.042742759 1.8530618e-38 311 274
-0.010043093 0.71600002 -0.042683143 1.760716e-38 312 274
-0.0087877065 0.71600002 -0.042683143 1.2075422e-38 313 274
-0.00753232 0.71600002 -0.042683143 1.62962e-38 314 274
-0.0062506334 0.713 -0.042504307 1.6573147e-38 315 274
-0.0049864799 0.71100003 -0.042385083 1.675644e-38 316 274
-0.0037398601 0.71100003 -0.042385083 1.7033027e-38 317 274
-0.0024897333 0.70999998 -0.042325463 1.7124503e-38 318 274
-0.0012396066 0.70700002 -0.042146627 1.740073e-38 319 274
0 0.70599997 -0.042087011 1.703375e-38 320 274
0.0012325933 0.70300001 -0.041908171 1.7494728e-38 321 274
0.0024546667 0.69999999 -0.041729331 1.7680562e-38 322 274
0.0036819996 0.69999999 -0.041729331 1.8141542e-38 323 274
0.0048953067 0.69800001 -0.041610107 1.7958596e-38 324 274
0.006119133 0.69800001 -0.041610107 1.78664e-38 325 274
0.0073429602 0.69800001 -0.041610107 1.7496891e-38 326 274
0.0085667865 0.69800001 -0.041610107 1.73125e-38 327 274
0.0097765867 0.69700003 -0.041550495 1.7311418e-38 328 274
0.010982879 0.69599998 -0.041490879 1.7126667e-38 329 274
0.0122032 0.69599998 -0.041490879 1.7034471e-38 330 274
0.013423519 0.69599998 -0.041490879 1.685008e-38 331 274
0.014643839 0.69599998 -0.041490879 1.6757166e-38 332 274
0.015864158 0.69599998 -0.041490879 1.6296187e-38 333 274
0.017084479 0.69599998 -0.041490879 1.6478433e-38 334 274
0.018304799 0.69599998 -0.041490879 1.6109291e-38 335 274
0.019469013 0.69400001 -0.041371655 1.5739809e-38 336 274
0.020685827 0.69400001 -0.041371655 1.5832005e-38 337 274
0.021902639 0.69400001 -0.041371655 1.592385e-38 338 274
0.023119451 0.69400001 -0.041371655 1.592385e-38 339 274
0.024336265 0.69400001 -0.041371655 1.583237e-38 340 274
0.025553079 0.69400001 -0.041371655 1.5647979e-38 341 274
0.026769891 0.69400001 -0.041371655 1.5277033e-38 342 274
0.027986705 0.69400001 -0.041371655 1.4723859e-38 343 274
0.029203519 0.69400001 -0.041371655 1.4264324e-38 344 274
0.030420333 0.69400001 -0.041371655 1.4264324e-38 345 274
0.031637147 0.69400001 -0.041371655 1.4172129e-38 346 274
0.032853961 0.69400001 -0.041371655 1.3618955e-38 347 274
0.034021679 0.69300002 -0.041312039 1.1957992e-38 348 274
0.035236739 0.69300002 -0.041312039 1.1681046e-38 349 274
0.036504399 0.69400001 -0.041371655 1.0855983e-38 350 274
0.037721213 0.69400001 -0.041371655 1.1132211e-38 351 274
0.039050236 0.69599998 -0.041490879 1.1315901e-38 352 274
0.040270556 0.69599998 -0.041490879 1.1500293e-38 353 274
0.041490879 0.69599998 -0.041490879 1.2054173e-38 354 274
0.042711195 0.69599998 -0.041490879 1.2238564e-38 355 274
0.043994639 0.69700003 -0.041550495 1.2606622e-38 356 274
0.045281585 0.69800001 -0.041610107 1.2698818e-38 357 274
0.046505414 0.69800001 -0.041610107 1.2881779e-38 358 274
0.047865998 0.69999999 -0.041729331 1.3250561e-38 359 274
0.049093332 0.69999999 -0.041729331 1.3159798e-38 360 274
0.050320663 0.69999999 -0.041729331 1.3620416e-38 361 274
0.051547997 0.69999999 -0.041729331 1.3069395e-38 362 274
0.052850723 0.70099998 -0.041788943 1.2977199e-38 363 274
0.054079808 0.70099998 -0.041788943 1.2424397e-38 364 274
0.0554667 0.70300001 -0.041908171 1.214817e-38 365 274
0.056779943 0.704 -0.041967787 1.1872672e-38 366 274
0.058179103 0.70599997 -0.042087011 1.2148899e-38 367 274
0.059837762 0.71100003 -0.042385083 1.1322035e-38 368 274
0.061084379 0.71100003 -0.042385083 1.0492274e-38 369 274
0.062506333 0.713 -0.042504307 1.317894e-38 370 274
0.063756458 0.713 -0.042504307 1.82497e-38 371 274
0.06528011 0.71600002 -0.042683143 1.8163283e-38 372 274
-0.01129848 0.71600002 -0.043938532 1.7701929e-38 311 275
-0.010043093 0.71600002 -0.043938532 1.7051815e-38 312 275
-0.0087877065 0.71600002 -0.043938532 1.2442034e-38 313 275
-0.0074797203 0.71100003 -0.043631699 1.6571345e-38 314 275
-0.0062330998 0.71100003 -0.043631699 1.6940128e-38 315 275
-0.0049864799 0.71100003 -0.043631699 1.6757166e-38 316 275
-0.0037345996 0.70999998 -0.043570329 1.6849361e-38 317 275
-0.00248272 0.708 -0.043447599 1.694191e-38 318 275
-0.0012396066 0.70700002 -0.043386232 1.7034106e-38 319 275
0 0.70599997 -0.043324865 1.7127739e-38 320 275
0.0012325933 0.70300001 -0.043140765 1.7312132e-38 321 275
0.0024546667 0.69999999 -0.042956665 1.7313579e-38 322 275
0.0036819996 0.69999999 -0.042956665 1.7590166e-38 323 275
0.0048953067 0.69800001 -0.042833932 1.7682362e-38 324 275
0.006119133 0.69800001 -0.042833932 1.7313579e-38 325 275
0.0073429602 0.69800001 -0.042833932 1.7219939e-38 326 275
0.0085545136 0.69700003 -0.042772565 1.7219939e-38 327 275
0.0097765867 0.69700003 -0.042772565 1.712667e-38 328 275
0.010982879 0.69599998 -0.042711195 1.6757529e-38 329 275
0.0122032 0.69599998 -0.042711195 1.6480594e-38 330 275
0.013423519 0.69599998 -0.042711195 1.6480594e-38 331 275
0.01460176 0.69400001 -0.042588469 1.6388036e-38 332 275
0.015818574 0.69400001 -0.042588469 1.6203286e-38 333 275
0.017035386 0.69400001 -0.042588469 1.6018537e-38 334 275
0.0182522 0.69400001 -0.042588469 1.5650115e-38 335 275
0.019469013 0.69400001 -0.042588469 1.5647616e-38 336 275
0.020685827 0.69400001 -0.042588469 1.5647616e-38 337 275
0.021902639 0.69400001 -0.042588469 1.5463951e-38 338 275
0.023119451 0.69400001 -0.042588469 1.5647982e-38 339 275
0.024336265 0.69400001 -0.042588469 1.564726e-38 340 275
0.025553079 0.69400001 -0.042588469 1.5370672e-38 341 275
0.026769891 0.69400001 -0.042588469 1.5277033e-38 342 275
0.027986705 0.69400001 -0.042588469 1.4908249e-38 343 275
0.029203519 0.69400001 -0.042588469 1.4540187e-38 344 275
0.030420333 0.69400001 -0.042588469 1.4263959e-38 345 275
0.031591557 0.69300002 -0.042527102 1.4171407e-38 346 275
0.03280662 0.69300002 -0.042527102 1.3618233e-38 347 275
0.034021679 0.69300002 -0.042527102 1.2971072e-38 348 275
0.035236739 0.69300002 -0.042527102 1.2510093e-38 349 275
0.036504399 0.69400001 -0.042588469 1.1683961e-38 350 275
0.037721213 0.69400001 -0.042588469 1.1591765e-38 351 275
0.038938027 0.69400001 -0.042588469 1.1132952e-38 352 275
0.040154841 0.69400001 -0.042588469 1.1317703e-38 353 275
0.041371655 0.69400001 -0.042588469 1.1871574e-38 354 275
0.042711195 0.69599998 -0.042711195 1.2056325e-38 355 275
0.043931518 0.69599998 -0.042711195 1.2515498e-38 356 275
0.045216713 0.69700003 -0.042772565 1.2607694e-38 357 275
0.046438783 0.69700003 -0.042772565 1.2606988e-38 358 275
0.047729239 0.69800001 -0.042833932 1.2883933e-38 359 275
0.048953064 0.69800001 -0.042833932 1.2793537e-38 360 275
0.050320663 0.69999999 -0.042956665 1.2977568e-38 361 275
0.051547997 0.69999999 -0.042956665 1.3069398e-38 362 275
0.052775331 0.69999999 -0.042956665 1.2885007e-38 363 275
0.054079808 0.70099998 -0.043018032 1.260699e-38 364 275
0.0554667 0.70300001 -0.043140765 1.2422599e-38 365 275
0.056699295 0.70300001 -0.043140765 1.178084e-38 366 275
0.058179103 0.70599997 -0.043324865 1.1873394e-38 367 275
0.059753593 0.70999998 -0.043570329 1.1321666e-38 368 275
0.061084379 0.71100003 -0.043631699 1.0399709e-38 369 275
0.062331002 0.71100003 -0.043631699 1.2347009e-38 370 275
0.063488193 0.70999998 -0.043570329 1.7509964e-38 371 275
0.064733058 0.70999998 -0.043570329 1.7428233e-38 372 275
-0.013809253 0.71600002 -0.045193922 1.9269625e-38 309 276
-0.012553867 0.71600002 -0.045193922 1.9454007e-38 310 276
-0.01129848 0.71600002 -0.045193922 1.7240953e-38 311 276
-0.01001504 0.71399999 -0.045067675 1.6679443e-38 312 276
-0.0087631596 0.71399999 -0.045067675 1.3175649e-38 313 276
-0.0074797203 0.71100003 -0.044878319 1.6571714e-38 314 276
-0.0062330998 0.71100003 -0.044878319 1.6663909e-38 315 276
-0.0049794666 0.70999998 -0.044815198 1.666461e-38 316 276
-0.0037345996 0.70999998 -0.044815198 1.6757166e-38 317 276
-0.00248272 0.708 -0.044688959 1.6849714e-38 318 276
-0.0012378532 0.70599997 -0.044562716 1.7218137e-38 319 276
0 0.704 -0.044436477 1.7035541e-38 320 276
0.0012290865 0.70099998 -0.044247117 1.7312488e-38 321 276
0.0024546667 0.69999999 -0.044183996 1.7128822e-38 322 276
0.0036714801 0.69800001 -0.04405776 1.7405049e-38 323 276
0.0048953067 0.69800001 -0.04405776 1.7313935e-38 324 276
0.006119133 0.69800001 -0.04405776 1.7129185e-38 325 276
0.0073429602 0.69800001 -0.04405776 1.7129175e-38 326 276
0.0085545136 0.69700003 -0.043994639 1.6852228e-38 327 276
0.0097765867 0.69700003 -0.043994639 1.6482723e-38 328 276
0.010982879 0.69599998 -0.043931518 1.5560768e-38 329 276
0.012168133 0.69400001 -0.043805279 1.6018524e-38 330 276
0.013384946 0.69400001 -0.043805279 1.6387307e-38 331 276
0.01460176 0.69400001 -0.043805279 1.611037e-38 332 276
0.015818574 0.69400001 -0.043805279 1.611037e-38 333 276
0.017035386 0.69400001 -0.043805279 1.5742661e-38 334 276
0.0182522 0.69400001 -0.043805279 1.5466074e-38 335 276
0.019469013 0.69400001 -0.043805279 1.5555764e-38 336 276
0.020685827 0.69400001 -0.043805279 1.5371373e-38 337 276
0.021902639 0.69400001 -0.043805279 1.5554341e-38 338 276
0.023119451 0.69400001 -0.043805279 1.5462146e-38 339 276
0.024336265 0.69400001 -0.043805279 1.536995e-38 340 276
0.025553079 0.69400001 -0.043805279 1.5185559e-38 341 276
0.02673132 0.69300002 -0.043742158 1.5001877e-38 342 276
0.027946379 0.69300002 -0.043742158 1.4817127e-38 343 276
0.029161438 0.69300002 -0.043742158 1.4357225e-38 344 276
0.0303765 0.69300002 -0.043742158 1.4265028e-38 345 276
0.031591557 0.69300002 -0.043742158 1.4173182e-38 346 276
0.03280662 0.69300002 -0.043742158 1.3712206e-38 347 276
0.034021679 0.69300002 -0.043742158 1.3617495e-38 348 276
0.035236739 0.69300002 -0.043742158 1.3340548e-38 349 276
0.036451802 0.69300002 -0.043742158 1.1593898e-38 350 276
0.037721213 0.69400001 -0.043805279 1.1316952e-38 351 276
0.038938027 0.69400001 -0.043805279 1.1592113e-38 352 276
0.040154841 0.69400001 -0.043805279 1.186906e-38 353 276
0.041371655 0.69400001 -0.043805279 1.2239267e-38 354 276
0.042588469 0.69400001 -0.043805279 1.24233e-38 355 276
0.043931518 0.69599998 -0.043931518 1.2606972e-38 356 276
0.045151837 0.69599998 -0.043931518 1.2699527e-38 357 276
0.046438783 0.69700003 -0.043994639 1.2699892e-38 358 276
0.047729239 0.69800001 -0.04405776 1.2976481e-38 359 276
0.048953064 0.69800001 -0.04405776 1.2793887e-38 360 276
0.050176892 0.69800001 -0.04405776 1.2977918e-38 361 276
0.051547997 0.69999999 -0.044183996 1.2977202e-38 362 276
0.052775331 0.69999999 -0.044183996 1.279281e-38 363 276
0.054079808 0.70099998 -0.044247117 1.2331127e-38 364 276
0.055308893 0.70099998 -0.044247117 1.2238931e-38 365 276
0.056537982 0.70099998 -0.044247117 1.1689e-38 366 276
0.057931885 0.70300001 -0.04437336 1.1781195e-38 367 276
0.059753593 0.70999998 -0.044815198 1.1505334e-38 368 276
0.060998458 0.70999998 -0.044815198 1.0767769e-38 369 276
0.062331002 0.71100003 -0.044878319 1.1792756e-38 370 276
0.063488193 0.70999998 -0.044815198 1.6126309e-38 371 276
0.064733058 0.70999998 -0.044815198 1.7335315e-38 372 276
0.065977924 0.70999998 -0.044815198 1.8072881e-38 373 276
-0.015085679 0.71700001 -0.046514176 1.8993042e-38 308 277
-0.013809253 0.71600002 -0.046449307 1.9269628e-38 309 277
-0.012553867 0.71600002 -0.046449307 1.9454004e-38 310 277
-0.01129848 0.71600002 -0.046449307 1.6872526e-38 311 277
-0.01001504 0.71399999 -0.046319555 1.6768036e-38 312 277
-0.0087631596 0.71399999 -0.046319555 1.3357157e-38 313 277
-0.0074797203 0.71100003 -0.046124939 1.5837743e-38 314 277
-0.0062330998 0.71100003 -0.046124939 1.5930297e-38 315 277
-0.0049794666 0.70999998 -0.046060063 1.657277e-38 316 277
-0.0037345996 0.70999998 -0.046060063 1.6664966e-38 317 277
-0.00248272 0.708 -0.045930319 1.6940827e-38 318 277
-0.0012378532 0.70599997 -0.04580057 1.7217415e-38 319 277
0 0.70300001 -0.04560595 1.7035897e-38 320 277
0.0012290865 0.70099998 -0.045476202 1.7128092e-38 321 277
0.0024546667 0.69999999 -0.04541133 1.7127736e-38 322 277
0.0036714801 0.69800001 -0.045281585 1.7220292e-38 323 277
0.0048953067 0.69800001 -0.045281585 1.7037345e-38 324 277
0.006119133 0.69800001 -0.045281585 1.6852594e-38 325 277
0.0073429602 0.69800001 -0.045281585 1.6852231e-38 326 277
0.0085545136 0.69700003 -0.045216713 1.6759677e-38 327 277
0.0097625591 0.69599998 -0.045151837 1.6205061e-38 328 277
0.010982879 0.69599998 -0.045151837 1.5190909e-38 329 277
0.012168133 0.69400001 -0.045022093 1.5833777e-38 330 277
0.013384946 0.69400001 -0.045022093 1.6018527e-38 331 277
0.01460176 0.69400001 -0.045022093 1.574231e-38 332 277
0.015818574 0.69400001 -0.045022093 1.5650115e-38 333 277
0.017035386 0.69400001 -0.045022093 1.5741228e-38 334 277
0.0182522 0.69400001 -0.045022093 1.5372805e-38 335 277
0.019469013 0.69400001 -0.045022093 1.537137e-38 336 277
0.020656019 0.69300002 -0.044957221 1.5095143e-38 337 277
0.021871079 0.69300002 -0.044957221 1.5278102e-38 338 277
0.02308614 0.69300002 -0.044957221 1.5185906e-38 339 277
0.024301201 0.69300002 -0.044957221 1.5277383e-38 340 277
0.02551626 0.69300002 -0.044957221 1.5185186e-38 341 277
0.026654173 0.69099998 -0.044827472 1.4909676e-38 342 277
0.027865725 0.69099998 -0.044827472 1.481748e-38 343 277
0.029161438 0.69300002 -0.044957221 1.4449776e-38 344 277
0.0303765 0.69300002 -0.044957221 1.4172829e-38 345 277
0.031591557 0.69300002 -0.044957221 1.4264662e-38 346 277
0.03280662 0.69300002 -0.044957221 1.3895521e-38 347 277
0.034021679 0.69300002 -0.044957221 1.361929e-38 348 277
0.035236739 0.69300002 -0.044957221 1.3250507e-38 349 277
0.036451802 0.69300002 -0.044957221 1.2421485e-38 350 277
0.037666857 0.69300002 -0.044957221 1.2237454e-38 351 277
0.03888192 0.69300002 -0.044957221 1.1961956e-38 352 277
0.04009698 0.69300002 -0.044957221 1.2330737e-38 353 277
0.041371655 0.69400001 -0.045022093 1.2698794e-38 354 277
0.042588469 0.69400001 -0.045022093 1.2790991e-38 355 277
0.043805279 0.69400001 -0.045022093 1.2882836e-38 356 277
0.045151837 0.69599998 -0.045151837 1.3067586e-38 357 277
0.046438783 0.69700003 -0.045216713 1.2792807e-38 358 277
0.047660861 0.69700003 -0.045216713 1.2885004e-38 359 277
0.048953064 0.69800001 -0.045281585 1.2793887e-38 360 277
0.050176892 0.69800001 -0.045281585 1.2977918e-38 361 277
0.051400717 0.69800001 -0.045281585 1.2702413e-38 362 277
0.052775331 0.69999999 -0.04541133 1.2517662e-38 363 277
0.054002665 0.69999999 -0.04541133 1.2423681e-38 364 277
0.055308893 0.70099998 -0.045476202 1.2423681e-38 365 277
0.056537982 0.70099998 -0.045476202 1.1781195e-38 366 277
0.057931885 0.70300001 -0.04560595 1.1781195e-38 367 277
0.059416957 0.70599997 -0.04580057 1.1688291e-38 368 277
0.060826641 0.708 -0.045930319 1.104328e-38 369 277
0.062243331 0.70999998 -0.046060063 1.1237064e-38 370 277
0.063488193 0.70999998 -0.046060063 1.5294031e-38 371 277
0.064733058 0.70999998 -0.046060063 1.7885249e-38 372 277
0.065977924 0.70999998 -0.046060063 1.8715009e-38 373 277
-0.01506464 0.71600002 -0.047704693 1.9176711e-38 308 278
-0.013809253 0.71600002 -0.047704693 1.9361102e-38 309 278
-0.012518799 0.71399999 -0.047571439 1.9545118e-38 310 278
-0.011266919 0.71399999 -0.047571439 1.6871444e-38 311 278
-0.010001013 0.713 -0.047504812 1.6399246e-38 312 278
-0.0087508867 0.713 -0.047504812 1.3633018e-38 313 278
-0.0074797203 0.71100003 -0.047371563 1.57459e-38 314 278
-0.0062243328 0.70999998 -0.047304932 1.5930292e-38 315 278
-0.0049794666 0.70999998 -0.047304932 1.6296906e-38 316 278
-0.00372408 0.708 -0.047171678 1.6481298e-38 317 278
-0.0024792133 0.70700002 -0.047105055 1.6573851e-38 318 278
-0.0012378532 0.70599997 -0.047038425 1.6942273e-38 319 278
0 0.70300001 -0.046838548 1.6759682e-38 320 278
0.0012290865 0.70099998 -0.046705291 1.6759682e-38 321 278
0.0024546667 0.69999999 -0.046638668 1.6576367e-38 322 278
0.0036714801 0.69800001 -0.046505414 1.6668563e-38 323 278
0.0048953067 0.69800001 -0.046505414 1.666821e-38 324 278
0.006119133 0.69800001 -0.046505414 1.6576014e-38 325 278
0.0073429602 0.69800001 -0.046505414 1.6576014e-38 326 278
0.0085545136 0.69700003 -0.046438783 1.6206873e-38 327 278
0.0097625591 0.69599998 -0.046372157 1.5928125e-38 328 278
0.01095132 0.69400001 -0.046238903 1.5467146e-38 329 278
0.012168133 0.69400001 -0.046238903 1.5466437e-38 330 278
0.013384946 0.69400001 -0.046238903 1.5558991e-38 331 278
0.014580719 0.69300002 -0.04617228 1.546537e-38 332 278
0.015795778 0.69300002 -0.04617228 1.546537e-38 333 278
0.01701084 0.69300002 -0.04617228 1.5280978e-38 334 278
0.018225901 0.69300002 -0.04617228 1.5004392e-38 335 278
0.01944096 0.69300002 -0.04617228 1.5095146e-38 336 278
0.020656019 0.69300002 -0.04617228 1.4910394e-38 337 278
0.021871079 0.69300002 -0.04617228 1.5001874e-38 338 278
0.02308614 0.69300002 -0.04617228 1.5001874e-38 339 278
0.024301201 0.69300002 -0.04617228 1.5185186e-38 340 278
0.02551626 0.69300002 -0.04617228 1.5092991e-38 341 278
0.026654173 0.69099998 -0.046039023 1.481748e-38 342 278
0.027865725 0.69099998 -0.046039023 1.4725284e-38 343 278
0.029077278 0.69099998 -0.046039023 1.454054e-38 344 278
0.030288832 0.69099998 -0.046039023 1.4171757e-38 345 278
0.031500384 0.69099998 -0.046039023 1.3896249e-38 346 278
0.03280662 0.69300002 -0.04617228 1.3711858e-38 347 278
0.034021679 0.69300002 -0.04617228 1.3619293e-38 348 278
0.035236739 0.69300002 -0.04617228 1.3342347e-38 349 278
0.036451802 0.69300002 -0.04617228 1.3249431e-38 350 278
0.037666857 0.69300002 -0.04617228 1.3157235e-38 351 278
0.03888192 0.69300002 -0.04617228 1.260623e-38 352 278
0.04009698 0.69300002 -0.04617228 1.2790621e-38 353 278
0.041312039 0.69300002 -0.04617228 1.2790638e-38 354 278
0.042588469 0.69400001 -0.046238903 1.2790638e-38 355 278
0.043805279 0.69400001 -0.046238903 1.2699173e-38 356 278
0.045022093 0.69400001 -0.046238903 1.29754e-38 357 278
0.046238903 0.69400001 -0.046238903 1.2609139e-38 358 278
0.047592476 0.69599998 -0.046372157 1.2701694e-38 359 278
0.048882935 0.69700003 -0.046438783 1.2609859e-38 360 278
0.050176892 0.69800001 -0.046505414 1.2702413e-38 361 278
0.051400717 0.69800001 -0.046505414 1.2426549e-38 362 278
0.052775331 0.69999999 -0.046638668 1.2334352e-38 363 278
0.054002665 0.69999999 -0.046638668 1.2241801e-38 364 278
0.055308893 0.70099998 -0.046705291 1.1965574e-38 365 278
0.056537982 0.70099998 -0.046705291 1.1598602e-38 366 278
0.058014292 0.704 -0.046905171 1.1322017e-38 367 278
0.059416957 0.70599997 -0.047038425 1.1412786e-38 368 278
0.060654808 0.70599997 -0.047038425 1.1136199e-38 369 278
0.061980337 0.70700002 -0.047105055 1.0592051e-38 370 278
0.063488193 0.70999998 -0.047304932 1.4279517e-38 371 278
0.064733058 0.70999998 -0.047304932 1.7793409e-38 372 278
0.065977924 0.70999998 -0.047304932 1.8807202e-38 373 278
-0.01506464 0.71600002 -0.048960082 1.9177429e-38 308 279
-0.01377068 0.71399999 -0.048823316 1.9269625e-38 309 279
-0.012518799 0.71399999 -0.048823316 1.9454001e-38 310 279
-0.011251139 0.713 -0.048754938 1.6411544e-38 311 279
-0.0099729598 0.71100003 -0.048618179 1.61223e-38 312 279
-0.0087263398 0.71100003 -0.048618179 1.3909604e-38 313 279
-0.0074797203 0.71100003 -0.048618179 1.6112888e-38 314 279
-0.0062243328 0.70999998 -0.048549797 1.6112888e-38 315 279
-0.0049654399 0.708 -0.048413038 1.6205064e-38 316 279
-0.0037188199 0.70700002 -0.048344657 1.6389455e-38 317 279
-0.0024757064 0.70599997 -0.048276275 1.6572767e-38 318 279
-0.0012343467 0.704 -0.048139516 1.6849714e-38 319 279
0 0.70300001 -0.048071139 1.6757882e-38 320 279
0.0012290865 0.70099998 -0.047934376 1.6757882e-38 321 279
0.0024546667 0.69999999 -0.047865998 1.6574923e-38 322 279
0.0036714801 0.69800001 -0.047729239 1.6667118e-38 323 279
0.0048953067 0.69800001 -0.047729239 1.6574569e-38 324 279
0.006119133 0.69800001 -0.047729239 1.6482374e-38 325 279
0.00733244 0.69700003 -0.047660861 1.6113957e-38 326 279
0.0085422397 0.69599998 -0.047592476 1.583773e-38 327 279
0.0097625591 0.69599998 -0.047592476 1.5651184e-38 328 279
0.01095132 0.69400001 -0.047455717 1.5282761e-38 329 279
0.012168133 0.69400001 -0.047455717 1.5281325e-38 330 279
0.01336566 0.69300002 -0.047387339 1.5281325e-38 331 279
0.014580719 0.69300002 -0.047387339 1.5280962e-38 332 279
0.015795778 0.69300002 -0.047387339 1.5188408e-38 333 279
0.01701084 0.69300002 -0.047387339 1.5188045e-38 334 279
0.018225901 0.69300002 -0.047387339 1.5095849e-38 335 279
0.01944096 0.69300002 -0.047387339 1.4911103e-38 336 279
0.020656019 0.69300002 -0.047387339 1.4818549e-38 337 279
0.021871079 0.69300002 -0.047387339 1.5092991e-38 338 279
0.023019511 0.69099998 -0.047250576 1.5092991e-38 339 279
0.024231065 0.69099998 -0.047250576 1.5092991e-38 340 279
0.025442619 0.69099998 -0.047250576 1.5092991e-38 341 279
0.026654173 0.69099998 -0.047250576 1.4726003e-38 342 279
0.027825398 0.69 -0.047182199 1.4449776e-38 343 279
0.029035198 0.69 -0.047182199 1.4264309e-38 344 279
0.030244999 0.69 -0.047182199 1.3987363e-38 345 279
0.031454802 0.69 -0.047182199 1.3895168e-38 346 279
0.032711938 0.69099998 -0.047250576 1.361894e-38 347 279
0.034021679 0.69300002 -0.047387339 1.3618937e-38 348 279
0.035236739 0.69300002 -0.047387339 1.3526741e-38 349 279
0.036451802 0.69300002 -0.047387339 1.3249801e-38 350 279
0.037666857 0.69300002 -0.047387339 1.3065769e-38 351 279
0.03888192 0.69300002 -0.047387339 1.2698075e-38 352 279
0.04009698 0.69300002 -0.047387339 1.279027e-38 353 279
0.041312039 0.69300002 -0.047387339 1.2697722e-38 354 279
0.042527102 0.69300002 -0.047387339 1.2697722e-38 355 279
0.043742158 0.69300002 -0.047387339 1.2698089e-38 356 279
0.045022093 0.69400001 -0.047455717 1.2790643e-38 357 279
0.046238903 0.69400001 -0.047455717 1.2882483e-38 358 279
0.047455717 0.69400001 -0.047455717 1.3067233e-38 359 279
0.048882935 0.69700003 -0.047660861 1.2700258e-38 360 279
0.050176892 0.69800001 -0.047729239 1.2700258e-38 361 279
0.051400717 0.69800001 -0.047729239 1.2333278e-38 362 279
0.052775331 0.69999999 -0.047865998 1.2517309e-38 363 279
0.054002665 0.69999999 -0.047865998 1.1783344e-38 364 279
0.055308893 0.70099998 -0.047934376 1.1783344e-38 365 279
0.056537982 0.70099998 -0.047934376 1.1322019e-38 366 279
0.057931885 0.70300001 -0.048071139 1.1229824e-38 367 279
0.059248637 0.704 -0.048139516 1.1044369e-38 368 279
0.060654808 0.70599997 -0.048276275 1.1044369e-38 369 279
0.061980337 0.70700002 -0.048344657 1.0224707e-38 370 279
0.063488193 0.70999998 -0.048549797 1.3083131e-38 371 279
0.064733058 0.70999998 -0.048549797 1.7240953e-38 372 279
0.065977924 0.70999998 -0.048549797 1.8439495e-38 373 279
-0.01377068 0.71399999 -0.050075196 1.9269981e-38 309 280
-0.012501267 0.713 -0.050005067 1.991318e-38 310 280
-0.011251139 0.713 -0.050005067 1.6594137e-38 311 280
-0.0099729598 0.71100003 -0.049864799 1.5936836e-38 312 280
-0.0087263398 0.71100003 -0.049864799 1.436951e-38 313 280
-0.0074691991 0.70999998 -0.049794663 1.5838465e-38 314 280
-0.0062067998 0.708 -0.049654398 1.5654433e-38 315 280
-0.0049584266 0.70700002 -0.049584266 1.6021398e-38 316 280
-0.0037135598 0.70599997 -0.04951413 1.6113594e-38 317 280
-0.0024757064 0.70599997 -0.04951413 1.6205434e-38 318 280
-0.0012343467 0.704 -0.049373865 1.6482021e-38 319 280
0 0.70300001 -0.049303733 1.6389471e-38 320 280
0.0012290865 0.70099998 -0.049163464 1.6481668e-38 321 280
0.0024546667 0.69999999 -0.049093332 1.6206876e-38 322 280
0.0036714801 0.69800001 -0.048953064 1.6206876e-38 323 280
0.0048953067 0.69800001 -0.048953064 1.5838815e-38 324 280
0.0061103669 0.69700003 -0.048882935 1.5562588e-38 325 280
0.0073219193 0.69599998 -0.048812799 1.5561153e-38 326 280
0.0085176928 0.69400001 -0.048672531 1.5284925e-38 327 280
0.0097345067 0.69400001 -0.048672531 1.5283127e-38 328 280
0.01095132 0.69400001 -0.048672531 1.5098735e-38 329 280
0.012150601 0.69300002 -0.048602402 1.4822149e-38 330 280
0.01336566 0.69300002 -0.048602402 1.4822149e-38 331 280
0.014580719 0.69300002 -0.048602402 1.49129e-38 332 280
0.015795778 0.69300002 -0.048602402 1.49129e-38 333 280
0.01701084 0.69300002 -0.048602402 1.4820704e-38 334 280
0.018225901 0.69300002 -0.048602402 1.4728507e-38 335 280
0.01944096 0.69300002 -0.048602402 1.4635603e-38 336 280
0.020656019 0.69300002 -0.048602402 1.4451571e-38 337 280
0.021871079 0.69300002 -0.048602402 1.472565e-38 338 280
0.023019511 0.69099998 -0.04846213 1.4817846e-38 339 280
0.024231065 0.69099998 -0.04846213 1.4634533e-38 340 280
0.025442619 0.69099998 -0.04846213 1.4542338e-38 341 280
0.026615599 0.69 -0.048391998 1.4632736e-38 342 280
0.027825398 0.69 -0.048391998 1.4356507e-38 343 280
0.029035198 0.69 -0.048391998 1.4079209e-38 344 280
0.030244999 0.69 -0.048391998 1.3894817e-38 345 280
0.031454802 0.69 -0.048391998 1.3711138e-38 346 280
0.032664597 0.69 -0.048391998 1.3618942e-38 347 280
0.033923492 0.69099998 -0.04846213 1.3435267e-38 348 280
0.035135046 0.69099998 -0.04846213 1.3158682e-38 349 280
0.036346599 0.69099998 -0.04846213 1.3341281e-38 350 280
0.037666857 0.69300002 -0.048602402 1.3249084e-38 351 280
0.03888192 0.69300002 -0.048602402 1.3156182e-38 352 280
0.04009698 0.69300002 -0.048602402 1.3156182e-38 353 280
0.041312039 0.69300002 -0.048602402 1.2697371e-38 354 280
0.042527102 0.69300002 -0.048602402 1.2605176e-38 355 280
0.043742158 0.69300002 -0.048602402 1.242116e-38 356 280
0.044957221 0.69300002 -0.048602402 1.242116e-38 357 280
0.04617228 0.69300002 -0.048602402 1.2422246e-38 358 280
0.047455717 0.69400001 -0.048672531 1.2606637e-38 359 280
0.048672531 0.69400001 -0.048672531 1.24244e-38 360 280
0.050105009 0.69700003 -0.048882935 1.24244e-38 361 280
0.051400717 0.69800001 -0.048953064 1.233328e-38 362 280
0.052775331 0.69999999 -0.049093332 1.2517312e-38 363 280
0.054002665 0.69999999 -0.049093332 1.2241801e-38 364 280
0.055308893 0.70099998 -0.049163464 1.1965574e-38 365 280
0.056537982 0.70099998 -0.049163464 1.1780123e-38 366 280
0.057931885 0.70300001 -0.049303733 1.1595731e-38 367 280
0.059248637 0.704 -0.049373865 1.0769232e-38 368 280
0.060482983 0.704 -0.049373865 1.0584842e-38 369 280
0.061980337 0.70700002 -0.049584266 9.9470443e-39 370 280
0.063488193 0.70999998 -0.049794663 1.2252295e-38 371 280
0.064733058 0.70999998 -0.049794663 1.6963643e-38 372 280
0.065977924 0.70999998 -0.049794663 1.871536e-38 373 280
-0.01377068 0.71399999 -0.05132708 1.9361102e-38 309 281
-0.012501267 0.713 -0.051255193 1.9729868e-38 310 281
-0.011251139 0.713 -0.051255193 1.6133879e-38 311 281
-0.0099729598 0.71100003 -0.051111419 1.5660972e-38 312 281
-0.0087263398 0.71100003 -0.051111419 1.4554623e-38 313 281
-0.0074691991 0.70999998 -0.051039528 1.6206175e-38 314 281
-0.0062067998 0.708 -0.050895758 1.5929588e-38 315 281
-0.0049584266 0.70700002 -0.050823875 1.6112159e-38 316 281
-0.0037135598 0.70599997 -0.050751984 1.6204355e-38 317 281
-0.0024757064 0.70599997 -0.050751984 1.6205064e-38 318 281
-0.0012343467 0.704 -0.050608214 1.6389455e-38 319 281
0 0.70300001 -0.050536323 1.6113591e-38 320 281
0.0012290865 0.70099998 -0.050392549 1.6205787e-38 321 281
0.0024546667 0.69999999 -0.050320663 1.6022115e-38 322 281
0.0036714801 0.69800001 -0.050176892 1.5838083e-38 323 281
0.0048953067 0.69800001 -0.050176892 1.5745888e-38 324 281
0.0061103669 0.69700003 -0.050105009 1.5468941e-38 325 281
0.0073219193 0.69599998 -0.050033119 1.546679e-38 326 281
0.0085176928 0.69400001 -0.049889345 1.5190562e-38 327 281
0.0097345067 0.69400001 -0.049889345 1.5005817e-38 328 281
0.01095132 0.69400001 -0.049889345 1.4913622e-38 329 281
0.012150601 0.69300002 -0.049817458 1.4913619e-38 330 281
0.01336566 0.69300002 -0.049817458 1.4913619e-38 331 281
0.01460176 0.69400001 -0.049889345 1.4820704e-38 332 281
0.015795778 0.69300002 -0.049817458 1.4728507e-38 333 281
0.01701084 0.69300002 -0.049817458 1.4727788e-38 334 281
0.018225901 0.69300002 -0.049817458 1.4635593e-38 335 281
0.01944096 0.69300002 -0.049817458 1.4726353e-38 336 281
0.020596405 0.69099998 -0.049673684 1.4726353e-38 337 281
0.021807959 0.69099998 -0.049673684 1.426718e-38 338 281
0.023019511 0.69099998 -0.049673684 1.426718e-38 339 281
0.024231065 0.69099998 -0.049673684 1.4541616e-38 340 281
0.025442619 0.69099998 -0.049673684 1.444942e-38 341 281
0.026615599 0.69 -0.049601797 1.4265028e-38 342 281
0.027825398 0.69 -0.049601797 1.3896247e-38 343 281
0.029035198 0.69 -0.049601797 1.3986647e-38 344 281
0.030244999 0.69 -0.049601797 1.3802255e-38 345 281
0.031454802 0.69 -0.049601797 1.3618942e-38 346 281
0.032664597 0.69 -0.049601797 1.3526388e-38 347 281
0.033923492 0.69099998 -0.049673684 1.3434911e-38 348 281
0.035135046 0.69099998 -0.049673684 1.325088e-38 349 281
0.036346599 0.69099998 -0.049673684 1.3065415e-38 350 281
0.037666857 0.69300002 -0.049817458 1.3065415e-38 351 281
0.03888192 0.69300002 -0.049817458 1.2789194e-38 352 281
0.04009698 0.69300002 -0.049817458 1.2789194e-38 353 281
0.041312039 0.69300002 -0.049817458 1.2604807e-38 354 281
0.042527102 0.69300002 -0.049817458 1.2604807e-38 355 281
0.043742158 0.69300002 -0.049817458 1.2511908e-38 356 281
0.044957221 0.69300002 -0.049817458 1.2419712e-38 357 281
0.04617228 0.69300002 -0.049817458 1.223641e-38 358 281
0.047455717 0.69400001 -0.049889345 1.2605191e-38 359 281
0.048672531 0.69400001 -0.049889345 1.2239284e-38 360 281
0.050033119 0.69599998 -0.050033119 1.2515871e-38 361 281
0.051327083 0.69700003 -0.050105009 1.2241798e-38 362 281
0.052624546 0.69800001 -0.050176892 1.2334352e-38 363 281
0.054002665 0.69999999 -0.050320663 1.2059207e-38 364 281
0.055229999 0.69999999 -0.050320663 1.1967012e-38 365 281
0.056537982 0.70099998 -0.050392549 1.1688647e-38 366 281
0.057767071 0.70099998 -0.050392549 1.1412419e-38 367 281
0.059164476 0.70300001 -0.050536323 1.0768511e-38 368 281
0.060482983 0.704 -0.050608214 1.0768511e-38 369 281
0.061892662 0.70599997 -0.050751984 9.761937e-39 370 281
0.063309364 0.708 -0.050895758 1.1790241e-38 371 281
0.064733058 0.70999998 -0.051039528 1.7146239e-38 372 281
0.065977924 0.70999998 -0.051039528 1.8897955e-38 373 281
-0.01377068 0.71399999 -0.052578956 1.9452219e-38 309 282
-0.012518799 0.71399999 -0.052578956 1.9545474e-38 310 282
-0.011251139 0.713 -0.052505318 1.6134235e-38 311 282
-0.0099729598 0.71100003 -0.052358042 1.5844643e-38 312 282
-0.0087263398 0.71100003 -0.052358042 1.4738295e-38 313 282
-0.0074691991 0.70999998 -0.052284397 1.6297655e-38 314 282
-0.0062243328 0.70999998 -0.052284397 1.6020708e-38 315 282
-0.0049584266 0.70700002 -0.05206348 1.6021045e-38 316 282
-0.0037135598 0.70599997 -0.051989835 1.6021045e-38 317 282
-0.0024686933 0.704 -0.051842559 1.5837727e-38 318 282
-0.0012343467 0.704 -0.051842559 1.5837727e-38 319 282
0 0.70300001 -0.051768921 1.5745179e-38 320 282
0.0012290865 0.70099998 -0.051621638 1.5745179e-38 321 282
0.0024546667 0.69999999 -0.051547997 1.5653339e-38 322 282
0.0036714801 0.69800001 -0.051400717 1.5560783e-38 323 282
0.0048882933 0.69700003 -0.051327083 1.5376392e-38 324 282
0.0061103669 0.69700003 -0.051327083 1.5100165e-38 325 282
0.0073219193 0.69599998 -0.051253434 1.5098732e-38 326 282
0.0085176928 0.69400001 -0.051106159 1.4822505e-38 327 282
0.0097345067 0.69400001 -0.051106159 1.4729953e-38 328 282
0.01095132 0.69400001 -0.051106159 1.4637758e-38 329 282
0.012168133 0.69400001 -0.051106159 1.4637036e-38 330 282
0.01336566 0.69300002 -0.051032521 1.4637036e-38 331 282
0.014580719 0.69300002 -0.051032521 1.4728154e-38 332 282
0.015795778 0.69300002 -0.051032521 1.4635959e-38 333 282
0.01701084 0.69300002 -0.051032521 1.4818555e-38 334 282
0.018225901 0.69300002 -0.051032521 1.4541969e-38 335 282
0.019384852 0.69099998 -0.050885238 1.4357941e-38 336 282
0.020596405 0.69099998 -0.050885238 1.417391e-38 337 282
0.021807959 0.69099998 -0.050885238 1.4174629e-38 338 282
0.023019511 0.69099998 -0.050885238 1.4082433e-38 339 282
0.024231065 0.69099998 -0.050885238 1.4081716e-38 340 282
0.025442619 0.69099998 -0.050885238 1.398952e-38 341 282
0.026615599 0.69 -0.050811596 1.380477e-38 342 282
0.027825398 0.69 -0.050811596 1.380477e-38 343 282
0.029035198 0.69 -0.050811596 1.3619658e-38 344 282
0.030244999 0.69 -0.050811596 1.3527463e-38 345 282
0.031454802 0.69 -0.050811596 1.3434911e-38 346 282
0.032664597 0.69 -0.050811596 1.3434911e-38 347 282
0.0338744 0.69 -0.050811596 1.3159406e-38 348 282
0.035084199 0.69 -0.050811596 1.3066852e-38 349 282
0.036346599 0.69099998 -0.050885238 1.2973936e-38 350 282
0.037666857 0.69300002 -0.051032521 1.288174e-38 351 282
0.03888192 0.69300002 -0.051032521 1.2606595e-38 352 282
0.04009698 0.69300002 -0.051032521 1.2422564e-38 353 282
0.041312039 0.69300002 -0.051032521 1.251333e-38 354 282
0.042527102 0.69300002 -0.051032521 1.251333e-38 355 282
0.043742158 0.69300002 -0.051032521 1.22364e-38 356 282
0.044957221 0.69300002 -0.051032521 1.2144205e-38 357 282
0.04617228 0.69300002 -0.051032521 1.1685763e-38 358 282
0.047387339 0.69300002 -0.051032521 1.1777958e-38 359 282
0.048672531 0.69400001 -0.051106159 1.1871593e-38 360 282
0.050033119 0.69599998 -0.051253434 1.214818e-38 361 282
0.051327083 0.69700003 -0.051327083 1.2058489e-38 362 282
0.052549154 0.69700003 -0.051327083 1.2150684e-38 363 282
0.054002665 0.69999999 -0.051547997 1.2241804e-38 364 282
0.055229999 0.69999999 -0.051547997 1.1965218e-38 365 282
0.056457333 0.69999999 -0.051547997 1.1595378e-38 366 282
0.057767071 0.70099998 -0.051621638 1.1319151e-38 367 282
0.058996156 0.70099998 -0.051621638 1.0493366e-38 368 282
0.06039707 0.70300001 -0.051768921 1.0585561e-38 369 282
0.061892662 0.70599997 -0.051989835 9.8534109e-39 370 282
0.063219935 0.70700002 -0.05206348 1.2065746e-38 371 282
0.06455072 0.708 -0.052137118 1.7329188e-38 372 282
0.065792084 0.708 -0.052137118 1.9080545e-38 373 282
-0.01371282 0.71100003 -0.053604662 1.9176343e-38 309 283
-0.0124662 0.71100003 -0.053604662 1.9269966e-38 310 283
-0.011251139 0.713 -0.053755447 1.5950564e-38 311 283
-0.0099729598 0.71100003 -0.053604662 1.5936485e-38 312 283
-0.0087263398 0.71100003 -0.053604662 1.4830138e-38 313 283
-0.0074691991 0.70999998 -0.053529263 1.6389497e-38 314 283
-0.0062067998 0.708 -0.053378478 1.611255e-38 315 283
-0.0049584266 0.70700002 -0.053303085 1.5928494e-38 316 283
-0.0037135598 0.70599997 -0.053227689 1.5928494e-38 317 283
-0.0024686933 0.704 -0.053076904 1.5836295e-38 318 283
-0.0012343467 0.704 -0.053076904 1.5836295e-38 319 283
0 0.70099998 -0.052850723 1.5744101e-38 320 283
0.0012290865 0.70099998 -0.052850723 1.5744101e-38 321 283
0.0024546667 0.69999999 -0.052775331 1.5468588e-38 322 283
0.0036714801 0.69800001 -0.052624546 1.5376392e-38 323 283
0.0048882933 0.69700003 -0.052549154 1.5283478e-38 324 283
0.0061015999 0.69599998 -0.052473757 1.4915054e-38 325 283
0.0073219193 0.69599998 -0.052473757 1.4913266e-38 326 283
0.0085176928 0.69400001 -0.052322973 1.482107e-38 327 283
0.0097345067 0.69400001 -0.052322973 1.4637758e-38 328 283
0.01095132 0.69400001 -0.052322973 1.4545562e-38 329 283
0.012168133 0.69400001 -0.052322973 1.4544842e-38 330 283
0.01336566 0.69300002 -0.05224758 1.4544842e-38 331 283
0.014580719 0.69300002 -0.05224758 1.4727438e-38 332 283
0.015795778 0.69300002 -0.05224758 1.4634884e-38 333 283
0.01701084 0.69300002 -0.05224758 1.4726003e-38 334 283
0.0181733 0.69099998 -0.052096792 1.4449776e-38 335 283
0.019384852 0.69099998 -0.052096792 1.4357578e-38 336 283
0.020596405 0.69099998 -0.052096792 1.4265381e-38 337 283
0.021807959 0.69099998 -0.052096792 1.4082069e-38 338 283
0.023019511 0.69099998 -0.052096792 1.3897319e-38 339 283
0.024231065 0.69099998 -0.052096792 1.4080631e-38 340 283
0.025442619 0.69099998 -0.052096792 1.38966e-38 341 283
0.026615599 0.69 -0.052021399 1.3712927e-38 342 283
0.027825398 0.69 -0.052021399 1.3712927e-38 343 283
0.029035198 0.69 -0.052021399 1.3436699e-38 344 283
0.030244999 0.69 -0.052021399 1.3251949e-38 345 283
0.031454802 0.69 -0.052021399 1.3435267e-38 346 283
0.032664597 0.69 -0.052021399 1.3250877e-38 347 283
0.0338744 0.69 -0.052021399 1.3066133e-38 348 283
0.035084199 0.69 -0.052021399 1.2973936e-38 349 283
0.036293998 0.69 -0.052021399 1.2790626e-38 350 283
0.037666857 0.69300002 -0.05224758 1.2698072e-38 351 283
0.03888192 0.69300002 -0.05224758 1.2422567e-38 352 283
0.04009698 0.69300002 -0.05224758 1.2330371e-38 353 283
0.041312039 0.69300002 -0.05224758 1.2329662e-38 354 283
0.042527102 0.69300002 -0.05224758 1.2237467e-38 355 283
0.043742158 0.69300002 -0.05224758 1.1869057e-38 356 283
0.044957221 0.69300002 -0.05224758 1.177686e-38 357 283
0.04617228 0.69300002 -0.05224758 1.1408816e-38 358 283
0.047387339 0.69300002 -0.05224758 1.1501013e-38 359 283
0.048672531 0.69400001 -0.052322973 1.1409543e-38 360 283
0.049889345 0.69400001 -0.052322973 1.187052e-38 361 283
0.051253434 0.69599998 -0.052473757 1.1965224e-38 362 283
0.052549154 0.69700003 -0.052549154 1.2241451e-38 363 283
0.054002665 0.69999999 -0.052775331 1.2149255e-38 364 283
0.055229999 0.69999999 -0.052775331 1.1872669e-38 365 283
0.056457333 0.69999999 -0.052775331 1.1502826e-38 366 283
0.057767071 0.70099998 -0.052850723 1.1226599e-38 367 283
0.058996156 0.70099998 -0.052850723 1.0401523e-38 368 283
0.06039707 0.70300001 -0.053001512 1.0585914e-38 369 283
0.061892662 0.70599997 -0.053227689 1.059025e-38 370 283
0.063219935 0.70700002 -0.053303085 1.3079531e-38 371 283
0.06455072 0.708 -0.053378478 1.7145517e-38 372 283
0.065977924 0.70999998 -0.053529263 1.8805037e-38 373 283
-0.01371282 0.71100003 -0.054851279 1.9360376e-38 309 284
-0.0124662 0.71100003 -0.054851279 1.9269963e-38 310 284
-0.01121958 0.71100003 -0.054851279 1.6135311e-38 311 284
-0.0099729598 0.71100003 -0.054851279 1.5937204e-38 312 284
-0.0087140659 0.70999998 -0.054774132 1.4646465e-38 313 284
-0.0074691991 0.70999998 -0.054774132 1.6297667e-38 314 284
-0.0062067998 0.708 -0.054619838 1.5928885e-38 315 284
-0.0049584266 0.70700002 -0.054542694 1.5653352e-38 316 284
-0.0037135598 0.70599997 -0.054465543 1.5377123e-38 317 284
-0.0024686933 0.704 -0.054311249 1.5559714e-38 318 284
-0.0012343467 0.704 -0.054311249 1.5467518e-38 319 284
0 0.70099998 -0.054079808 1.5376042e-38 320 284
0.0012290865 0.70099998 -0.054079808 1.5283846e-38 321 284
0.0024546667 0.69999999 -0.054002665 1.5100165e-38 322 284
0.0036714801 0.69800001 -0.053848371 1.500797e-38 323 284
0.0048882933 0.69700003 -0.053771228 1.4914698e-38 324 284
0.0061015999 0.69599998 -0.053694077 1.4730307e-38 325 284
0.0073219193 0.69599998 -0.053694077 1.4637402e-38 326 284
0.0085176928 0.69400001 -0.053539783 1.4453009e-38 327 284
0.0097345067 0.69400001 -0.053539783 1.4269701e-38 328 284
0.01095132 0.69400001 -0.053539783 1.4177145e-38 329 284
0.012150601 0.69300002 -0.053462639 1.4360095e-38 330 284
0.01336566 0.69300002 -0.053462639 1.4360095e-38 331 284
0.014580719 0.69300002 -0.053462639 1.4542688e-38 332 284
