# .PCD v.7 - Point Cloud Data file format
FIELDS x y z rgb imX imY
SIZE 4 4 4 4 4 4
TYPE F F F F F F
COUNT 1 1 1 1 1 1
WIDTH 834
HEIGHT 1
VIEWPOINT 0 0 0 1 0 0 0
POINTS 834
DATA ascii
0.0024651866 0.70300001 -0.04437336 1.629619e-38 322 276
0.0036872597 0.70099998 -0.044247117 1.6572417e-38 323 276
0.0049163462 0.70099998 -0.044247117 1.6206509e-38 324 276
0.0061454331 0.70099998 -0.044247117 1.6390901e-38 325 276
0.0073639993 0.69999999 -0.044183996 1.6392326e-38 326 276
0.0085913334 0.69999999 -0.044183996 1.6392326e-38 327 276
0.0097906133 0.69800001 -0.04405776 1.6667113e-38 328 276
0.01101444 0.69800001 -0.04405776 1.6574917e-38 329 276
0.012238266 0.69800001 -0.04405776 1.6390171e-38 330 276
0.013462093 0.69800001 -0.04405776 1.620614e-38 331 276
0.01466488 0.69700003 -0.043994639 1.6021746e-38 332 276
0.015886955 0.69700003 -0.043994639 1.5745158e-38 333 276
0.017109027 0.69700003 -0.043994639 1.555862e-38 334 276
0.018331099 0.69700003 -0.043994639 1.5282031e-38 335 276
0.019553173 0.69700003 -0.043994639 1.5190211e-38 336 276
0.020775247 0.69700003 -0.043994639 1.5190211e-38 337 276
0.02199732 0.69700003 -0.043994639 1.5098735e-38 338 276
0.023219392 0.69700003 -0.043994639 1.4914345e-38 339 276
0.0244064 0.69599998 -0.043931518 1.5096215e-38 340 276
0.025626717 0.69599998 -0.043931518 1.4819628e-38 341 276
0.026847038 0.69599998 -0.043931518 1.4818555e-38 342 276
0.027986705 0.69400001 -0.043805279 1.4726e-38 343 276
0.029203519 0.69400001 -0.043805279 1.4541619e-38 344 276
0.030507999 0.69599998 -0.043931518 1.4541619e-38 345 276
0.031637147 0.69400001 -0.043805279 1.4632736e-38 346 276
0.032853961 0.69400001 -0.043805279 1.4632736e-38 347 276
0.034070771 0.69400001 -0.043805279 1.4357225e-38 348 276
0.035287585 0.69400001 -0.043805279 1.4265028e-38 349 276
0.036504399 0.69400001 -0.043805279 1.3896249e-38 350 276
0.037829921 0.69599998 -0.043931518 1.3711858e-38 351 276
0.039050236 0.69599998 -0.043931518 1.389517e-38 352 276
0.040270556 0.69599998 -0.043931518 1.3711138e-38 353 276
0.041550495 0.69700003 -0.043994639 1.3619661e-38 354 276
0.042772565 0.69700003 -0.043994639 1.3527107e-38 355 276
0.04405776 0.69800001 -0.04405776 1.3251249e-38 356 276
0.045281585 0.69800001 -0.04405776 1.3251249e-38 357 276
0.046638668 0.69999999 -0.044183996 1.3067586e-38 358 276
0.047865998 0.69999999 -0.044183996 1.3251617e-38 359 276
0.049093332 0.69999999 -0.044183996 1.2884286e-38 360 276
0.050392549 0.70099998 -0.044247117 1.2792091e-38 361 276
0.051621638 0.70099998 -0.044247117 1.2791384e-38 362 276
0.053001512 0.70300001 -0.04437336 1.288358e-38 363 276
0.054311249 0.704 -0.044436477 1.2517312e-38 364 276
0.055545598 0.704 -0.044436477 1.2701704e-38 365 276
0.056779943 0.704 -0.044436477 1.2518748e-38 366 276
0.058014292 0.704 -0.044436477 1.2518748e-38 367 276
0.059753593 0.70999998 -0.044815198 1.2057785e-38 368 276
0.061084379 0.71100003 -0.044878319 1.1043274e-38 369 276
0.062331002 0.71100003 -0.044878319 1.2622154e-38 370 276
0.063577622 0.71100003 -0.044878319 1.713974e-38 371 276
0.064824238 0.71100003 -0.044878319 1.7886688e-38 372 276
-0.01129848 0.71600002 -0.046449307 1.5854757e-38 311 277
-0.010043093 0.71600002 -0.046449307 1.5937539e-38 312 277
-0.0087631596 0.71399999 -0.046319555 1.4370213e-38 313 277
-0.0075007593 0.713 -0.046254687 1.62962e-38 314 277
-0.0062330998 0.71100003 -0.046124939 1.6111809e-38 315 277
-0.0049864799 0.71100003 -0.046124939 1.6111076e-38 316 277
-0.0037345996 0.70999998 -0.046060063 1.6018522e-38 317 277
-0.00248272 0.708 -0.045930319 1.6109638e-38 318 277
-0.0012378532 0.70599997 -0.04580057 1.6109638e-38 319 277
0 0.704 -0.045670826 1.6019243e-38 320 277
0.0012343467 0.704 -0.045670826 1.611144e-38 321 277
0.0024651866 0.70300001 -0.04560595 1.629619e-38 322 277
0.0036872597 0.70099998 -0.045476202 1.6572417e-38 323 277
0.0049163462 0.70099998 -0.045476202 1.6389821e-38 324 277
0.0061454331 0.70099998 -0.045476202 1.6482018e-38 325 277
0.0073639993 0.69999999 -0.04541133 1.6299055e-38 326 277
0.0085913334 0.69999999 -0.04541133 1.6299055e-38 327 277
0.0097906133 0.69800001 -0.045281585 1.6206859e-38 328 277
0.01101444 0.69800001 -0.045281585 1.6114663e-38 329 277
0.012220734 0.69700003 -0.045216713 1.6114663e-38 330 277
0.013442807 0.69700003 -0.045216713 1.5838437e-38 331 277
0.01466488 0.69700003 -0.045216713 1.5838787e-38 332 277
0.015886955 0.69700003 -0.045216713 1.5469644e-38 333 277
0.017109027 0.69700003 -0.045216713 1.5191632e-38 334 277
0.018331099 0.69700003 -0.045216713 1.4823208e-38 335 277
0.019525118 0.69599998 -0.045151837 1.4822149e-38 336 277
0.020745439 0.69599998 -0.045151837 1.4822149e-38 337 277
0.021965759 0.69599998 -0.045151837 1.4913266e-38 338 277
0.023186078 0.69599998 -0.045151837 1.482107e-38 339 277
0.0244064 0.69599998 -0.045151837 1.4819634e-38 340 277
0.025553079 0.69400001 -0.045022093 1.4634884e-38 341 277
0.026769891 0.69400001 -0.045022093 1.4451218e-38 342 277
0.027986705 0.69400001 -0.045022093 1.4266827e-38 343 277
0.029203519 0.69400001 -0.045022093 1.4449426e-38 344 277
0.030420333 0.69400001 -0.045022093 1.4449426e-38 345 277
0.031637147 0.69400001 -0.045022093 1.4632733e-38 346 277
0.032853961 0.69400001 -0.045022093 1.4632733e-38 347 277
0.034070771 0.69400001 -0.045022093 1.4356858e-38 348 277
0.035287585 0.69400001 -0.045022093 1.4264662e-38 349 277
0.036504399 0.69400001 -0.045022093 1.389517e-38 350 277
0.037721213 0.69400001 -0.045022093 1.3711138e-38 351 277
0.039050236 0.69599998 -0.045151837 1.3711138e-38 352 277
0.040270556 0.69599998 -0.045151837 1.3618942e-38 353 277
0.041490879 0.69599998 -0.045151837 1.3527107e-38 354 277
0.042772565 0.69700003 -0.045216713 1.3434911e-38 355 277
0.043994639 0.69700003 -0.045216713 1.3158697e-38 356 277
0.045281585 0.69800001 -0.045281585 1.3158697e-38 357 277
0.046505414 0.69800001 -0.045281585 1.2975032e-38 358 277
0.047865998 0.69999999 -0.04541133 1.2975032e-38 359 277
0.049093332 0.69999999 -0.04541133 1.2883205e-38 360 277
0.050392549 0.70099998 -0.045476202 1.2883205e-38 361 277
0.051621638 0.70099998 -0.045476202 1.2423681e-38 362 277
0.052850723 0.70099998 -0.045476202 1.2423681e-38 363 277
0.054311249 0.704 -0.045670826 1.2331851e-38 364 277
0.055545598 0.704 -0.045670826 1.2424047e-38 365 277
0.056779943 0.704 -0.045670826 1.2334364e-38 366 277
0.058014292 0.704 -0.045670826 1.2334364e-38 367 277
0.059585281 0.708 -0.045930319 1.2241097e-38 368 277
0.060998458 0.70999998 -0.046060063 1.1319501e-38 369 277
0.062243331 0.70999998 -0.046060063 1.2528159e-38 370 277
0.063577622 0.71100003 -0.046124939 1.6676964e-38 371 277
0.064824238 0.71100003 -0.046124939 1.7885969e-38 372 277
-0.010001013 0.713 -0.047504812 1.6120138e-38 312 278
-0.0087508867 0.713 -0.047504812 1.4736845e-38 313 278
-0.0075007593 0.713 -0.047504812 1.5927071e-38 314 278
-0.0062330998 0.71100003 -0.047371563 1.5927071e-38 315 278
-0.0049794666 0.70999998 -0.047304932 1.5927048e-38 316 278
-0.0037345996 0.70999998 -0.047304932 1.5743017e-38 317 278
-0.0024792133 0.70700002 -0.047105055 1.5926326e-38 318 278
-0.0012378532 0.70599997 -0.047038425 1.6018522e-38 319 278
0 0.704 -0.046905171 1.6018527e-38 320 278
0.0012343467 0.704 -0.046905171 1.6294755e-38 321 278
0.0024651866 0.70300001 -0.046838548 1.6296553e-38 322 278
0.0036872597 0.70099998 -0.046705291 1.6480944e-38 323 278
0.0049163462 0.70099998 -0.046705291 1.6389818e-38 324 278
0.0061454331 0.70099998 -0.046705291 1.6389818e-38 325 278
0.0073639993 0.69999999 -0.046638668 1.6390171e-38 326 278
0.0085667865 0.69800001 -0.046505414 1.620614e-38 327 278
0.0097906133 0.69800001 -0.046505414 1.6113944e-38 328 278
0.01099866 0.69700003 -0.046438783 1.6021749e-38 329 278
0.012220734 0.69700003 -0.046438783 1.5838081e-38 330 278
0.013442807 0.69700003 -0.046438783 1.5745885e-38 331 278
0.01466488 0.69700003 -0.046438783 1.5562208e-38 332 278
0.015886955 0.69700003 -0.046438783 1.5101232e-38 333 278
0.017084479 0.69599998 -0.046372157 1.4915404e-38 334 278
0.018304799 0.69599998 -0.046372157 1.4730654e-38 335 278
0.019525118 0.69599998 -0.046372157 1.4638111e-38 336 278
0.020685827 0.69400001 -0.046238903 1.4545557e-38 337 278
0.021902639 0.69400001 -0.046238903 1.4544842e-38 338 278
0.023186078 0.69599998 -0.046372157 1.4452646e-38 339 278
0.024336265 0.69400001 -0.046238903 1.4451571e-38 340 278
0.025553079 0.69400001 -0.046238903 1.4359376e-38 341 278
0.026769891 0.69400001 -0.046238903 1.4266827e-38 342 278
0.027986705 0.69400001 -0.046238903 1.4174631e-38 343 278
0.029203519 0.69400001 -0.046238903 1.4264677e-38 344 278
0.030420333 0.69400001 -0.046238903 1.4264677e-38 345 278
0.031637147 0.69400001 -0.046238903 1.4356507e-38 346 278
0.032853961 0.69400001 -0.046238903 1.4356507e-38 347 278
0.034070771 0.69400001 -0.046238903 1.4172832e-38 348 278
0.035287585 0.69400001 -0.046238903 1.3804051e-38 349 278
0.036504399 0.69400001 -0.046238903 1.3619661e-38 350 278
0.037721213 0.69400001 -0.046238903 1.3619661e-38 351 278
0.038938027 0.69400001 -0.046238903 1.3619661e-38 352 278
0.040154841 0.69400001 -0.046238903 1.3434911e-38 353 278
0.041490879 0.69599998 -0.046372157 1.3434914e-38 354 278
0.042711195 0.69599998 -0.046372157 1.3250883e-38 355 278
0.043994639 0.69700003 -0.046438783 1.3157978e-38 356 278
0.045216713 0.69700003 -0.046438783 1.3157978e-38 357 278
0.046505414 0.69800001 -0.046505414 1.2882836e-38 358 278
0.047865998 0.69999999 -0.046638668 1.2882836e-38 359 278
0.049093332 0.69999999 -0.046638668 1.2515501e-38 360 278
0.050392549 0.70099998 -0.046705291 1.2515501e-38 361 278
0.051621638 0.70099998 -0.046705291 1.2055266e-38 362 278
0.052850723 0.70099998 -0.046705291 1.196307e-38 363 278
0.054311249 0.704 -0.046905171 1.177977e-38 364 278
0.055545598 0.704 -0.046905171 1.1871966e-38 365 278
0.056779943 0.704 -0.046905171 1.1598246e-38 366 278
0.058014292 0.704 -0.046905171 1.2059584e-38 367 278
0.059585281 0.708 -0.047171678 1.2058508e-38 368 278
0.060826641 0.708 -0.047171678 1.1413139e-38 369 278
0.062243331 0.70999998 -0.047304932 1.2249774e-38 370 278
0.063577622 0.71100003 -0.047371563 1.6398219e-38 371 278
0.064824238 0.71100003 -0.047371563 1.7793772e-38 372 278
-0.011251139 0.713 -0.048754938 1.5949118e-38 311 279
-0.0099729598 0.71100003 -0.048618179 1.6487489e-38 312 279
-0.0087263398 0.71100003 -0.048618179 1.4920163e-38 313 279
-0.0074797203 0.71100003 -0.048618179 1.6109315e-38 314 279
-0.0062243328 0.70999998 -0.048549797 1.6109315e-38 315 279
-0.0049794666 0.70999998 -0.048549797 1.5833777e-38 316 279
-0.00372408 0.708 -0.048413038 1.5833777e-38 317 279
-0.0024792133 0.70700002 -0.048344657 1.5833765e-38 318 279
-0.0012378532 0.70599997 -0.048276275 1.592596e-38 319 279
0 0.70599997 -0.048276275 1.6109275e-38 320 279
0.0012343467 0.704 -0.048139516 1.6293667e-38 321 279
0.0024651866 0.70300001 -0.048071139 1.638801e-38 322 279
0.0036872597 0.70099998 -0.047934376 1.6572402e-38 323 279
0.0049163462 0.70099998 -0.047934376 1.6389808e-38 324 279
0.0061366665 0.69999999 -0.047865998 1.6389808e-38 325 279
0.0073639993 0.69999999 -0.047865998 1.6205058e-38 326 279
0.0085667865 0.69800001 -0.047729239 1.6297254e-38 327 279
0.0097906133 0.69800001 -0.047729239 1.6112863e-38 328 279
0.01099866 0.69700003 -0.047660861 1.6112863e-38 329 279
0.012220734 0.69700003 -0.047660861 1.5928478e-38 330 279
0.013442807 0.69700003 -0.047660861 1.5836281e-38 331 279
0.014643839 0.69599998 -0.047592476 1.565189e-38 332 279
0.015864158 0.69599998 -0.047592476 1.5283109e-38 333 279
0.017084479 0.69599998 -0.047592476 1.4823218e-38 334 279
0.018304799 0.69599998 -0.047592476 1.4454796e-38 335 279
0.019469013 0.69400001 -0.047455717 1.4545559e-38 336 279
0.020685827 0.69400001 -0.047455717 1.4453362e-38 337 279
0.021902639 0.69400001 -0.047455717 1.4636312e-38 338 279
0.023119451 0.69400001 -0.047455717 1.4359726e-38 339 279
0.024336265 0.69400001 -0.047455717 1.4267533e-38 340 279
0.025553079 0.69400001 -0.047455717 1.4359729e-38 341 279
0.026769891 0.69400001 -0.047455717 1.4174985e-38 342 279
0.027986705 0.69400001 -0.047455717 1.4082789e-38 343 279
0.029203519 0.69400001 -0.047455717 1.4264309e-38 344 279
0.030420333 0.69400001 -0.047455717 1.4172113e-38 345 279
0.031637147 0.69400001 -0.047455717 1.4355423e-38 346 279
0.032853961 0.69400001 -0.047455717 1.4263227e-38 347 279
0.034021679 0.69300002 -0.047387339 1.3987719e-38 348 279
0.035236739 0.69300002 -0.047387339 1.3895524e-38 349 279
0.036504399 0.69400001 -0.047455717 1.3343795e-38 350 279
0.037721213 0.69400001 -0.047455717 1.3343795e-38 351 279
0.038938027 0.69400001 -0.047455717 1.3251602e-38 352 279
0.040154841 0.69400001 -0.047455717 1.3251602e-38 353 279
0.041490879 0.69599998 -0.047592476 1.3341644e-38 354 279
0.042711195 0.69599998 -0.047592476 1.3341644e-38 355 279
0.043931518 0.69599998 -0.047592476 1.3066857e-38 356 279
0.045216713 0.69700003 -0.047660861 1.2882467e-38 357 279
0.046438783 0.69700003 -0.047660861 1.2790994e-38 358 279
0.047729239 0.69800001 -0.047729239 1.2698796e-38 359 279
0.049093332 0.69999999 -0.047865998 1.2698092e-38 360 279
0.050320663 0.69999999 -0.047865998 1.2421863e-38 361 279
0.051621638 0.70099998 -0.047934376 1.2053817e-38 362 279
0.052850723 0.70099998 -0.047934376 1.1869425e-38 363 279
0.054234106 0.70300001 -0.048071139 1.1318419e-38 364 279
0.055545598 0.704 -0.048139516 1.1410615e-38 365 279
0.056779943 0.704 -0.048139516 1.1504969e-38 366 279
0.058014292 0.704 -0.048139516 1.1965587e-38 367 279
0.059585281 0.708 -0.048413038 1.1875912e-38 368 279
0.060826641 0.708 -0.048413038 1.1414934e-38 369 279
0.062243331 0.70999998 -0.048549797 1.2158295e-38 370 279
0.063577622 0.71100003 -0.048618179 1.5938315e-38 371 279
0.064824238 0.71100003 -0.048618179 1.7793053e-38 372 279
-0.011251139 0.713 -0.050005067 1.6226062e-38 311 280
-0.0099729598 0.71100003 -0.049864799 1.6304898e-38 312 280
-0.0087263398 0.71100003 -0.049864799 1.4460987e-38 313 280
-0.0074797203 0.71100003 -0.049864799 1.574161e-38 314 280
-0.0062243328 0.70999998 -0.049794663 1.574161e-38 315 280
-0.0049794666 0.70999998 -0.049794663 1.5557916e-38 316 280
-0.00372408 0.708 -0.049654398 1.5650112e-38 317 280
-0.0024792133 0.70700002 -0.049584266 1.5558267e-38 318 280
-0.0012378532 0.70599997 -0.04951413 1.5558267e-38 319 280
0 0.704 -0.049373865 1.5833777e-38 320 280
0.0012343467 0.704 -0.049373865 1.6018527e-38 321 280
0.0024651866 0.70300001 -0.049303733 1.5928131e-38 322 280
0.0036872597 0.70099998 -0.049163464 1.6204358e-38 323 280
0.0049093333 0.69999999 -0.049093332 1.5746254e-38 324 280
0.0061366665 0.69999999 -0.049093332 1.5746254e-38 325 280
0.0073429602 0.69800001 -0.048953064 1.5745888e-38 326 280
0.0085667865 0.69800001 -0.048953064 1.5653333e-38 327 280
0.0097765867 0.69700003 -0.048882935 1.5653336e-38 328 280
0.01099866 0.69700003 -0.048882935 1.5561139e-38 329 280
0.0122032 0.69599998 -0.048812799 1.5468593e-38 330 280
0.013423519 0.69599998 -0.048812799 1.5376039e-38 331 280
0.014643839 0.69599998 -0.048812799 1.482502e-38 332 280
0.015864158 0.69599998 -0.048812799 1.4640628e-38 333 280
0.017084479 0.69599998 -0.048812799 1.4271849e-38 334 280
0.018304799 0.69599998 -0.048812799 1.4087458e-38 335 280
0.019469013 0.69400001 -0.048672531 1.4269694e-38 336 280
0.020685827 0.69400001 -0.048672531 1.4085303e-38 337 280
0.021902639 0.69400001 -0.048672531 1.417678e-38 338 280
0.023119451 0.69400001 -0.048672531 1.4084584e-38 339 280
0.024336265 0.69400001 -0.048672531 1.4267899e-38 340 280
0.025553079 0.69400001 -0.048672531 1.3991672e-38 341 280
0.02673132 0.69300002 -0.048602402 1.4173913e-38 342 280
0.027946379 0.69300002 -0.048602402 1.4081716e-38 343 280
0.029161438 0.69300002 -0.048602402 1.3896968e-38 344 280
0.030420333 0.69400001 -0.048672531 1.3896968e-38 345 280
0.031591557 0.69300002 -0.048602402 1.3712577e-38 346 280
0.03280662 0.69300002 -0.048602402 1.3712577e-38 347 280
0.034021679 0.69300002 -0.048602402 1.3436713e-38 348 280
0.035236739 0.69300002 -0.048602402 1.3344516e-38 349 280
0.036504399 0.69400001 -0.048672531 1.334416e-38 350 280
0.037721213 0.69400001 -0.048672531 1.3251965e-38 351 280
0.038938027 0.69400001 -0.048672531 1.3251249e-38 352 280
0.040154841 0.69400001 -0.048672531 1.3159053e-38 353 280
0.041490879 0.69599998 -0.048812799 1.3157981e-38 354 280
0.042711195 0.69599998 -0.048812799 1.3157981e-38 355 280
0.043931518 0.69599998 -0.048812799 1.279064e-38 356 280
0.045216713 0.69700003 -0.048882935 1.2606248e-38 357 280
0.046438783 0.69700003 -0.048882935 1.2422226e-38 358 280
0.047660861 0.69700003 -0.048882935 1.2330031e-38 359 280
0.048953064 0.69800001 -0.048953064 1.150352e-38 360 280
0.050320663 0.69999999 -0.049093332 1.131877e-38 361 280
0.051547997 0.69999999 -0.049093332 1.1041841e-38 362 280
0.052850723 0.70099998 -0.049163464 1.0949287e-38 363 280
0.054234106 0.70300001 -0.049303733 1.0673791e-38 364 280
0.055545598 0.704 -0.049373865 1.0858543e-38 365 280
0.056779943 0.704 -0.049373865 1.0769577e-38 366 280
0.058179103 0.70599997 -0.04951413 1.1414946e-38 367 280
0.059501119 0.70700002 -0.049584266 1.1598978e-38 368 280
0.060740728 0.70700002 -0.049584266 1.178301e-38 369 280
0.062068 0.708 -0.049654398 1.1883508e-38 370 280
0.063488193 0.70999998 -0.049794663 1.5202551e-38 371 280
0.064733058 0.70999998 -0.049794663 1.7608662e-38 372 280
0.065977924 0.70999998 -0.049794663 1.8438423e-38 373 280
-0.011251139 0.713 -0.051255193 1.6319345e-38 311 281
-0.0099729598 0.71100003 -0.051111419 1.5938282e-38 312 281
-0.0087263398 0.71100003 -0.051111419 1.4002532e-38 313 281
-0.0074797203 0.71100003 -0.051111419 1.5744493e-38 314 281
-0.0062243328 0.70999998 -0.051039528 1.5376071e-38 315 281
-0.0049794666 0.70999998 -0.051039528 1.5466442e-38 316 281
-0.00372408 0.708 -0.050895758 1.5282052e-38 317 281
-0.0024792133 0.70700002 -0.050823875 1.5466427e-38 318 281
-0.0012378532 0.70599997 -0.050751984 1.5466427e-38 319 281
0 0.704 -0.050608214 1.5649383e-38 320 281
0.0012343467 0.704 -0.050608214 1.5741938e-38 321 281
0.0024651866 0.70300001 -0.050536323 1.5834133e-38 322 281
0.0036872597 0.70099998 -0.050392549 1.6018524e-38 323 281
0.0049093333 0.69999999 -0.050320663 1.5560771e-38 324 281
0.0061366665 0.69999999 -0.050320663 1.5744802e-38 325 281
0.0073429602 0.69800001 -0.050176892 1.5560768e-38 326 281
0.0085667865 0.69800001 -0.050176892 1.5560768e-38 327 281
0.0097765867 0.69700003 -0.050105009 1.5468941e-38 328 281
0.01099866 0.69700003 -0.050105009 1.5376745e-38 329 281
0.0122032 0.69599998 -0.050033119 1.5100165e-38 330 281
0.013423519 0.69599998 -0.050033119 1.500797e-38 331 281
0.014643839 0.69599998 -0.050033119 1.4640262e-38 332 281
0.015818574 0.69400001 -0.049889345 1.4455512e-38 333 281
0.017035386 0.69400001 -0.049889345 1.4362244e-38 334 281
0.018304799 0.69599998 -0.050033119 1.4177852e-38 335 281
0.019469013 0.69400001 -0.049889345 1.417678e-38 336 281
0.020685827 0.69400001 -0.049889345 1.4084584e-38 337 281
0.021902639 0.69400001 -0.049889345 1.4084581e-38 338 281
0.023119451 0.69400001 -0.049889345 1.4084581e-38 339 281
0.024336265 0.69400001 -0.049889345 1.4357941e-38 340 281
0.025553079 0.69400001 -0.049889345 1.417391e-38 341 281
0.02673132 0.69300002 -0.049817458 1.4081362e-38 342 281
0.027946379 0.69300002 -0.049817458 1.3896971e-38 343 281
0.029161438 0.69300002 -0.049817458 1.3804773e-38 344 281
0.030420333 0.69400001 -0.049889345 1.3712577e-38 345 281
0.031591557 0.69300002 -0.049817458 1.3712211e-38 346 281
0.03280662 0.69300002 -0.049817458 1.352746e-38 347 281
0.034021679 0.69300002 -0.049817458 1.352746e-38 348 281
0.035236739 0.69300002 -0.049817458 1.352746e-38 349 281
0.036504399 0.69400001 -0.049889345 1.3068287e-38 350 281
0.037721213 0.69400001 -0.049889345 1.3068287e-38 351 281
0.038938027 0.69400001 -0.049889345 1.31587e-38 352 281
0.040154841 0.69400001 -0.049889345 1.31587e-38 353 281
0.041490879 0.69599998 -0.050033119 1.2973234e-38 354 281
0.042711195 0.69599998 -0.050033119 1.2973234e-38 355 281
0.043931518 0.69599998 -0.050033119 1.2605173e-38 356 281
0.045216713 0.69700003 -0.050105009 1.2512977e-38 357 281
0.046438783 0.69700003 -0.050105009 1.2237116e-38 358 281
0.047660861 0.69700003 -0.050105009 1.1960528e-38 359 281
0.048953064 0.69800001 -0.050176892 1.1408447e-38 360 281
0.050320663 0.69999999 -0.050320663 1.113186e-38 361 281
0.051547997 0.69999999 -0.050320663 1.0947842e-38 362 281
0.052850723 0.70099998 -0.050392549 1.0855646e-38 363 281
0.054079808 0.70099998 -0.050392549 1.0764174e-38 364 281
0.0554667 0.70300001 -0.050536323 1.1040759e-38 365 281
0.056699295 0.70300001 -0.050536323 1.0952511e-38 366 281
0.058014292 0.704 -0.050608214 1.1505685e-38 367 281
0.059416957 0.70599997 -0.050751984 1.1599681e-38 368 281
0.060740728 0.70700002 -0.050823875 1.1507485e-38 369 281
0.062068 0.708 -0.050895758 1.142181e-38 370 281
0.063488193 0.70999998 -0.051039528 1.5109634e-38 371 281
0.064733058 0.70999998 -0.051039528 1.7701213e-38 372 281
0.065977924 0.70999998 -0.051039528 1.8346224e-38 373 281
-0.010001013 0.713 -0.052505318 1.6398543e-38 312 282
-0.0087263398 0.71100003 -0.052358042 1.4093292e-38 313 282
-0.0074797203 0.71100003 -0.052358042 1.5654096e-38 314 282
-0.0062243328 0.70999998 -0.052284397 1.5008726e-38 315 282
-0.0049794666 0.70999998 -0.052284397 1.5282774e-38 316 282
-0.00372408 0.708 -0.052137118 1.5098381e-38 317 282
-0.0024792133 0.70700002 -0.05206348 1.5190929e-38 318 282
-0.0012378532 0.70599997 -0.051989835 1.5098732e-38 319 282
0 0.704 -0.051842559 1.5282408e-38 320 282
0.0012343467 0.704 -0.051842559 1.5466439e-38 321 282
0.0024651866 0.70300001 -0.051768921 1.5282406e-38 322 282
0.0036872597 0.70099998 -0.051621638 1.5558991e-38 323 282
0.0049093333 0.69999999 -0.051547997 1.5284196e-38 324 282
0.0061366665 0.69999999 -0.051547997 1.5284196e-38 325 282
0.0073429602 0.69800001 -0.051400717 1.5284194e-38 326 282
0.0085545136 0.69700003 -0.051327083 1.5100162e-38 327 282
0.0097765867 0.69700003 -0.051327083 1.5100165e-38 328 282
0.01099866 0.69700003 -0.051327083 1.500797e-38 329 282
0.0122032 0.69599998 -0.051253434 1.4732107e-38 330 282
0.013423519 0.69599998 -0.051253434 1.4639553e-38 331 282
0.014643839 0.69599998 -0.051253434 1.454771e-38 332 282
0.015818574 0.69400001 -0.051106159 1.4270765e-38 333 282
0.017035386 0.69400001 -0.051106159 1.4086735e-38 334 282
0.0182522 0.69400001 -0.051106159 1.3809789e-38 335 282
0.019469013 0.69400001 -0.051106159 1.3992032e-38 336 282
0.020685827 0.69400001 -0.051106159 1.3899837e-38 337 282
0.021902639 0.69400001 -0.051106159 1.4175347e-38 338 282
0.023119451 0.69400001 -0.051106159 1.3991316e-38 339 282
0.024336265 0.69400001 -0.051106159 1.4173915e-38 340 282
0.025553079 0.69400001 -0.051106159 1.3989164e-38 341 282
0.026769891 0.69400001 -0.051106159 1.3896615e-38 342 282
0.027986705 0.69400001 -0.051106159 1.380442e-38 343 282
0.029203519 0.69400001 -0.051106159 1.3528909e-38 344 282
0.030420333 0.69400001 -0.051106159 1.3436713e-38 345 282
0.031591557 0.69300002 -0.051032521 1.3436346e-38 346 282
0.03280662 0.69300002 -0.051032521 1.3436346e-38 347 282
0.034021679 0.69300002 -0.051032521 1.3344148e-38 348 282
0.035236739 0.69300002 -0.051032521 1.3344148e-38 349 282
0.036451802 0.69300002 -0.051032521 1.3067931e-38 350 282
0.037721213 0.69400001 -0.051106159 1.2975735e-38 351 282
0.038938027 0.69400001 -0.051106159 1.2882117e-38 352 282
0.040154841 0.69400001 -0.051106159 1.2789922e-38 353 282
0.041371655 0.69400001 -0.051106159 1.2697371e-38 354 282
0.042711195 0.69599998 -0.051253434 1.251298e-38 355 282
0.043931518 0.69599998 -0.051253434 1.2237113e-38 356 282
0.045216713 0.69700003 -0.051327083 1.2144918e-38 357 282
0.046438783 0.69700003 -0.051327083 1.1684308e-38 358 282
0.047660861 0.69700003 -0.051327083 1.1592113e-38 359 282
0.048953064 0.69800001 -0.051400717 1.076488e-38 360 282
0.050320663 0.69999999 -0.051547997 1.0672684e-38 361 282
0.051547997 0.69999999 -0.051547997 1.0579781e-38 362 282
0.052775331 0.69999999 -0.051547997 1.0487585e-38 363 282
0.054079808 0.70099998 -0.051621638 1.0121324e-38 364 282
0.0554667 0.70300001 -0.051768921 1.0490106e-38 365 282
0.056699295 0.70300001 -0.051768921 1.0492978e-38 366 282
0.058014292 0.704 -0.051842559 1.0953956e-38 367 282
0.059416957 0.70599997 -0.051989835 1.1414581e-38 368 282
0.060740728 0.70700002 -0.05206348 1.1322385e-38 369 282
0.062068 0.708 -0.052137118 1.1605481e-38 370 282
0.063488193 0.70999998 -0.052284397 1.5108915e-38 371 282
0.064733058 0.70999998 -0.052284397 1.760794e-38 372 282
0.065977924 0.70999998 -0.052284397 1.825331e-38 373 282
-0.010001013 0.713 -0.053755447 1.6766969e-38 312 283
-0.0087263398 0.71100003 -0.053604662 1.4185491e-38 313 283
-0.0074797203 0.71100003 -0.053604662 1.5561903e-38 314 283
-0.0062243328 0.70999998 -0.053529263 1.5100926e-38 315 283
-0.0049794666 0.70999998 -0.053529263 1.5465733e-38 316 283
-0.00372408 0.708 -0.053378478 1.5281702e-38 317 283
-0.0024792133 0.70700002 -0.053303085 1.5189855e-38 318 283
-0.0012378532 0.70599997 -0.053227689 1.5189855e-38 319 283
0 0.704 -0.053076904 1.5190208e-38 320 283
0.0012343467 0.704 -0.053076904 1.5282406e-38 321 283
0.0024651866 0.70300001 -0.053001512 1.5191282e-38 322 283
0.0036872597 0.70099998 -0.052850723 1.5283478e-38 323 283
0.0049093333 0.69999999 -0.052775331 1.5283475e-38 324 283
0.0061366665 0.69999999 -0.052775331 1.5283475e-38 325 283
0.0073429602 0.69800001 -0.052624546 1.5007967e-38 326 283
0.0085545136 0.69700003 -0.052549154 1.491577e-38 327 283
0.0097765867 0.69700003 -0.052549154 1.5007614e-38 328 283
0.01099866 0.69700003 -0.052549154 1.4915417e-38 329 283
0.0122032 0.69599998 -0.052473757 1.4547357e-38 330 283
0.013384946 0.69400001 -0.052322973 1.4455162e-38 331 283
0.01460176 0.69400001 -0.052322973 1.4363319e-38 332 283
0.015818574 0.69400001 -0.052322973 1.4086732e-38 333 283
0.017035386 0.69400001 -0.052322973 1.3810508e-38 334 283
0.0182522 0.69400001 -0.052322973 1.3442086e-38 335 283
0.019469013 0.69400001 -0.052322973 1.3899124e-38 336 283
0.020685827 0.69400001 -0.052322973 1.3899124e-38 337 283
0.021902639 0.69400001 -0.052322973 1.3990966e-38 338 283
0.023119451 0.69400001 -0.052322973 1.389877e-38 339 283
0.024336265 0.69400001 -0.052322973 1.3989167e-38 340 283
0.025553079 0.69400001 -0.052322973 1.3896971e-38 341 283
0.026769891 0.69400001 -0.052322973 1.3804773e-38 342 283
0.027986705 0.69400001 -0.052322973 1.3712577e-38 343 283
0.029203519 0.69400001 -0.052322973 1.3529265e-38 344 283
0.0303765 0.69300002 -0.05224758 1.343671e-38 345 283
0.031591557 0.69300002 -0.05224758 1.3253754e-38 346 283
0.03280662 0.69300002 -0.05224758 1.3069003e-38 347 283
0.034021679 0.69300002 -0.05224758 1.3252315e-38 348 283
0.035236739 0.69300002 -0.05224758 1.3068284e-38 349 283
0.036451802 0.69300002 -0.05224758 1.2975741e-38 350 283
0.037721213 0.69400001 -0.052322973 1.2790991e-38 351 283
0.038938027 0.69400001 -0.052322973 1.2697371e-38 352 283
0.040154841 0.69400001 -0.052322973 1.2605176e-38 353 283
0.041371655 0.69400001 -0.052322973 1.2421863e-38 354 283
0.042588469 0.69400001 -0.052322973 1.2237113e-38 355 283
0.043931518 0.69599998 -0.052473757 1.1961606e-38 356 283
0.045216713 0.69700003 -0.052549154 1.186941e-38 357 283
0.046438783 0.69700003 -0.052549154 1.1409151e-38 358 283
0.047660861 0.69700003 -0.052549154 1.1132564e-38 359 283
0.048953064 0.69800001 -0.052624546 1.067303e-38 360 283
0.050320663 0.69999999 -0.052775331 1.0580835e-38 361 283
0.051547997 0.69999999 -0.052775331 1.0488289e-38 362 283
0.052775331 0.69999999 -0.052775331 1.0488289e-38 363 283
0.054079808 0.70099998 -0.052850723 1.0121674e-38 364 283
0.0554667 0.70300001 -0.053001512 1.0490457e-38 365 283
0.056779943 0.704 -0.053076904 1.0492257e-38 366 283
0.058014292 0.704 -0.053076904 1.0952877e-38 367 283
0.059416957 0.70599997 -0.053227689 1.1321666e-38 368 283
0.060740728 0.70700002 -0.053303085 1.1321666e-38 369 283
0.062068 0.708 -0.053378478 1.1882065e-38 370 283
0.063488193 0.70999998 -0.053529263 1.5108912e-38 371 283
0.064733058 0.70999998 -0.053529263 1.7422826e-38 372 283
0.066070862 0.71100003 -0.053604662 1.8068195e-38 373 283
-0.010001013 0.713 -0.055005573 1.6953881e-38 312 284
-0.0087263398 0.71100003 -0.054851279 1.4095457e-38 313 284
-0.0074797203 0.71100003 -0.054851279 1.5561547e-38 314 284
-0.0062243328 0.70999998 -0.054774132 1.5193125e-38 315 284
-0.0049794666 0.70999998 -0.054774132 1.5374622e-38 316 284
-0.00372408 0.708 -0.054619838 1.5189872e-38 317 284
-0.0024792133 0.70700002 -0.054542694 1.4915069e-38 318 284
-0.0012378532 0.70599997 -0.054465543 1.4822515e-38 319 284
0 0.704 -0.054311249 1.5098735e-38 320 284
0.0012343467 0.704 -0.054311249 1.5098735e-38 321 284
0.0024651866 0.70300001 -0.054234106 1.4915773e-38 322 284
0.0036872597 0.70099998 -0.054079808 1.4915773e-38 323 284
0.0049093333 0.69999999 -0.054002665 1.4915417e-38 324 284
0.006119133 0.69800001 -0.053848371 1.4915417e-38 325 284
0.0073429602 0.69800001 -0.053848371 1.4822868e-38 326 284
0.0085545136 0.69700003 -0.053771228 1.4822868e-38 327 284
0.0097765867 0.69700003 -0.053771228 1.4730672e-38 328 284
0.01099866 0.69700003 -0.053771228 1.4638477e-38 329 284
0.0122032 0.69599998 -0.053694077 1.4362966e-38 330 284
0.013384946 0.69400001 -0.053539783 1.427077e-38 331 284
0.01460176 0.69400001 -0.053539783 1.3994905e-38 332 284
0.015818574 0.69400001 -0.053539783 1.3810514e-38 333 284
0.017035386 0.69400001 -0.053539783 1.3533934e-38 334 284
0.0182522 0.69400001 -0.053539783 1.3349184e-38 335 284
0.019469013 0.69400001 -0.053539783 1.3622902e-38 336 284
0.020685827 0.69400001 -0.053539783 1.3530707e-38 337 284
0.021902639 0.69400001 -0.053539783 1.3622905e-38 338 284
0.023119451 0.69400001 -0.053539783 1.353071e-38 339 284
0.024336265 0.69400001 -0.053539783 1.37133e-38 340 284
0.025553079 0.69400001 -0.053539783 1.3621105e-38 341 284
0.02673132 0.69300002 -0.053462639 1.3529265e-38 342 284
0.027946379 0.69300002 -0.053462639 1.343671e-38 343 284
0.029161438 0.69300002 -0.053462639 1.3161204e-38 344 284
0.0303765 0.69300002 -0.053462639 1.306865e-38 345 284
0.031591557 0.69300002 -0.053462639 1.297646e-38 346 284
0.03280662 0.69300002 -0.053462639 1.2883905e-38 347 284
0.034021679 0.69300002 -0.053462639 1.2883905e-38 348 284
0.035236739 0.69300002 -0.053462639 1.2883905e-38 349 284
0.036451802 0.69300002 -0.053462639 1.2607328e-38 350 284
0.037721213 0.69400001 -0.053539783 1.2422935e-38 351 284
0.038938027 0.69400001 -0.053539783 1.2329312e-38 352 284
0.040154841 0.69400001 -0.053539783 1.2237116e-38 353 284
0.041371655 0.69400001 -0.053539783 1.1962322e-38 354 284
0.042588469 0.69400001 -0.053539783 1.1870126e-38 355 284
0.043931518 0.69599998 -0.053694077 1.1503504e-38 356 284
0.045216713 0.69700003 -0.053771228 1.1226557e-38 357 284
0.046438783 0.69700003 -0.053771228 1.1225841e-38 358 284
0.047660861 0.69700003 -0.053771228 1.0948896e-38 359 284
0.048953064 0.69800001 -0.053848371 1.0214926e-38 360 284
0.050320663 0.69999999 -0.054002665 1.0030535e-38 361 284
0.051547997 0.69999999 -0.054002665 1.0029466e-38 362 284
0.052850723 0.70099998 -0.054079808 1.0305693e-38 363 284
0.054079808 0.70099998 -0.054079808 1.012275e-38 364 284
0.0554667 0.70300001 -0.054234106 1.0214946e-38 365 284
0.056699295 0.70300001 -0.054234106 1.0400059e-38 366 284
0.058014292 0.704 -0.054311249 1.0860678e-38 367 284
0.059416957 0.70599997 -0.054465543 1.1137994e-38 368 284
0.060654808 0.70599997 -0.054465543 1.1137994e-38 369 284
0.062068 0.708 -0.054619838 1.2158651e-38 370 284
0.063488193 0.70999998 -0.054774132 1.5385498e-38 371 284
0.064733058 0.70999998 -0.054774132 1.7239153e-38 372 284
0.066070862 0.71100003 -0.054851279 1.7884523e-38 373 284
-0.010001013 0.713 -0.056255698 1.7692518e-38 312 285
-0.0087263398 0.71100003 -0.056097899 1.3820302e-38 313 285
-0.0074797203 0.71100003 -0.056097899 1.5561181e-38 314 285
-0.0062243328 0.70999998 -0.056018997 1.5284236e-38 315 285
-0.0049794666 0.70999998 -0.056018997 1.5374619e-38 316 285
-0.00372408 0.708 -0.055861197 1.5098032e-38 317 285
-0.0024792133 0.70700002 -0.055782299 1.4915069e-38 318 285
-0.0012378532 0.70599997 -0.055703394 1.4915069e-38 319 285
0 0.704 -0.055545598 1.4822868e-38 320 285
0.0012343467 0.704 -0.055545598 1.4822868e-38 321 285
0.0024651866 0.70300001 -0.0554667 1.4732107e-38 322 285
0.0036872597 0.70099998 -0.055308893 1.4732107e-38 323 285
0.0049093333 0.69999999 -0.055229999 1.4639203e-38 324 285
0.006119133 0.69800001 -0.0550722 1.4639203e-38 325 285
0.0073429602 0.69800001 -0.0550722 1.4546654e-38 326 285
0.0085545136 0.69700003 -0.054993302 1.4454458e-38 327 285
0.0097765867 0.69700003 -0.054993302 1.4362616e-38 328 285
0.01099866 0.69700003 -0.054993302 1.4362616e-38 329 285
0.0122032 0.69599998 -0.054914396 1.408603e-38 330 285
0.013423519 0.69599998 -0.054914396 1.3993833e-38 331 285
0.014643839 0.69599998 -0.054914396 1.3626495e-38 332 285
0.015818574 0.69400001 -0.054756597 1.35343e-38 333 285
0.017035386 0.69400001 -0.054756597 1.3441029e-38 334 285
0.0182522 0.69400001 -0.054756597 1.3164441e-38 335 285
0.019469013 0.69400001 -0.054756597 1.3346681e-38 336 285
0.020685827 0.69400001 -0.054756597 1.3346681e-38 337 285
0.021902639 0.69400001 -0.054756597 1.343888e-38 338 285
0.023119451 0.69400001 -0.054756597 1.3346684e-38 339 285
0.024336265 0.69400001 -0.054756597 1.353071e-38 340 285
0.025553079 0.69400001 -0.054756597 1.3253764e-38 341 285
0.02673132 0.69300002 -0.054677699 1.3253401e-38 342 285
0.027946379 0.69300002 -0.054677699 1.3161204e-38 343 285
0.029161438 0.69300002 -0.054677699 1.2884987e-38 344 285
0.0303765 0.69300002 -0.054677699 1.2700596e-38 345 285
0.031591557 0.69300002 -0.054677699 1.2424382e-38 346 285
0.03280662 0.69300002 -0.054677699 1.2424382e-38 347 285
0.034021679 0.69300002 -0.054677699 1.233183e-38 348 285
0.035236739 0.69300002 -0.054677699 1.233183e-38 349 285
0.036451802 0.69300002 -0.054677699 1.2238914e-38 350 285
0.037721213 0.69400001 -0.054756597 1.2054523e-38 351 285
0.038938027 0.69400001 -0.054756597 1.1962327e-38 352 285
0.040154841 0.69400001 -0.054756597 1.1777577e-38 353 285
0.041371655 0.69400001 -0.054756597 1.168717e-38 354 285
0.042588469 0.69400001 -0.054756597 1.168717e-38 355 285
0.043931518 0.69599998 -0.054914396 1.1319109e-38 356 285
0.045216713 0.69700003 -0.054993302 1.1134359e-38 357 285
0.046438783 0.69700003 -0.054993302 1.1133643e-38 358 285
0.047660861 0.69700003 -0.054993302 1.1041447e-38 359 285
0.048953064 0.69800001 -0.0550722 1.0306399e-38 360 285
0.050320663 0.69999999 -0.055229999 1.0214203e-38 361 285
0.051547997 0.69999999 -0.055229999 9.9379863e-39 362 285
0.052850723 0.70099998 -0.055308893 1.0122378e-38 363 285
0.054079808 0.70099998 -0.055308893 9.9394352e-39 364 285
0.0554667 0.70300001 -0.0554667 1.0215662e-38 365 285
0.056699295 0.70300001 -0.0554667 1.0124917e-38 366 285
0.058014292 0.704 -0.055545598 1.0585896e-38 367 285
0.059416957 0.70599997 -0.055703394 1.0955047e-38 368 285
0.060654808 0.70599997 -0.055703394 1.0955047e-38 369 285
0.061980337 0.70700002 -0.055782299 1.2711106e-38 370 285
0.063488193 0.70999998 -0.056018997 1.5937953e-38 371 285
0.064733058 0.70999998 -0.056018997 1.7513942e-38 372 285
-0.010001013 0.713 -0.057505824 1.8153866e-38 312 286
-0.0087263398 0.71100003 -0.057344519 1.3912866e-38 313 286
-0.0074797203 0.71100003 -0.057344519 1.53786e-38 314 286
-0.0062243328 0.70999998 -0.057263866 1.4825428e-38 315 286
-0.0049794666 0.70999998 -0.057263866 1.5099477e-38 316 286
-0.00372408 0.708 -0.057102561 1.5007282e-38 317 286
-0.0024792133 0.70700002 -0.057021905 1.463957e-38 318 286
-0.0012378532 0.70599997 -0.056941248 1.4363341e-38 319 286
0 0.704 -0.056779943 1.4639203e-38 320 286
0.0012343467 0.704 -0.056779943 1.4639203e-38 321 286
0.0024651866 0.70300001 -0.056699295 1.4823224e-38 322 286
0.0036872597 0.70099998 -0.056537982 1.4823224e-38 323 286
0.0049093333 0.69999999 -0.056457333 1.463883e-38 324 286
0.006119133 0.69800001 -0.056296028 1.445444e-38 325 286
0.0073429602 0.69800001 -0.056296028 1.436225e-38 326 286
0.0085545136 0.69700003 -0.056215372 1.436225e-38 327 286
0.0097765867 0.69700003 -0.056215372 1.4086382e-38 328 286
0.010982879 0.69599998 -0.056134716 1.3994186e-38 329 286
0.0122032 0.69599998 -0.056134716 1.408495e-38 330 286
0.013384946 0.69400001 -0.055973411 1.3992754e-38 331 286
0.01460176 0.69400001 -0.055973411 1.353323e-38 332 286
0.015818574 0.69400001 -0.055973411 1.3348481e-38 333 286
0.017035386 0.69400001 -0.055973411 1.325593e-38 334 286
0.0182522 0.69400001 -0.055973411 1.2979704e-38 335 286
0.019469013 0.69400001 -0.055973411 1.3345965e-38 336 286
0.020685827 0.69400001 -0.055973411 1.3345965e-38 337 286
0.021902639 0.69400001 -0.055973411 1.3345965e-38 338 286
0.023119451 0.69400001 -0.055973411 1.3345965e-38 339 286
0.024336265 0.69400001 -0.055973411 1.3345599e-38 340 286
0.025553079 0.69400001 -0.055973411 1.3253045e-38 341 286
0.02673132 0.69300002 -0.055892758 1.306865e-38 342 286
0.027946379 0.69300002 -0.055892758 1.2976454e-38 343 286
0.029161438 0.69300002 -0.055892758 1.270024e-38 344 286
0.0303765 0.69300002 -0.055892758 1.2515849e-38 345 286
0.031591557 0.69300002 -0.055892758 1.2423303e-38 346 286
0.03280662 0.69300002 -0.055892758 1.2423303e-38 347 286
0.034021679 0.69300002 -0.055892758 1.223927e-38 348 286
0.035236739 0.69300002 -0.055892758 1.2146716e-38 349 286
0.036451802 0.69300002 -0.055892758 1.2146716e-38 350 286
0.037721213 0.69400001 -0.055973411 1.205452e-38 351 286
0.038938027 0.69400001 -0.055973411 1.1870482e-38 352 286
0.040154841 0.69400001 -0.055973411 1.1870482e-38 353 286
0.041371655 0.69400001 -0.055973411 1.1594615e-38 354 286
0.042588469 0.69400001 -0.055973411 1.1594615e-38 355 286
0.043931518 0.69599998 -0.056134716 1.1502065e-38 356 286
0.045216713 0.69700003 -0.056215372 1.1225838e-38 357 286
0.046438783 0.69700003 -0.056215372 1.0858854e-38 358 286
0.047729239 0.69800001 -0.056296028 1.0674104e-38 359 286
0.048953064 0.69800001 -0.056296028 1.0123452e-38 360 286
0.050320663 0.69999999 -0.056457333 9.7546712e-39 361 286
0.051547997 0.69999999 -0.056457333 9.8468725e-39 362 286
0.052775331 0.69999999 -0.056457333 1.0030904e-38 363 286
0.054079808 0.70099998 -0.056537982 1.0214576e-38 364 286
0.0554667 0.70300001 -0.056699295 1.0398609e-38 365 286
0.056779943 0.704 -0.056779943 1.0675917e-38 366 286
0.058014292 0.704 -0.056779943 1.0860668e-38 367 286
0.059416957 0.70599997 -0.056941248 1.1047946e-38 368 286
0.060654808 0.70599997 -0.056941248 1.077172e-38 369 286
0.061980337 0.70700002 -0.057021905 1.3264274e-38 370 286
0.063488193 0.70999998 -0.057263866 1.6583316e-38 371 286
-0.010001013 0.713 -0.058755953 1.8248233e-38 312 287
-0.0087263398 0.71100003 -0.058591139 1.3730647e-38 313 287
-0.0074797203 0.71100003 -0.058591139 1.5380403e-38 314 287
-0.0062330998 0.71100003 -0.058591139 1.4735033e-38 315 287
-0.0049794666 0.70999998 -0.058508728 1.546789e-38 316 287
-0.00372408 0.708 -0.058343921 1.5099109e-38 317 287
-0.00248272 0.708 -0.058343921 1.4731402e-38 318 287
-0.0012396066 0.70700002 -0.05826151 1.4639205e-38 319 287
0 0.70599997 -0.058179103 1.4730319e-38 320 287
0.0012343467 0.704 -0.058014292 1.4730319e-38 321 287
0.0024651866 0.70300001 -0.057931885 1.4364048e-38 322 287
0.0036872597 0.70099998 -0.057767071 1.4364048e-38 323 287
0.0049093333 0.69999999 -0.05768466 1.4455162e-38 324 287
0.006119133 0.69800001 -0.057519849 1.427077e-38 325 287
0.00733244 0.69700003 -0.05743745 1.3994905e-38 326 287
0.0085545136 0.69700003 -0.05743745 1.3902709e-38 327 287
0.0097765867 0.69700003 -0.05743745 1.3902709e-38 328 287
0.010982879 0.69599998 -0.057355035 1.3810514e-38 329 287
0.0122032 0.69599998 -0.057355035 1.3441748e-38 330 287
0.013384946 0.69400001 -0.057190225 1.3441748e-38 331 287
0.01460176 0.69400001 -0.057190225 1.3072985e-38 332 287
0.015818574 0.69400001 -0.057190225 1.3072985e-38 333 287
0.017035386 0.69400001 -0.057190225 1.2980069e-38 334 287
0.0182522 0.69400001 -0.057190225 1.2795678e-38 335 287
0.019469013 0.69400001 -0.057190225 1.2794959e-38 336 287
0.020685827 0.69400001 -0.057190225 1.2794959e-38 337 287
0.021902639 0.69400001 -0.057190225 1.2796031e-38 338 287
0.023119451 0.69400001 -0.057190225 1.2611641e-38 339 287
0.024336265 0.69400001 -0.057190225 1.2978975e-38 340 287
0.025553079 0.69400001 -0.057190225 1.2702747e-38 341 287
0.026769891 0.69400001 -0.057190225 1.2885343e-38 342 287
0.027986705 0.69400001 -0.057190225 1.2792789e-38 343 287
0.029161438 0.69300002 -0.057107817 1.2424735e-38 344 287
0.0303765 0.69300002 -0.057107817 1.233218e-38 345 287
0.031591557 0.69300002 -0.057107817 1.2056675e-38 346 287
0.03280662 0.69300002 -0.057107817 1.2056675e-38 347 287
0.034021679 0.69300002 -0.057107817 1.2056672e-38 348 287
0.035236739 0.69300002 -0.057107817 1.1964475e-38 349 287
0.036504399 0.69400001 -0.057190225 1.2147425e-38 350 287
0.037721213 0.69400001 -0.057190225 1.205487e-38 351 287
0.038938027 0.69400001 -0.057190225 1.1961603e-38 352 287
0.040154841 0.69400001 -0.057190225 1.177721e-38 353 287
0.041371655 0.69400001 -0.057190225 1.13184e-38 354 287
0.042588469 0.69400001 -0.057190225 1.1226204e-38 355 287
0.043931518 0.69599998 -0.057355035 1.1134009e-38 356 287
0.045216713 0.69700003 -0.05743745 1.1041813e-38 357 287
0.046438783 0.69700003 -0.05743745 1.1042166e-38 358 287
0.047729239 0.69800001 -0.057519849 1.0765581e-38 359 287
0.048953064 0.69800001 -0.057519849 1.0581188e-38 360 287
0.050320663 0.69999999 -0.05768466 1.0581188e-38 361 287
0.051547997 0.69999999 -0.05768466 1.0488639e-38 362 287
0.052775331 0.69999999 -0.05768466 1.0580835e-38 363 287
0.054079808 0.70099998 -0.057767071 1.0490091e-38 364 287
0.0554667 0.70300001 -0.057931885 1.0582287e-38 365 287
0.056779943 0.704 -0.058014292 1.0216038e-38 366 287
0.058014292 0.704 -0.058014292 1.0769211e-38 367 287
0.059248637 0.704 -0.058014292 1.0771379e-38 368 287
0.060654808 0.70599997 -0.058179103 1.0863575e-38 369 287
0.061980337 0.70700002 -0.05826151 1.363198e-38 370 287
-0.0099729598 0.71100003 -0.059837762 1.8711372e-38 312 288
-0.0087140659 0.70999998 -0.059753593 1.3733168e-38 313 288
-0.0074691991 0.70999998 -0.059753593 1.5012346e-38 314 288
-0.0062243328 0.70999998 -0.059753593 1.4459172e-38 315 288
-0.0049794666 0.70999998 -0.059753593 1.5101279e-38 316 288
-0.00372408 0.708 -0.059585281 1.4824332e-38 317 288
-0.00248272 0.708 -0.059585281 1.4731405e-38 318 288
-0.0012396066 0.70700002 -0.059501119 1.4546654e-38 319 288
0 0.70599997 -0.059416957 1.4547004e-38 320 288
0.0012343467 0.704 -0.059248637 1.4454808e-38 321 288
0.0024651866 0.70300001 -0.059164476 1.4455159e-38 322 288
0.0036872597 0.70099998 -0.058996156 1.4362963e-38 323 288
0.0049093333 0.69999999 -0.058911994 1.4270765e-38 324 288
0.006119133 0.69800001 -0.058743682 1.4086732e-38 325 288
0.00733244 0.69700003 -0.05865952 1.40853e-38 326 288
0.0085545136 0.69700003 -0.05865952 1.40853e-38 327 288
0.0097765867 0.69700003 -0.05865952 1.3809795e-38 328 288
0.010982879 0.69599998 -0.058575355 1.3717599e-38 329 288
0.0122032 0.69599998 -0.058575355 1.3442104e-38 330 288
0.013384946 0.69400001 -0.058407038 1.3257714e-38 331 288
0.01460176 0.69400001 -0.058407038 1.3255933e-38 332 288
0.015818574 0.69400001 -0.058407038 1.2979706e-38 333 288
0.017035386 0.69400001 -0.058407038 1.2887152e-38 334 288
0.0182522 0.69400001 -0.058407038 1.2887152e-38 335 288
0.019469013 0.69400001 -0.058407038 1.2702761e-38 336 288
0.020685827 0.69400001 -0.058407038 1.2702761e-38 337 288
0.021902639 0.69400001 -0.058407038 1.2610212e-38 338 288
0.023119451 0.69400001 -0.058407038 1.2610212e-38 339 288
0.024336265 0.69400001 -0.058407038 1.2702041e-38 340 288
0.025553079 0.69400001 -0.058407038 1.2609845e-38 341 288
0.026769891 0.69400001 -0.058407038 1.2425804e-38 342 288
0.027986705 0.69400001 -0.058407038 1.2333608e-38 343 288
0.029161438 0.69300002 -0.058322877 1.2332534e-38 344 288
0.0303765 0.69300002 -0.058322877 1.2240336e-38 345 288
0.031591557 0.69300002 -0.058322877 1.2057377e-38 346 288
0.03280662 0.69300002 -0.058322877 1.2057377e-38 347 288
0.034021679 0.69300002 -0.058322877 1.1965176e-38 348 288
0.035236739 0.69300002 -0.058322877 1.1965176e-38 349 288
0.036504399 0.69400001 -0.058407038 1.1871908e-38 350 288
0.037721213 0.69400001 -0.058407038 1.1779713e-38 351 288
0.038938027 0.69400001 -0.058407038 1.177793e-38 352 288
0.040154841 0.69400001 -0.058407038 1.1593898e-38 353 288
0.041371655 0.69400001 -0.058407038 1.14088e-38 354 288
0.042588469 0.69400001 -0.058407038 1.14088e-38 355 288
0.043931518 0.69599998 -0.058575355 1.1041813e-38 356 288
0.045216713 0.69700003 -0.05865952 1.0949617e-38 357 288
0.046438783 0.69700003 -0.05865952 1.1041447e-38 358 288
0.047729239 0.69800001 -0.058743682 1.1041447e-38 359 288
0.048953064 0.69800001 -0.058743682 1.0765581e-38 360 288
0.050320663 0.69999999 -0.058911994 1.0673384e-38 361 288
0.051547997 0.69999999 -0.058911994 1.0673753e-38 362 288
0.052850723 0.70099998 -0.058996156 1.0673753e-38 363 288
0.054079808 0.70099998 -0.058996156 1.0490807e-38 364 288
0.0554667 0.70300001 -0.059164476 1.0583003e-38 365 288
0.056779943 0.704 -0.059248637 1.0491538e-38 366 288
0.058014292 0.704 -0.059248637 1.0952158e-38 367 288
0.059248637 0.704 -0.059248637 1.0954682e-38 368 288
0.060482983 0.704 -0.059248637 1.0954682e-38 369 288
0.061980337 0.70700002 -0.059501119 1.3909643e-38 370 288
-0.0099729598 0.71100003 -0.061084379 1.9356747e-38 312 289
-0.0087140659 0.70999998 -0.060998458 1.5023553e-38 313 289
-0.0074691991 0.70999998 -0.060998458 1.5472967e-38 314 289
-0.0062243328 0.70999998 -0.060998458 1.4643206e-38 315 289
-0.0049794666 0.70999998 -0.060998458 1.5376787e-38 316 289
-0.00372408 0.708 -0.060826641 1.4915809e-38 317 289
-0.0024792133 0.70700002 -0.060740728 1.491508e-38 318 289
-0.0012396066 0.70700002 -0.060740728 1.4638852e-38 319 289
0 0.70599997 -0.060654808 1.4547004e-38 320 289
0.0012343467 0.704 -0.060482983 1.4454808e-38 321 289
0.0024651866 0.70300001 -0.06039707 1.4179654e-38 322 289
0.0036872597 0.70099998 -0.060225245 1.4179654e-38 323 289
0.0049093333 0.69999999 -0.060139328 1.4270414e-38 324 289
0.006119133 0.69800001 -0.059967503 1.3994186e-38 325 289
0.0073429602 0.69800001 -0.059967503 1.3993833e-38 326 289
0.0085545136 0.69700003 -0.05988159 1.3809442e-38 327 289
0.0097765867 0.69700003 -0.05988159 1.3625774e-38 328 289
0.010982879 0.69599998 -0.059795678 1.3533578e-38 329 289
0.0122032 0.69599998 -0.059795678 1.3257717e-38 330 289
0.013384946 0.69400001 -0.059623852 1.3073324e-38 331 289
0.01460176 0.69400001 -0.059623852 1.2979704e-38 332 289
0.015818574 0.69400001 -0.059623852 1.2887508e-38 333 289
0.017035386 0.69400001 -0.059623852 1.2795675e-38 334 289
0.0182522 0.69400001 -0.059623852 1.2611644e-38 335 289
0.019469013 0.69400001 -0.059623852 1.2519095e-38 336 289
0.020685827 0.69400001 -0.059623852 1.24269e-38 337 289
0.021902639 0.69400001 -0.059623852 1.2335073e-38 338 289
0.023119451 0.69400001 -0.059623852 1.2335073e-38 339 289
0.024336265 0.69400001 -0.059623852 1.2518015e-38 340 289
0.025553079 0.69400001 -0.059623852 1.2518015e-38 341 289
0.02673132 0.69300002 -0.05953794 1.2150662e-38 342 289
0.027946379 0.69300002 -0.05953794 1.1966272e-38 343 289
0.029161438 0.69300002 -0.05953794 1.2332536e-38 344 289
0.0303765 0.69300002 -0.05953794 1.2332536e-38 345 289
0.031591557 0.69300002 -0.05953794 1.2057021e-38 346 289
0.03280662 0.69300002 -0.05953794 1.1964826e-38 347 289
0.034021679 0.69300002 -0.05953794 1.1872983e-38 348 289
0.035236739 0.69300002 -0.05953794 1.1872983e-38 349 289
0.036504399 0.69400001 -0.059623852 1.2055224e-38 350 289
0.037721213 0.69400001 -0.059623852 1.1963028e-38 351 289
0.038938027 0.69400001 -0.059623852 1.177793e-38 352 289
0.040154841 0.69400001 -0.059623852 1.1593898e-38 353 289
0.041371655 0.69400001 -0.059623852 1.1225485e-38 354 289
0.042588469 0.69400001 -0.059623852 1.1225485e-38 355 289
0.043805279 0.69400001 -0.059623852 1.1042166e-38 356 289
0.045151837 0.69599998 -0.059795678 1.1134362e-38 357 289
0.046438783 0.69700003 -0.05988159 1.0951047e-38 358 289
