# .PCD v.7 - Point Cloud Data file format
FIELDS x y z rgb imX imY
SIZE 4 4 4 4 4 4
TYPE F F F F F F
COUNT 1 1 1 1 1 1
WIDTH 844
HEIGHT 1
VIEWPOINT 0 0 0 1 0 0 0
POINTS 844
DATA ascii
-0.025284819 0.759 -0.01064624 1.1224056e-38 301 248
-0.023954039 0.759 -0.01064624 1.0855276e-38 302 248
-0.02262326 0.759 -0.01064624 1.0763081e-38 303 248
-0.02129248 0.759 -0.01064624 1.0487217e-38 304 248
-0.0199617 0.759 -0.01064624 1.0579412e-38 305 248
-0.01863092 0.759 -0.01064624 1.0763083e-38 306 248
-0.017300138 0.759 -0.01064624 1.0855279e-38 307 248
-0.015927281 0.75700003 -0.010618187 1.0396466e-38 308 248
-0.014600007 0.75700003 -0.010618187 1.0580857e-38 309 248
-0.013272733 0.75700003 -0.010618187 1.0213877e-38 310 248
-0.01194546 0.75700003 -0.010618187 1.0213877e-38 311 248
-0.010618187 0.75700003 -0.010618187 1.0212794e-38 312 248
-0.0092909131 0.75700003 -0.010618187 1.0028762e-38 313 248
-0.0079636406 0.75700003 -0.010618187 1.0302472e-38 314 248
-0.0066363667 0.75700003 -0.010618187 1.0210277e-38 315 248
-0.0053090933 0.75700003 -0.010618187 1.0118077e-38 316 248
-0.0039923396 0.759 -0.01064624 1.0118077e-38 317 248
-0.0026685731 0.76099998 -0.010674292 9.8422131e-39 318 248
-0.0013342865 0.76099998 -0.010674292 9.7500175e-39 319 248
0 0.759 -0.01064624 9.6578247e-39 320 248
0.00133078 0.759 -0.01064624 9.4737936e-39 321 248
0.00266156 0.759 -0.01064624 9.9326137e-39 322 248
0.0039923396 0.759 -0.01064624 9.9326137e-39 323 248
0.0053231199 0.759 -0.01064624 1.0118077e-38 324 248
0.0066538998 0.759 -0.01064624 1.0118077e-38 325 248
0.0079846792 0.759 -0.01064624 1.0670163e-38 326 248
0.0093400059 0.76099998 -0.010674292 1.0670163e-38 327 248
0.01068832 0.76200002 -0.01068832 1.0762715e-38 328 248
0.01202436 0.76200002 -0.01068832 1.0762715e-38 329 248
0.013395466 0.764 -0.010716373 1.0855273e-38 330 248
0.014735013 0.764 -0.010716373 1.0947828e-38 331 248
0.016116638 0.76599997 -0.010744425 1.0948558e-38 332 248
0.017482487 0.76700002 -0.010758453 1.1225504e-38 333 248
0.018876385 0.76899999 -0.010786506 1.0952161e-38 334 248
0.0202247 0.76899999 -0.010786506 1.1320583e-38 335 248
0.021573013 0.76899999 -0.010786506 1.077031e-38 336 248
0.02298094 0.77100003 -0.01081456 1.3812764e-38 337 248
-0.04885488 0.77399999 -0.01221372 1.5297971e-38 284 249
-0.047313701 0.77100003 -0.01216638 1.0964778e-38 285 249
-0.045842651 0.76899999 -0.012134819 1.2149978e-38 286 249
-0.044494338 0.76899999 -0.012134819 1.2057782e-38 287 249
-0.043033812 0.76700002 -0.01210326 1.1964489e-38 288 249
-0.041689005 0.76700002 -0.01210326 1.1596066e-38 289 249
-0.040344197 0.76700002 -0.01210326 1.1686461e-38 290 249
-0.038948543 0.76599997 -0.012087479 1.1594265e-38 291 249
-0.037605491 0.76599997 -0.012087479 1.1225841e-38 292 249
-0.036167759 0.764 -0.01205592 1.1133646e-38 293 249
-0.034828212 0.764 -0.01205592 1.1041094e-38 294 249
-0.033401001 0.76200002 -0.01202436 1.0948898e-38 295 249
-0.032022879 0.76099998 -0.012008579 1.0764877e-38 296 249
-0.030688593 0.76099998 -0.012008579 1.067268e-38 297 249
-0.029354304 0.76099998 -0.012008579 1.0764883e-38 298 249
-0.028020019 0.76099998 -0.012008579 1.0764883e-38 299 249
-0.026685731 0.76099998 -0.012008579 1.0855999e-38 300 249
-0.025284819 0.759 -0.01197702 1.0763802e-38 301 249
-0.023954039 0.759 -0.01197702 1.048722e-38 302 249
-0.02262326 0.759 -0.01197702 1.0395024e-38 303 249
-0.02129248 0.759 -0.01197702 9.8443711e-39 304 249
-0.0199617 0.759 -0.01197702 9.9365668e-39 305 249
-0.01863092 0.759 -0.01197702 9.9369297e-39 306 249
-0.017300138 0.759 -0.01197702 9.9369297e-39 307 249
-0.015927281 0.75700003 -0.01194546 9.7536203e-39 308 249
-0.014600007 0.75700003 -0.01194546 9.8458159e-39 309 249
-0.013272733 0.75700003 -0.01194546 9.5710241e-39 310 249
-0.01194546 0.75700003 -0.01194546 9.5710241e-39 311 249
-0.010618187 0.75700003 -0.01194546 9.6614218e-39 312 249
-0.0092909131 0.75700003 -0.01194546 9.5692262e-39 313 249
-0.0079636406 0.75700003 -0.01194546 9.7510965e-39 314 249
-0.0066363667 0.75700003 -0.01194546 9.7510965e-39 315 249
-0.0053090933 0.75700003 -0.01194546 9.7514524e-39 316 249
-0.0039923396 0.759 -0.01197702 9.6592568e-39 317 249
-0.0026685731 0.76099998 -0.012008579 9.1993647e-39 318 249
-0.0013342865 0.76099998 -0.012008579 9.107169e-39 319 249
0 0.759 -0.01197702 8.9235009e-39 320 249
0.00133078 0.759 -0.01197702 8.8313052e-39 321 249
0.00266156 0.759 -0.01197702 9.288689e-39 322 249
0.0039923396 0.759 -0.01197702 9.288689e-39 323 249
0.0053231199 0.759 -0.01197702 9.2894093e-39 324 249
0.0066538998 0.759 -0.01197702 9.4741593e-39 325 249
0.0079846792 0.759 -0.01197702 9.6599757e-39 326 249
0.0093400059 0.76099998 -0.012008579 9.7521727e-39 327 249
0.01068832 0.76200002 -0.01202436 1.0119513e-38 328 249
0.01202436 0.76200002 -0.01202436 1.0119513e-38 329 249
0.013395466 0.764 -0.01205592 1.048722e-38 330 249
0.014735013 0.764 -0.01205592 1.0763446e-38 331 249
0.016116638 0.76599997 -0.012087479 1.0489385e-38 332 249
0.017482487 0.76700002 -0.01210326 1.0950361e-38 333 249
0.018876385 0.76899999 -0.012134819 1.049335e-38 334 249
0.0202247 0.76899999 -0.012134819 1.0954328e-38 335 249
0.021573013 0.76899999 -0.012134819 1.0588082e-38 336 249
-0.04885488 0.77399999 -0.013570799 1.5760025e-38 284 250
-0.047436431 0.773 -0.013553266 1.124244e-38 285 250
-0.045842651 0.76899999 -0.013483133 1.2058501e-38 286 250
-0.044494338 0.76899999 -0.013483133 1.2058501e-38 287 250
-0.043033812 0.76700002 -0.013448066 1.214817e-38 288 250
-0.041689005 0.76700002 -0.013448066 1.1871223e-38 289 250
-0.040344197 0.76700002 -0.013448066 1.1410602e-38 290 250
-0.038948543 0.76599997 -0.013430533 1.1318405e-38 291 250
-0.037605491 0.76599997 -0.013430533 1.1134011e-38 292 250
-0.036167759 0.764 -0.013395466 1.0949261e-38 293 250
-0.034737039 0.76200002 -0.0133604 1.0765233e-38 294 250
-0.033401001 0.76200002 -0.0133604 1.0488286e-38 295 250
-0.032022879 0.76099998 -0.013342866 1.0212425e-38 296 250
-0.030688593 0.76099998 -0.013342866 1.0212425e-38 297 250
-0.029354304 0.76099998 -0.013342866 1.002876e-38 298 250
-0.027946379 0.759 -0.0133078 1.002876e-38 299 250
-0.026615599 0.759 -0.0133078 1.0212072e-38 300 250
-0.025284819 0.759 -0.0133078 1.0119876e-38 301 250
-0.023954039 0.759 -0.0133078 9.8443711e-39 302 250
-0.02262326 0.759 -0.0133078 9.7518168e-39 303 250
-0.02129248 0.759 -0.0133078 9.5685073e-39 304 250
-0.0199617 0.759 -0.0133078 9.7525384e-39 305 250
-0.01863092 0.759 -0.0133078 9.9365668e-39 306 250
-0.017300138 0.759 -0.0133078 9.9365668e-39 307 250
-0.015927281 0.75700003 -0.013272733 9.661419e-39 308 250
-0.014561433 0.755 -0.013237666 9.661419e-39 309 250
-0.013237666 0.755 -0.013237666 9.38663e-39 310 250
-0.011913899 0.755 -0.013237666 9.38663e-39 311 250
-0.010590133 0.755 -0.013237666 9.3859139e-39 312 250
-0.0092909131 0.75700003 -0.013272733 9.2011625e-39 313 250
-0.0079636406 0.75700003 -0.013272733 9.4763047e-39 314 250
-0.0066363667 0.75700003 -0.013272733 9.4763047e-39 315 250
-0.0053090933 0.75700003 -0.013272733 9.4755816e-39 316 250
-0.0039923396 0.759 -0.0133078 9.2911918e-39 317 250
-0.0026685731 0.76099998 -0.013342866 9.1071662e-39 318 250
-0.0013342865 0.76099998 -0.013342866 8.9231351e-39 319 250
0 0.759 -0.0133078 8.8316583e-39 320 250
0.00133078 0.759 -0.0133078 8.7394613e-39 321 250
0.00266156 0.759 -0.0133078 8.7383865e-39 322 250
0.0039923396 0.759 -0.0133078 8.7383865e-39 323 250
0.0053231199 0.759 -0.0133078 9.106453e-39 324 250
0.0066538998 0.759 -0.0133078 9.1986486e-39 325 250
0.0080057196 0.76099998 -0.013342866 9.2911974e-39 326 250
0.0093400059 0.76099998 -0.013342866 9.4752285e-39 327 250
0.01068832 0.76200002 -0.0133604 9.5667081e-39 328 250
0.01202436 0.76200002 -0.0133604 9.5667081e-39 329 250
0.013395466 0.764 -0.013395466 9.8436621e-39 330 250
0.014773586 0.76599997 -0.013430533 1.0028412e-38 331 250
0.01613768 0.76700002 -0.013448066 1.0397555e-38 332 250
0.017482487 0.76700002 -0.013448066 1.0858893e-38 333 250
0.018876385 0.76899999 -0.013483133 1.0586268e-38 334 250
0.0202247 0.76899999 -0.013483133 1.1047246e-38 335 250
0.021573013 0.76899999 -0.013483133 1.0497687e-38 336 250
-0.04885488 0.77399999 -0.014927879 1.6037701e-38 284 251
-0.047436431 0.773 -0.014908593 1.1151693e-38 285 251
-0.045961879 0.77100003 -0.01487002 1.1691893e-38 286 251
-0.044610061 0.77100003 -0.01487002 1.2060316e-38 287 251
-0.043146025 0.76899999 -0.014831445 1.1963789e-38 288 251
-0.041689005 0.76700002 -0.014792874 1.1595365e-38 289 251
-0.040344197 0.76700002 -0.014792874 1.1501715e-38 290 251
-0.038948543 0.76599997 -0.014773586 1.1225488e-38 291 251
-0.037605491 0.76599997 -0.014773586 1.0949617e-38 292 251
-0.036167759 0.764 -0.014735013 1.0765586e-38 293 251
-0.034737039 0.76200002 -0.01469644 1.0580838e-38 294 251
-0.033401001 0.76200002 -0.01469644 1.0396446e-38 295 251
-0.032022879 0.76099998 -0.014677152 9.8454375e-39 296 251
-0.030688593 0.76099998 -0.014677152 9.8454375e-39 297 251
-0.029354304 0.76099998 -0.014677152 9.7528888e-39 298 251
-0.027946379 0.759 -0.014638579 9.7528888e-39 299 251
-0.026615599 0.759 -0.014638579 9.7525356e-39 300 251
-0.025284819 0.759 -0.014638579 9.5685045e-39 301 251
-0.023954039 0.759 -0.014638579 9.2011625e-39 302 251
-0.02262326 0.759 -0.014638579 9.2933596e-39 303 251
-0.02129248 0.759 -0.014638579 9.2933596e-39 304 251
-0.020014299 0.76099998 -0.014677152 9.2933596e-39 305 251
-0.01863092 0.759 -0.014638579 9.7525356e-39 306 251
-0.017300138 0.759 -0.014638579 9.8447313e-39 307 251
-0.015927281 0.75700003 -0.014600007 9.3866328e-39 308 251
-0.014561433 0.755 -0.014561433 9.3866328e-39 309 251
-0.013237666 0.755 -0.014561433 9.111485e-39 310 251
-0.011913899 0.755 -0.014561433 9.0192894e-39 311 251
-0.010590133 0.755 -0.014561433 9.0178503e-39 312 251
-0.0092909131 0.75700003 -0.014600007 9.0178503e-39 313 251
-0.0079636406 0.75700003 -0.014600007 9.200794e-39 314 251
-0.0066363667 0.75700003 -0.014600007 9.200794e-39 315 251
-0.0053090933 0.75700003 -0.014600007 9.2919106e-39 316 251
-0.0039923396 0.759 -0.014638579 9.1075194e-39 317 251
-0.0026685731 0.76099998 -0.014677152 9.0142531e-39 318 251
-0.0013342865 0.76099998 -0.014677152 9.1064502e-39 319 251
0 0.76099998 -0.014677152 8.6479902e-39 320 251
0.0013342865 0.76099998 -0.014677152 8.4635975e-39 321 251
0.0026685731 0.76099998 -0.014677152 8.7383865e-39 322 251
0.0040028598 0.76099998 -0.014677152 8.7383865e-39 323 251
0.0053371461 0.76099998 -0.014677152 8.7391054e-39 324 251
0.0066714329 0.76099998 -0.014677152 8.9238568e-39 325 251
0.0080057196 0.76099998 -0.014677152 9.0160496e-39 326 251
0.0093400059 0.76099998 -0.014677152 9.0160496e-39 327 251
0.01068832 0.76200002 -0.01469644 8.9238568e-39 328 251
0.01205592 0.764 -0.014735013 8.9238568e-39 329 251
0.013395466 0.764 -0.014735013 9.3837615e-39 330 251
0.014773586 0.76599997 -0.014773586 9.844381e-39 331 251
0.01613768 0.76700002 -0.014792874 1.0397558e-38 332 251
0.017482487 0.76700002 -0.014792874 1.0858896e-38 333 251
0.018876385 0.76899999 -0.014831445 1.058627e-38 334 251
0.0202247 0.76899999 -0.014831445 1.1139085e-38 335 251
0.021573013 0.76899999 -0.014831445 1.0592048e-38 336 251
-0.04885488 0.77399999 -0.016284959 1.6131349e-38 284 252
-0.047436431 0.773 -0.016263919 1.1429013e-38 285 252
-0.045961879 0.77100003 -0.016221842 1.178661e-38 286 252
-0.044610061 0.77100003 -0.016221842 1.1325632e-38 287 252
-0.043146025 0.76899999 -0.016179759 1.1780474e-38 288 252
-0.041689005 0.76700002 -0.01613768 1.12273e-38 289 252
-0.040344197 0.76700002 -0.01613768 1.094999e-38 290 252
-0.038999394 0.76700002 -0.01613768 1.0673403e-38 291 252
-0.037654586 0.76700002 -0.01613768 1.0121674e-38 292 252
-0.036262438 0.76599997 -0.016116638 1.0029478e-38 293 252
-0.034828212 0.764 -0.016074561 9.7539678e-39 294 252
-0.033488665 0.764 -0.016074561 9.6617721e-39 295 252
-0.032022879 0.76099998 -0.016011439 9.7528888e-39 296 252
-0.030688593 0.76099998 -0.016011439 9.7528888e-39 297 252
-0.029354304 0.76099998 -0.016011439 9.4770278e-39 298 252
-0.027946379 0.759 -0.015969358 9.3848307e-39 299 252
-0.026615599 0.759 -0.015969358 9.2011625e-39 300 252
-0.025284819 0.759 -0.015969358 9.2011625e-39 301 252
-0.023954039 0.759 -0.015969358 9.2015157e-39 302 252
-0.02262326 0.759 -0.015969358 9.2937127e-39 303 252
-0.02129248 0.759 -0.015969358 9.3862643e-39 304 252
-0.0199617 0.759 -0.015969358 9.3862643e-39 305 252
-0.01863092 0.759 -0.015969358 9.662491e-39 306 252
-0.017300138 0.759 -0.015969358 9.662491e-39 307 252
-0.015927281 0.75700003 -0.015927281 9.6624938e-39 308 252
-0.014561433 0.755 -0.015885198 9.6624938e-39 309 252
-0.013237666 0.755 -0.015885198 9.2033177e-39 310 252
-0.01194546 0.75700003 -0.015927281 9.1111221e-39 311 252
-0.010618187 0.75700003 -0.015927281 8.9260176e-39 312 252
-0.0092909131 0.75700003 -0.015927281 8.833822e-39 313 252
-0.0079636406 0.75700003 -0.015927281 9.0167713e-39 314 252
-0.0066363667 0.75700003 -0.015927281 8.9245756e-39 315 252
-0.0053231199 0.759 -0.015969358 9.0160524e-39 316 252
-0.0039923396 0.759 -0.015969358 8.9238568e-39 317 252
-0.0026685731 0.76099998 -0.016011439 8.8313052e-39 318 252
-0.0013342865 0.76099998 -0.016011439 8.5550771e-39 319 252
0 0.76099998 -0.016011439 8.4636003e-39 320 252
0.0013342865 0.76099998 -0.016011439 8.4636003e-39 321 252
0.0026685731 0.76099998 -0.016011439 8.3710487e-39 322 252
0.0040028598 0.76099998 -0.016011439 8.4632444e-39 323 252
0.0053371461 0.76099998 -0.016011439 8.1884525e-39 324 252
0.0066714329 0.76099998 -0.016011439 8.3732039e-39 325 252
0.0080057196 0.76099998 -0.016011439 8.648709e-39 326 252
0.0093522798 0.76200002 -0.01603248 8.5565134e-39 327 252
0.01068832 0.76200002 -0.01603248 8.2799321e-39 328 252
0.012087479 0.76599997 -0.016116638 8.3721277e-39 329 252
0.013430533 0.76599997 -0.016116638 8.8334744e-39 330 252
0.014792874 0.76700002 -0.01613768 9.1100627e-39 331 252
0.01613768 0.76700002 -0.01613768 1.0214255e-38 332 252
0.017528072 0.76899999 -0.016179759 1.0491201e-38 333 252
0.018876385 0.76899999 -0.016179759 1.0770663e-38 334 252
0.0202247 0.76899999 -0.016179759 1.1416032e-38 335 252
-0.04885488 0.77399999 -0.01764204 1.6133146e-38 284 253
-0.047436431 0.773 -0.017619247 1.1707396e-38 285 253
-0.045961879 0.77100003 -0.01757366 1.1604011e-38 286 253
-0.04437862 0.76700002 -0.017482487 1.012888e-38 287 253
-0.043033812 0.76700002 -0.017482487 1.150353e-38 288 253
-0.041689005 0.76700002 -0.017482487 1.0950714e-38 289 253
-0.040344197 0.76700002 -0.017482487 1.0396469e-38 290 253
-0.038999394 0.76700002 -0.017482487 1.0027327e-38 291 253
-0.037654586 0.76700002 -0.017482487 9.9344116e-39 292 253
-0.036309779 0.76700002 -0.017482487 1.0026609e-38 293 253
-0.034919381 0.76599997 -0.017459691 9.7521727e-39 294 253
-0.033576332 0.76599997 -0.017459691 9.7521727e-39 295 253
-0.032064959 0.76200002 -0.01736852 9.6596197e-39 296 253
-0.030688593 0.76099998 -0.017345725 9.5674241e-39 297 253
-0.029354304 0.76099998 -0.017345725 9.3848279e-39 298 253
-0.027946379 0.759 -0.017300138 9.2007968e-39 299 253
-0.026615599 0.759 -0.017300138 9.4755816e-39 300 253
-0.025284819 0.759 -0.017300138 9.5677772e-39 301 253
-0.023954039 0.759 -0.017300138 9.3851839e-39 302 253
-0.02262326 0.759 -0.017300138 9.4773809e-39 303 253
-0.02129248 0.759 -0.017300138 9.2937127e-39 304 253
-0.0199617 0.759 -0.017300138 9.5702982e-39 305 253
-0.01863092 0.759 -0.017300138 9.4788228e-39 306 253
-0.017300138 0.759 -0.017300138 9.4788228e-39 307 253
-0.015927281 0.75700003 -0.017254554 9.6621379e-39 308 253
-0.014561433 0.755 -0.017208965 9.5699423e-39 309 253
-0.013237666 0.755 -0.017208965 9.294084e-39 310 253
-0.01194546 0.75700003 -0.017254554 9.2015297e-39 311 253
-0.010618187 0.75700003 -0.017254554 8.9253015e-39 312 253
-0.0092909131 0.75700003 -0.017254554 9.0174971e-39 313 253
-0.0079636406 0.75700003 -0.017254554 9.1071662e-39 314 253
-0.0066538998 0.759 -0.017300138 8.8309381e-39 315 253
-0.0053231199 0.759 -0.017300138 8.9213358e-39 316 253
-0.0039923396 0.759 -0.017300138 8.9213358e-39 317 253
-0.0026685731 0.76099998 -0.017345725 8.5550743e-39 318 253
-0.0013342865 0.76099998 -0.017345725 8.4628786e-39 319 253
0 0.76099998 -0.017345725 8.5539953e-39 320 253
0.0013342865 0.76099998 -0.017345725 8.5539953e-39 321 253
0.0026685731 0.76099998 -0.017345725 8.2781342e-39 322 253
0.0040028598 0.76099998 -0.017345725 8.1859386e-39 323 253
0.0053371461 0.76099998 -0.017345725 8.2777811e-39 324 253
0.0066801999 0.76200002 -0.01736852 8.3699767e-39 325 253
0.0080162399 0.76200002 -0.01736852 8.4625283e-39 326 253
0.0093522798 0.76200002 -0.01736852 8.4625283e-39 327 253
0.010716373 0.764 -0.017414106 8.3703299e-39 328 253
0.012087479 0.76599997 -0.017459691 8.739111e-39 329 253
0.013448066 0.76700002 -0.017482487 8.9242253e-39 330 253
0.014792874 0.76700002 -0.017482487 9.5695947e-39 331 253
0.01613768 0.76700002 -0.017482487 1.0213892e-38 332 253
0.017528072 0.76899999 -0.017528072 1.0951457e-38 333 253
0.018925481 0.77100003 -0.01757366 1.067883e-38 334 253
-0.04885488 0.77399999 -0.018999118 1.6133865e-38 284 254
-0.047436431 0.773 -0.018974574 1.2814823e-38 285 254
-0.045961879 0.77100003 -0.018925481 1.1974221e-38 286 254
-0.04437862 0.76700002 -0.018827293 9.7615264e-39 287 254
-0.043033812 0.76700002 -0.018827293 1.0494404e-38 288 254
-0.041689005 0.76700002 -0.018827293 9.9412303e-39 289 254
-0.040344197 0.76700002 -0.018827293 9.846169e-39 290 254
-0.038999394 0.76700002 -0.018827293 9.4770278e-39 291 254
-0.037654586 0.76700002 -0.018827293 8.9252987e-39 292 254
-0.036309779 0.76700002 -0.018827293 9.0178531e-39 293 254
-0.034919381 0.76599997 -0.018802745 8.8338248e-39 294 254
-0.033576332 0.76599997 -0.018802745 8.7416291e-39 295 254
-0.032149121 0.764 -0.018753653 8.7409075e-39 296 254
-0.030688593 0.76099998 -0.018680012 8.8331031e-39 297 254
-0.029354304 0.76099998 -0.018680012 8.8334534e-39 298 254
-0.027946379 0.759 -0.01863092 8.8334534e-39 299 254
-0.026615599 0.759 -0.01863092 8.926005e-39 300 254
-0.025284819 0.759 -0.01863092 8.926005e-39 301 254
-0.023954039 0.759 -0.01863092 9.2015129e-39 302 254
-0.02262326 0.759 -0.01863092 9.2940686e-39 303 254
-0.02129248 0.759 -0.01863092 9.2937127e-39 304 254
-0.020014299 0.76099998 -0.018680012 9.5702982e-39 305 254
-0.01863092 0.759 -0.01863092 9.3866328e-39 306 254
-0.017300138 0.759 -0.01863092 9.2940784e-39 307 254
-0.015969358 0.759 -0.01863092 9.294084e-39 308 254
-0.014600007 0.75700003 -0.018581826 9.294084e-39 309 254
-0.013272733 0.75700003 -0.018581826 9.0182202e-39 310 254
-0.01194546 0.75700003 -0.018581826 9.0182202e-39 311 254
-0.010618187 0.75700003 -0.018581826 8.9256518e-39 312 254
-0.00931546 0.759 -0.01863092 8.8334562e-39 313 254
-0.0079846792 0.759 -0.01863092 8.923854e-39 314 254
-0.0066538998 0.759 -0.01863092 8.4628758e-39 315 254
-0.0053371461 0.76099998 -0.018680012 8.4625255e-39 316 254
-0.0040028598 0.76099998 -0.018680012 8.3703299e-39 317 254
-0.0026685731 0.76099998 -0.018680012 8.0944689e-39 318 254
-0.0013342865 0.76099998 -0.018680012 8.0022732e-39 319 254
0 0.76099998 -0.018680012 7.6349354e-39 320 254
0.0013342865 0.76099998 -0.018680012 7.5423797e-39 321 254
0.0026685731 0.76099998 -0.018680012 6.9910136e-39 322 254
0.0040028598 0.76099998 -0.018680012 6.9910136e-39 323 254
0.0053441599 0.76200002 -0.01870456 6.8991781e-39 324 254
0.0066801999 0.76200002 -0.01870456 7.1761251e-39 325 254
0.0080162399 0.76200002 -0.01870456 7.5438188e-39 326 254
0.0093522798 0.76200002 -0.01870456 7.8200456e-39 327 254
0.010744425 0.76599997 -0.018802745 8.3706956e-39 328 254
0.01210326 0.76700002 -0.018827293 8.5554456e-39 329 254
0.013448066 0.76700002 -0.018827293 8.4664912e-39 330 254
0.014831445 0.76899999 -0.018876385 9.019665e-39 331 254
0.016179759 0.76899999 -0.018876385 9.8479963e-39 332 254
0.017528072 0.76899999 -0.018876385 1.040117e-38 333 254
0.018925481 0.77100003 -0.018925481 1.0773197e-38 334 254
-0.047436431 0.773 -0.0203299 1.4104492e-38 285 255
-0.046081103 0.773 -0.0203299 1.3175298e-38 286 255
-0.044610061 0.77100003 -0.020277301 9.6722244e-39 287 255
-0.043258239 0.77100003 -0.020277301 1.0311104e-38 288 255
-0.04190642 0.77100003 -0.020277301 9.6660937e-39 289 255
-0.0404494 0.76899999 -0.0202247 9.3869985e-39 290 255
-0.039101087 0.76899999 -0.0202247 9.110413e-39 291 255
-0.03775277 0.76899999 -0.0202247 8.7430613e-39 292 255
-0.036309779 0.76700002 -0.020172099 8.6508656e-39 293 255
-0.034919381 0.76599997 -0.020145798 8.7419823e-39 294 255
-0.033576332 0.76599997 -0.020145798 8.4653968e-39 295 255
-0.032149121 0.764 -0.020093199 8.6479902e-39 296 255
-0.030688593 0.76099998 -0.020014299 8.6479902e-39 297 255
-0.029354304 0.76099998 -0.020014299 8.6490622e-39 298 255
-0.028020019 0.76099998 -0.020014299 8.7412578e-39 299 255
-0.026685731 0.76099998 -0.020014299 8.8338065e-39 300 255
-0.025351444 0.76099998 -0.020014299 8.8338065e-39 301 255
-0.023954039 0.759 -0.0199617 9.2015129e-39 302 255
-0.02262326 0.759 -0.0199617 9.2015129e-39 303 255
-0.02129248 0.759 -0.0199617 9.2937155e-39 304 255
-0.020014299 0.76099998 -0.020014299 9.2015185e-39 305 255
-0.018680012 0.76099998 -0.020014299 9.2933624e-39 306 255
-0.017345725 0.76099998 -0.020014299 9.1089697e-39 307 255
-0.015969358 0.759 -0.0199617 9.0164181e-39 308 255
-0.014600007 0.75700003 -0.019909101 9.1086138e-39 309 255
-0.013272733 0.75700003 -0.019909101 8.8338248e-39 310 255
-0.01197702 0.759 -0.0199617 8.8338248e-39 311 255
-0.01064624 0.759 -0.0199617 8.7416291e-39 312 255
-0.00931546 0.759 -0.0199617 8.557598e-39 313 255
-0.0079846792 0.759 -0.0199617 8.8313052e-39 314 255
-0.0066538998 0.759 -0.0199617 8.4628814e-39 315 255
-0.0053371461 0.76099998 -0.020014299 8.4618024e-39 316 255
-0.0040028598 0.76099998 -0.020014299 8.2774126e-39 317 255
-0.0026685731 0.76099998 -0.020014299 8.0933899e-39 318 255
-0.0013342865 0.76099998 -0.020014299 7.7246073e-39 319 255
0 0.76099998 -0.020014299 7.4494652e-39 320 255
0.0013342865 0.76099998 -0.020014299 7.3572696e-39 321 255
0.0026685731 0.76099998 -0.020014299 6.8980963e-39 322 255
0.0040081199 0.76200002 -0.0200406 6.8980963e-39 323 255
0.0053441599 0.76200002 -0.0200406 6.8988151e-39 324 255
0.0066801999 0.76200002 -0.0200406 7.0832064e-39 325 255
0.0080372803 0.764 -0.020093199 7.4516204e-39 326 255
0.0094013726 0.76599997 -0.020145798 7.7278471e-39 327 255
0.010758453 0.76700002 -0.020172099 8.1877393e-39 328 255
0.012134819 0.76899999 -0.0202247 8.6483587e-39 329 255
0.013483133 0.76899999 -0.0202247 8.834908e-39 330 255
0.014831445 0.76899999 -0.0202247 9.3877216e-39 331 255
0.016179759 0.76899999 -0.0202247 9.9405479e-39 332 255
0.01757366 0.77100003 -0.020277301 1.077031e-38 333 255
0.018925481 0.77100003 -0.020277301 1.059025e-38 334 255
-0.047436431 0.773 -0.021685226 1.4565833e-38 285 256
-0.046081103 0.773 -0.021685226 1.4189823e-38 286 256
-0.044610061 0.77100003 -0.021629119 1.0317606e-38 287 256
-0.043258239 0.77100003 -0.021629119 1.0127082e-38 288 256
-0.042015124 0.773 -0.021685226 9.0207341e-39 289 256
-0.0406598 0.773 -0.021685226 8.6533936e-39 290 256
-0.039101087 0.76899999 -0.021573013 8.4693624e-39 291 256
-0.03775277 0.76899999 -0.021573013 8.4679191e-39 292 256
-0.036404461 0.76899999 -0.021573013 8.2831691e-39 293 256
-0.034964975 0.76700002 -0.021516906 8.3735697e-39 294 256
-0.033620168 0.76700002 -0.021516906 8.0973415e-39 295 256
-0.032233275 0.76599997 -0.021488851 8.279579e-39 296 256
-0.030809574 0.764 -0.021432746 8.279579e-39 297 256
-0.029354304 0.76099998 -0.021348584 8.1884525e-39 298 256
-0.028020019 0.76099998 -0.021348584 8.4653996e-39 299 256
-0.026685731 0.76099998 -0.021348584 8.7412578e-39 300 256
-0.025351444 0.76099998 -0.021348584 8.8334534e-39 301 256
-0.023954039 0.759 -0.02129248 9.0167685e-39 302 256
-0.02262326 0.759 -0.02129248 9.0167685e-39 303 256
-0.021348584 0.76099998 -0.021348584 9.1082508e-39 304 256
-0.020014299 0.76099998 -0.021348584 9.1082508e-39 305 256
-0.018680012 0.76099998 -0.021348584 8.9242225e-39 306 256
-0.017345725 0.76099998 -0.021348584 8.7401914e-39 307 256
-0.015969358 0.759 -0.02129248 8.5558099e-39 308 256
-0.014638579 0.759 -0.02129248 8.5558099e-39 309 256
-0.0133078 0.759 -0.02129248 8.3725005e-39 310 256
-0.01197702 0.759 -0.02129248 8.3725005e-39 311 256
-0.01064624 0.759 -0.02129248 8.6476426e-39 312 256
-0.00931546 0.759 -0.02129248 8.5554456e-39 313 256
-0.0079846792 0.759 -0.02129248 8.6458406e-39 314 256
-0.0066714329 0.76099998 -0.021348584 8.5536449e-39 315 256
-0.0053371461 0.76099998 -0.021348584 8.4614493e-39 316 256
-0.0040028598 0.76099998 -0.021348584 8.1848624e-39 317 256
-0.0026685731 0.76099998 -0.021348584 7.6345655e-39 318 256
-0.0013342865 0.76099998 -0.021348584 7.5423699e-39 319 256
0 0.76099998 -0.021348584 6.8998843e-39 320 256
0.0013342865 0.76099998 -0.021348584 6.6236576e-39 321 256
0.00267208 0.76200002 -0.02137664 6.5314718e-39 322 256
0.0040081199 0.76200002 -0.02137664 6.4392761e-39 323 256
0.0053441599 0.76200002 -0.02137664 6.3481623e-39 324 256
0.006697733 0.764 -0.021432746 6.5325536e-39 325 256
0.0080372803 0.764 -0.021432746 7.3597905e-39 326 256
0.0094013726 0.76599997 -0.021488851 7.728573e-39 327 256
0.010758453 0.76700002 -0.021516906 8.3728508e-39 328 256
0.012134819 0.76899999 -0.021573013 8.7412732e-39 329 256
0.013483133 0.76899999 -0.021573013 8.9278225e-39 330 256
0.014831445 0.76899999 -0.021573013 9.4809962e-39 331 256
0.016179759 0.76899999 -0.021573013 1.0033464e-38 332 256
0.01757366 0.77100003 -0.021629119 1.0771029e-38 333 256
0.018925481 0.77100003 -0.021629119 1.0408736e-38 334 256
-0.047436431 0.773 -0.023040552 1.4750227e-38 285 257
-0.046081103 0.773 -0.023040552 1.4744444e-38 286 257
-0.044725779 0.773 -0.023040552 1.1517597e-38 287 257
-0.043370452 0.773 -0.023040552 1.1049044e-38 288 257
-0.042015124 0.773 -0.023040552 9.297328e-39 289 257
-0.0406598 0.773 -0.023040552 8.5622769e-39 290 257
-0.03920278 0.77100003 -0.02298094 8.4700813e-39 291 257
-0.03775277 0.76899999 -0.022921326 8.7434284e-39 292 257
-0.036404461 0.76899999 -0.022921326 8.3746459e-39 293 257
-0.034964975 0.76700002 -0.022861714 8.3739228e-39 294 257
-0.033620168 0.76700002 -0.022861714 8.0973359e-39 295 257
-0.032233275 0.76599997 -0.022831906 8.1884553e-39 296 257
-0.030890226 0.76599997 -0.022831906 7.9122286e-39 297 257
-0.029470026 0.764 -0.022772292 8.0959038e-39 298 257
-0.028020019 0.76099998 -0.022682872 8.2806538e-39 299 257
-0.026685731 0.76099998 -0.022682872 8.4653968e-39 300 257
-0.025351444 0.76099998 -0.022682872 8.4653968e-39 301 257
-0.024017159 0.76099998 -0.022682872 8.9238568e-39 302 257
-0.022682872 0.76099998 -0.022682872 8.8316612e-39 303 257
-0.021348584 0.76099998 -0.022682872 8.739111e-39 304 257
-0.0200406 0.76200002 -0.02271268 8.831308e-39 305 257
-0.01870456 0.76200002 -0.02271268 8.3721305e-39 306 257
-0.01736852 0.76200002 -0.02271268 8.1877393e-39 307 257
-0.016011439 0.76099998 -0.022682872 8.2781469e-39 308 257
-0.014677152 0.76099998 -0.022682872 8.0941157e-39 309 257
-0.013342866 0.76099998 -0.022682872 8.0026418e-39 310 257
-0.012008579 0.76099998 -0.022682872 8.0948374e-39 311 257
-0.010674292 0.76099998 -0.022682872 8.3706984e-39 312 257
-0.0093400059 0.76099998 -0.022682872 8.3706984e-39 313 257
-0.0080057196 0.76099998 -0.022682872 8.0026362e-39 314 257
-0.0066714329 0.76099998 -0.022682872 7.9104405e-39 315 257
-0.0053371461 0.76099998 -0.022682872 7.9100776e-39 316 257
-0.0040028598 0.76099998 -0.022682872 7.9100776e-39 317 257
-0.0026685731 0.76099998 -0.022682872 7.6345627e-39 318 257
-0.0013342865 0.76099998 -0.022682872 7.6345627e-39 319 257
0 0.76099998 -0.022682872 6.9924331e-39 320 257
0.00133604 0.76200002 -0.02271268 6.9002375e-39 321 257
0.00267208 0.76200002 -0.02271268 6.7158532e-39 322 257
0.0040081199 0.76200002 -0.02271268 6.7158532e-39 323 257
0.0053441599 0.76200002 -0.02271268 6.6240233e-39 324 257
0.006697733 0.764 -0.022772292 6.7162189e-39 325 257
0.0080583189 0.76599997 -0.022831906 6.993882e-39 326 257
0.0094136465 0.76700002 -0.022861714 7.5470558e-39 327 257
0.010758453 0.76700002 -0.022861714 8.2831719e-39 328 257
0.012134819 0.76899999 -0.022921326 8.5597602e-39 329 257
0.013483133 0.76899999 -0.022921326 9.0207398e-39 330 257
0.01487002 0.77100003 -0.02298094 9.5735548e-39 331 257
0.016221842 0.77100003 -0.02298094 1.0126381e-38 332 257
0.01757366 0.77100003 -0.02298094 1.0956142e-38 333 257
0.018974574 0.773 -0.023040552 1.0223989e-38 334 257
-0.046081103 0.773 -0.024395877 1.4653695e-38 286 258
-0.044725779 0.773 -0.024395877 1.2625391e-38 287 258
-0.043370452 0.773 -0.024395877 1.23405e-38 288 258
-0.042015124 0.773 -0.024395877 1.0035968e-38 289 258
-0.0406598 0.773 -0.024395877 9.0254089e-39 290 258
-0.039304473 0.773 -0.024395877 8.5644321e-39 291 258
-0.037850961 0.77100003 -0.02433276 8.7448731e-39 292 258
-0.036404461 0.76899999 -0.024269639 8.4682862e-39 293 258
-0.035056144 0.76899999 -0.024269639 8.1005729e-39 294 258
-0.033620168 0.76700002 -0.024206521 7.8243462e-39 295 258
-0.032233275 0.76599997 -0.024174958 7.8221938e-39 296 258
-0.030890226 0.76599997 -0.024174958 7.6378025e-39 297 258
-0.029470026 0.764 -0.024111839 7.9125943e-39 298 258
-0.028020019 0.76099998 -0.024017159 8.00479e-39 299 258
-0.026685731 0.76099998 -0.024017159 8.280651e-39 300 258
-0.025351444 0.76099998 -0.024017159 8.372848e-39 301 258
-0.024017159 0.76099998 -0.024017159 8.5557959e-39 302 258
-0.022682872 0.76099998 -0.024017159 8.4636003e-39 303 258
-0.021348584 0.76099998 -0.024017159 8.4636003e-39 304 258
-0.0200406 0.76200002 -0.02404872 8.3714047e-39 305 258
-0.01870456 0.76200002 -0.02404872 8.0955409e-39 306 258
-0.01736852 0.76200002 -0.02404872 7.9107909e-39 307 258
-0.01603248 0.76200002 -0.02404872 7.9097245e-39 308 258
-0.01469644 0.76200002 -0.02404872 7.8175274e-39 309 258
-0.0133604 0.76200002 -0.02404872 7.7260563e-39 310 258
-0.012008579 0.76099998 -0.024017159 8.0026418e-39 311 258
-0.010674292 0.76099998 -0.024017159 7.7278471e-39 312 258
-0.0093400059 0.76099998 -0.024017159 7.7278471e-39 313 258
-0.0080057196 0.76099998 -0.024017159 7.7267653e-39 314 258
-0.0066714329 0.76099998 -0.024017159 7.6342096e-39 315 258
-0.0053371461 0.76099998 -0.024017159 8.0011928e-39 316 258
-0.0040028598 0.76099998 -0.024017159 8.0011928e-39 317 258
-0.00267208 0.76200002 -0.02404872 7.7267611e-39 318 258
-0.00133604 0.76200002 -0.02404872 7.7267611e-39 319 258
0 0.76200002 -0.02404872 7.1768244e-39 320 258
0.00133604 0.76200002 -0.02404872 7.0846287e-39 321 258
0.00267208 0.76200002 -0.02404872 6.9913639e-39 322 258
0.0040081199 0.76200002 -0.02404872 6.9913639e-39 323 258
0.0053581866 0.764 -0.024111839 6.5325508e-39 324 258
0.0067152665 0.76599997 -0.024174958 6.9013333e-39 325 258
0.00806884 0.76700002 -0.024206521 7.3619415e-39 326 258
0.0094381925 0.76899999 -0.024269639 7.8225609e-39 327 258
0.010786506 0.76899999 -0.024269639 8.4675632e-39 328 258
0.012134819 0.76899999 -0.024269639 8.8363457e-39 329 258
0.013518199 0.77100003 -0.02433276 9.2047765e-39 330 258
0.01487002 0.77100003 -0.02433276 9.6657532e-39 331 258
0.016221842 0.77100003 -0.02433276 1.0218577e-38 332 258
0.01757366 0.77100003 -0.02433276 1.0956142e-38 333 258
-0.04190642 0.77100003 -0.02568458 1.0867165e-38 289 259
-0.040554602 0.77100003 -0.02568458 1.0311813e-38 290 259
-0.03920278 0.77100003 -0.02568458 9.4816941e-39 291 259
-0.037850961 0.77100003 -0.02568458 9.3895013e-39 292 259
-0.036499143 0.77100003 -0.02568458 9.0207187e-39 293 259
-0.035056144 0.76899999 -0.025617953 8.8377526e-39 294 259
-0.033707831 0.76899999 -0.025617953 8.4689701e-39 295 259
-0.03227536 0.76700002 -0.025551327 8.466466e-39 296 259
-0.030890226 0.76599997 -0.025518013 8.1902392e-39 297 259
-0.029470026 0.764 -0.025451386 8.0973387e-39 298 259
-0.028056841 0.76200002 -0.02538476 8.0973387e-39 299 259
-0.026685731 0.76099998 -0.025351444 8.0973387e-39 300 259
-0.025351444 0.76099998 -0.025351444 8.0973387e-39 301 259
-0.024017159 0.76099998 -0.025351444 8.0959038e-39 302 259
-0.022682872 0.76099998 -0.025351444 7.9118727e-39 303 259
-0.021348584 0.76099998 -0.025351444 7.7278443e-39 304 259
-0.0200406 0.76200002 -0.02538476 7.5438132e-39 305 259
-0.01870456 0.76200002 -0.02538476 7.3597877e-39 306 259
-0.01736852 0.76200002 -0.02538476 7.2675907e-39 307 259
-0.01603248 0.76200002 -0.02538476 7.0832036e-39 308 259
-0.01469644 0.76200002 -0.02538476 7.0832036e-39 309 259
-0.0133604 0.76200002 -0.02538476 7.2668718e-39 310 259
-0.012008579 0.76099998 -0.025351444 7.4512645e-39 311 259
-0.010674292 0.76099998 -0.025351444 7.6349326e-39 312 259
-0.0093522798 0.76200002 -0.02538476 7.5427356e-39 313 259
-0.0080162399 0.76200002 -0.02538476 7.5420167e-39 314 259
-0.0066801999 0.76200002 -0.02538476 7.5420167e-39 315 259
-0.0053441599 0.76200002 -0.02538476 7.2679438e-39 316 259
-0.0040081199 0.76200002 -0.02538476 7.3601408e-39 317 259
-0.00267208 0.76200002 -0.02538476 7.4526896e-39 318 259
-0.00133604 0.76200002 -0.02538476 7.4526896e-39 319 259
0 0.76200002 -0.02538476 7.4519721e-39 320 259
0.00133604 0.76200002 -0.02538476 7.3594177e-39 321 259
0.00267208 0.76200002 -0.02538476 7.3594234e-39 322 259
0.0040186401 0.764 -0.025451386 7.3594234e-39 323 259
0.0053581866 0.764 -0.025451386 6.9931632e-39 324 259
0.006724033 0.76700002 -0.025551327 7.1771943e-39 325 259
0.00806884 0.76700002 -0.025551327 7.1782705e-39 326 259
0.0094381925 0.76899999 -0.025617953 7.8236399e-39 327 259
0.010786506 0.76899999 -0.025617953 8.5604791e-39 328 259
0.01216638 0.77100003 -0.02568458 8.9296203e-39 329 259
0.013553266 0.773 -0.025751207 9.5735576e-39 330 259
0.01487002 0.77100003 -0.02568458 9.9427003e-39 331 259
0.016221842 0.77100003 -0.02568458 9.9452338e-39 332 259
-0.041797712 0.76899999 -0.026966266 1.1792742e-38 289 260
-0.0404494 0.76899999 -0.026966266 1.1877725e-38 290 260
-0.03920278 0.77100003 -0.027036399 1.0863575e-38 291 260
-0.037850961 0.77100003 -0.027036399 9.1201198e-39 292 260
-0.036499143 0.77100003 -0.027036399 8.5669461e-39 293 260
-0.035056144 0.76899999 -0.026966266 8.7484605e-39 294 260
-0.033707831 0.76899999 -0.026966266 8.1956454e-39 295 260
-0.03227536 0.76700002 -0.026896132 8.4682862e-39 296 260
-0.030890226 0.76599997 -0.026861066 8.0995037e-39 297 260
-0.029547172 0.76599997 -0.026861066 8.0073081e-39 298 260
-0.028130481 0.764 -0.026790932 8.0073081e-39 299 260
-0.0267208 0.76200002 -0.0267208 8.0969856e-39 300 260
-0.025351444 0.76099998 -0.026685731 8.00479e-39 301 260
-0.024017159 0.76099998 -0.026685731 7.8203987e-39 302 260
-0.022682872 0.76099998 -0.026685731 7.7278443e-39 303 260
-0.021348584 0.76099998 -0.026685731 7.4523393e-39 304 260
-0.0200406 0.76200002 -0.0267208 7.3601436e-39 305 260
-0.01870456 0.76200002 -0.0267208 7.1764754e-39 306 260
-0.01736852 0.76200002 -0.0267208 7.0842784e-39 307 260
-0.01603248 0.76200002 -0.0267208 6.9917268e-39 308 260
-0.01469644 0.76200002 -0.0267208 6.9917268e-39 309 260
-0.0133604 0.76200002 -0.0267208 7.0842784e-39 310 260
-0.01202436 0.76200002 -0.0267208 7.2686711e-39 311 260
-0.01068832 0.76200002 -0.0267208 7.4516204e-39 312 260
-0.0093522798 0.76200002 -0.0267208 7.3594234e-39 313 260
-0.0080162399 0.76200002 -0.0267208 7.2672249e-39 314 260
-0.0066801999 0.76200002 -0.0267208 7.3594206e-39 315 260
-0.0053441599 0.76200002 -0.0267208 6.9935093e-39 316 260
-0.0040081199 0.76200002 -0.0267208 7.1779006e-39 317 260
-0.00267208 0.76200002 -0.0267208 7.2700962e-39 318 260
-0.00133604 0.76200002 -0.0267208 7.1779006e-39 319 260
0 0.76200002 -0.0267208 7.543816e-39 320 260
0.00133604 0.76200002 -0.0267208 7.4516204e-39 321 260
0.0026790933 0.764 -0.026790932 7.3601436e-39 322 260
0.0040186401 0.764 -0.026790932 7.5445349e-39 323 260
0.0053722127 0.76599997 -0.026861066 6.9945981e-39 324 260
0.006724033 0.76700002 -0.026896132 7.1789894e-39 325 260
0.0080898795 0.76899999 -0.026966266 8.0065864e-39 326 260
0.0094381925 0.76899999 -0.026966266 8.4675632e-39 327 260
0.01081456 0.77100003 -0.027036399 8.8374219e-39 328 260
0.01216638 0.77100003 -0.027036399 9.2062044e-39 329 260
0.013553266 0.773 -0.027106533 9.758302e-39 330 260
0.01487002 0.77100003 -0.027036399 9.9426947e-39 331 260
0.016221842 0.77100003 -0.027036399 9.6693532e-39 332 260
-0.041797712 0.76899999 -0.028314579 1.1796359e-38 289 261
-0.0404494 0.76899999 -0.028314579 1.1882418e-38 290 261
-0.03920278 0.77100003 -0.028388219 1.0868265e-38 291 261
-0.037949149 0.773 -0.028461859 1.1049376e-38 292 261
-0.036593821 0.773 -0.028461859 1.0588037e-38 293 261
-0.035238493 0.773 -0.028461859 1.0493324e-38 294 261
-0.033795502 0.77100003 -0.028388219 9.9401513e-39 295 261
-0.032359518 0.76899999 -0.028314579 9.2036835e-39 296 261
-0.030930554 0.76700002 -0.02824094 9.0192922e-39 297 261
-0.029585747 0.76700002 -0.02824094 8.4671974e-39 298 261
-0.028204117 0.76599997 -0.028204117 8.2828062e-39 299 261
-0.026861066 0.76599997 -0.028204117 8.1902574e-39 300 261
-0.025451386 0.764 -0.028130481 8.005506e-39 301 261
-0.02404872 0.76200002 -0.028056841 7.9125943e-39 302 261
-0.02271268 0.76200002 -0.028056841 7.8203987e-39 303 261
-0.02137664 0.76200002 -0.028056841 7.3612198e-39 304 261
-0.0200406 0.76200002 -0.028056841 7.2690242e-39 305 261
-0.018753653 0.764 -0.028130481 7.1771915e-39 306 261
-0.017414106 0.764 -0.028130481 7.1771915e-39 307 261
-0.016074561 0.764 -0.028130481 7.1764726e-39 308 261
-0.014735013 0.764 -0.028130481 7.269027e-39 309 261
-0.013395466 0.764 -0.028130481 7.2686711e-39 310 261
-0.01205592 0.764 -0.028130481 7.2686711e-39 311 261
-0.010716373 0.764 -0.028130481 7.4512645e-39 312 261
-0.0093768267 0.764 -0.028130481 7.3590674e-39 313 261
-0.0080162399 0.76200002 -0.028056841 7.2679438e-39 314 261
-0.0066801999 0.76200002 -0.028056841 7.2679438e-39 315 261
-0.0053441599 0.76200002 -0.028056841 7.1771803e-39 316 261
-0.0040081199 0.76200002 -0.028056841 7.3615729e-39 317 261
-0.00267208 0.76200002 -0.028056841 7.5456041e-39 318 261
-0.00133604 0.76200002 -0.028056841 7.5456041e-39 319 261
0 0.76200002 -0.028056841 7.8203931e-39 320 261
0.0013395466 0.764 -0.028130481 7.8203931e-39 321 261
0.0026790933 0.764 -0.028130481 7.7296324e-39 322 261
0.0040291594 0.76599997 -0.028204117 8.0980562e-39 323 261
0.0053792265 0.76700002 -0.02824094 8.1909735e-39 324 261
0.006724033 0.76700002 -0.02824094 8.3753647e-39 325 261
0.0080898795 0.76899999 -0.028314579 8.4679163e-39 326 261
0.0094627403 0.77100003 -0.028388219 8.9288944e-39 327 261
0.01081456 0.77100003 -0.028388219 9.3891509e-39 328 261
0.012197939 0.773 -0.028461859 9.7579334e-39 329 261
0.013553266 0.773 -0.028461859 9.5749897e-39 330 261
0.01487002 0.77100003 -0.028388219 9.8512179e-39 331 261
-0.0406598 0.773 -0.029817186 1.2069696e-38 290 262
-0.039304473 0.773 -0.029817186 1.1332131e-38 291 262
-0.037949149 0.773 -0.029817186 1.1512887e-38 292 262
-0.036593821 0.773 -0.029817186 1.0683487e-38 293 262
-0.035238493 0.773 -0.029817186 1.0954665e-38 294 262
-0.033795502 0.77100003 -0.029740039 1.0585524e-38 295 262
-0.032443684 0.77100003 -0.029740039 9.2984e-39 296 262
-0.031011207 0.76899999 -0.02966289 8.8374219e-39 297 262
-0.029585747 0.76700002 -0.029585747 8.6519586e-39 298 262
-0.028204117 0.76599997 -0.029547172 8.467566e-39 299 262
-0.026861066 0.76599997 -0.029547172 8.1906204e-39 300 262
-0.025518013 0.76599997 -0.029547172 8.0065892e-39 301 262
-0.024111839 0.764 -0.029470026 7.6396046e-39 302 262
-0.02271268 0.76200002 -0.029392879 7.5470488e-39 303 262
-0.02137664 0.76200002 -0.029392879 7.4548532e-39 304 262
-0.0200406 0.76200002 -0.029392879 7.3626575e-39 305 262
-0.018753653 0.764 -0.029470026 7.1786236e-39 306 262
-0.017414106 0.764 -0.029470026 7.3626547e-39 307 262
-0.016074561 0.764 -0.029470026 7.1786264e-39 308 262
-0.014735013 0.764 -0.029470026 7.1786264e-39 309 262
-0.013395466 0.764 -0.029470026 7.3608667e-39 310 262
-0.01205592 0.764 -0.029470026 7.2686711e-39 311 262
-0.010716373 0.764 -0.029470026 7.2683179e-39 312 262
-0.0093768267 0.764 -0.029470026 7.1761223e-39 313 262
-0.0080372803 0.764 -0.029470026 7.3597905e-39 314 262
-0.006697733 0.764 -0.029470026 7.3597905e-39 315 262
-0.0053441599 0.76200002 -0.029392879 7.1771915e-39 316 262
-0.0040081199 0.76200002 -0.029392879 7.3619415e-39 317 262
-0.00267208 0.76200002 -0.029392879 7.4548532e-39 318 262
-0.0013395466 0.764 -0.029470026 7.5470488e-39 319 262
0 0.76599997 -0.029547172 7.6396018e-39 320 262
0.0013430532 0.76599997 -0.029547172 7.6396018e-39 321 262
0.0026861064 0.76599997 -0.029547172 7.823993e-39 322 262
0.00403442 0.76700002 -0.029585747 8.1005785e-39 323 262
0.0053932532 0.76899999 -0.02966289 8.3771668e-39 324 262
0.0067415666 0.76899999 -0.02966289 8.4693624e-39 325 262
0.0080898795 0.76899999 -0.02966289 8.8374219e-39 326 262
0.0094627403 0.77100003 -0.029740039 9.2062044e-39 327 262
0.01081456 0.77100003 -0.029740039 9.6664595e-39 328 262
0.012197939 0.773 -0.029817186 9.8508521e-39 329 262
0.013553266 0.773 -0.029817186 9.4831598e-39 330 262
-0.037949149 0.773 -0.03117251 1.1791995e-38 292 263
-0.036593821 0.773 -0.03117251 1.105443e-38 293 263
-0.035238493 0.773 -0.03117251 1.0960054e-38 294 263
-0.033883166 0.773 -0.03117251 1.0222129e-38 295 263
-0.032443684 0.77100003 -0.031091858 1.0310028e-38 296 263
-0.031011207 0.76899999 -0.031011207 9.7568544e-39 297 263
-0.029585747 0.76700002 -0.030930554 8.8370688e-39 298 263
-0.02824094 0.76700002 -0.030930554 8.6526775e-39 299 263
-0.026896132 0.76700002 -0.030930554 8.2842537e-39 300 263
-0.025518013 0.76599997 -0.030890226 8.1916994e-39 301 263
-0.024111839 0.764 -0.030809574 7.6414024e-39 302 263
-0.022772292 0.764 -0.030809574 7.5488481e-39 303 263
-0.021432746 0.764 -0.030809574 7.4566524e-39 304 263
-0.020093199 0.764 -0.030809574 7.3644568e-39 305 263
-0.018753653 0.764 -0.030809574 7.4562895e-39 306 263
-0.017459691 0.76599997 -0.030890226 7.3640925e-39 307 263
-0.016116638 0.76599997 -0.030890226 7.5474047e-39 308 263
-0.014735013 0.764 -0.030809574 7.4552091e-39 309 263
-0.013395466 0.764 -0.030809574 7.4541371e-39 310 263
-0.012087479 0.76599997 -0.030890226 7.3619415e-39 311 263
-0.010744425 0.76599997 -0.030890226 7.2693927e-39 312 263
-0.0094013726 0.76599997 -0.030890226 7.2693927e-39 313 263
-0.0080372803 0.764 -0.030809574 7.1771971e-39 314 263
-0.006697733 0.764 -0.030809574 7.1771971e-39 315 263
-0.0053722127 0.76599997 -0.030890226 7.0867965e-39 316 263
-0.0040291594 0.76599997 -0.030890226 7.2711878e-39 317 263
-0.0026861064 0.76599997 -0.030890226 7.4562895e-39 318 263
-0.0013430532 0.76599997 -0.030890226 7.7325163e-39 319 263
0 0.76599997 -0.030890226 8.099854e-39 320 263
0.0013448066 0.76700002 -0.030930554 8.284604e-39 321 263
0.0026896133 0.76700002 -0.030930554 8.5601133e-39 322 263
0.00403442 0.76700002 -0.030930554 8.8363401e-39 323 263
0.0053932532 0.76899999 -0.031011207 8.7452263e-39 324 263
0.0067415666 0.76899999 -0.031011207 8.8374219e-39 325 263
0.0080898795 0.76899999 -0.031011207 9.11365e-39 326 263
0.0094627403 0.77100003 -0.031091858 9.2984e-39 327 263
0.01081456 0.77100003 -0.031091858 9.3909614e-39 328 263
0.012197939 0.773 -0.03117251 9.3909614e-39 329 263
-0.035238493 0.773 -0.032527838 1.1147329e-38 294 264
-0.033795502 0.77100003 -0.032443684 1.0409764e-38 295 264
-0.032443684 0.77100003 -0.032443684 1.0956104e-38 296 264
-0.031011207 0.76899999 -0.032359518 1.0310734e-38 297 264
-0.029585747 0.76700002 -0.03227536 9.1158038e-39 298 264
-0.02824094 0.76700002 -0.03227536 8.6548257e-39 299 264
-0.026896132 0.76700002 -0.03227536 8.9281882e-39 300 264
-0.025551327 0.76700002 -0.03227536 8.6519614e-39 301 264
-0.024174958 0.76599997 -0.032233275 8.2846209e-39 302 264
-0.022772292 0.764 -0.032149121 8.2846209e-39 303 264
-0.021432746 0.764 -0.032149121 7.7332449e-39 304 264
-0.020145798 0.76599997 -0.032233275 7.7332449e-39 305 264
-0.018827293 0.76700002 -0.03227536 7.6413996e-39 306 264
-0.017482487 0.76700002 -0.03227536 7.549204e-39 307 264
-0.01613768 0.76700002 -0.03227536 7.7325135e-39 308 264
-0.014773586 0.76599997 -0.032233275 7.6403178e-39 309 264
-0.013430533 0.76599997 -0.032233275 7.822914e-39 310 264
-0.01210326 0.76700002 -0.03227536 7.6388815e-39 311 264
-0.010758453 0.76700002 -0.03227536 7.5463327e-39 312 264
-0.0094013726 0.76599997 -0.032233275 7.4541371e-39 313 264
-0.0080583189 0.76599997 -0.032233275 7.1782733e-39 314 264
-0.0067152665 0.76599997 -0.032233275 7.3623044e-39 315 264
-0.0053722127 0.76599997 -0.032233275 7.547053e-39 316 264
-0.0040186401 0.764 -0.032149121 7.7314443e-39 317 264
-0.0026790933 0.764 -0.032149121 8.0080242e-39 318 264
-0.0013430532 0.76599997 -0.032233275 8.1927741e-39 319 264
0 0.76700002 -0.03227536 8.7434284e-39 320 264
0.0013448066 0.76700002 -0.03227536 8.9278197e-39 321 264
0.0026896133 0.76700002 -0.03227536 8.9285385e-39 322 264
0.00403442 0.76700002 -0.03227536 9.1129298e-39 323 264
0.0054072798 0.77100003 -0.032443684 8.9296231e-39 324 264
0.0067590997 0.77100003 -0.032443684 9.1136557e-39 325 264
0.0081109209 0.77100003 -0.032443684 8.9299903e-39 326 264
0.0094872871 0.773 -0.032527838 9.0221859e-39 327 264
0.010842613 0.773 -0.032527838 8.8392394e-39 328 264
-0.033795502 0.77100003 -0.033795502 1.1147726e-38 295 265
-0.032443684 0.77100003 -0.033795502 1.132707e-38 296 265
-0.031011207 0.76899999 -0.033707831 1.0497669e-38 297 265
-0.029585747 0.76700002 -0.033620168 9.760467e-39 298 265
-0.02824094 0.76700002 -0.033620168 9.2998476e-39 299 265
-0.026896132 0.76700002 -0.033620168 9.0225516e-39 300 265
-0.025551327 0.76700002 -0.033620168 8.6541292e-39 301 265
-0.024206521 0.76700002 -0.033620168 8.4693807e-39 302 265
-0.022831906 0.76599997 -0.033576332 8.377185e-39 303 265
-0.021488851 0.76599997 -0.033576332 7.9180061e-39 304 265
-0.020145798 0.76599997 -0.033576332 7.9180061e-39 305 265
-0.018827293 0.76700002 -0.033620168 7.7346841e-39 306 265
-0.017482487 0.76700002 -0.033620168 7.5506529e-39 307 265
-0.01613768 0.76700002 -0.033620168 7.9176292e-39 308 265
-0.014773586 0.76599997 -0.033576332 7.7335981e-39 309 265
-0.013430533 0.76599997 -0.033576332 7.8247147e-39 310 265
-0.01210326 0.76700002 -0.033620168 7.7325191e-39 311 265
-0.010758453 0.76700002 -0.033620168 7.7321687e-39 312 265
-0.0094013726 0.76599997 -0.033576332 7.4555833e-39 313 265
-0.0080372803 0.764 -0.033488665 7.4563049e-39 314 265
-0.006697733 0.764 -0.033488665 7.4563049e-39 315 265
-0.0053722127 0.76599997 -0.033576332 7.5495725e-39 316 265
-0.0040186401 0.764 -0.033488665 7.6417682e-39 317 265
-0.0026790933 0.764 -0.033488665 8.4682862e-39 318 265
-0.0013430532 0.76599997 -0.033576332 8.5604819e-39 319 265
0 0.76700002 -0.033620168 8.6530306e-39 320 265
0.0013448066 0.76700002 -0.033620168 8.7452263e-39 321 265
0.0026966266 0.76899999 -0.033707831 9.0207341e-39 322 265
0.0040554604 0.77100003 -0.033795502 9.1129298e-39 323 265
0.0054213065 0.773 -0.033883166 9.1125795e-39 324 265
0.0067766332 0.773 -0.033883166 9.1125795e-39 325 265
0.0081319595 0.773 -0.033883166 8.7452445e-39 326 265
0.0094872871 0.773 -0.033883166 8.7452445e-39 327 265
-0.029585747 0.76700002 -0.034964975 1.1048688e-38 298 266
-0.02824094 0.76700002 -0.034964975 1.0403318e-38 299 266
-0.026896132 0.76700002 -0.034964975 9.8512207e-39 300 266
-0.025551327 0.76700002 -0.034964975 9.2980469e-39 301 266
-0.024269639 0.76899999 -0.035056144 8.7463221e-39 302 266
-0.016179759 0.76899999 -0.035056144 8.009829e-39 308 266
-0.014735013 0.764 -0.034828212 7.917632e-39 309 266
-0.013395466 0.764 -0.034828212 7.6410493e-39 310 266
-0.01210326 0.76700002 -0.034964975 7.6410493e-39 311 266
-0.010744425 0.76599997 -0.034919381 7.8243644e-39 312 266
-0.0094013726 0.76599997 -0.034919381 7.91656e-39 313 266
-0.0080372803 0.764 -0.034828212 8.0087542e-39 314 266
-0.006697733 0.764 -0.034828212 8.1013086e-39 315 266
-0.0053722127 0.76599997 -0.034919381 8.5604819e-39 316 266
-0.0040081199 0.76200002 -0.034737039 8.6526775e-39 317 266
-0.00267208 0.76200002 -0.034737039 8.9288944e-39 318 266
-0.0013430532 0.76599997 -0.034919381 8.9288944e-39 319 266
0 0.76700002 -0.034964975 9.0210901e-39 320 266
