# .PCD v.7 - Point Cloud Data file format
FIELDS x y z rgb imX imY
SIZE 4 4 4 4 4 4
TYPE F F F F F F
COUNT 1 1 1 1 1 1
WIDTH 832
HEIGHT 1
VIEWPOINT 0 0 0 1 0 0 0
POINTS 832
DATA ascii
0.0048181596 0.68699998 0.0012045399 1.4820704e-38 324 239
0.0060226996 0.68699998 0.0012045399 1.4451922e-38 325 239
0.0072272392 0.68699998 0.0012045399 1.454158e-38 326 239
0.0084440531 0.68800002 0.0012062934 1.4633775e-38 327 239
0.0096783992 0.69 0.0012097999 1.463413e-38 328 239
0.01090398 0.69099998 0.0012115532 1.463413e-38 329 239
0.012115533 0.69099998 0.0012115532 1.4359348e-38 330 239
0.013327086 0.69099998 0.0012115532 1.4175315e-38 331 239
0.014538639 0.69099998 0.0012115532 1.4174962e-38 332 239
0.015864158 0.69599998 0.0012203199 1.4174962e-38 333 239
0.017084479 0.69599998 0.0012203199 1.4174612e-38 334 239
0.0183574 0.69800001 0.0012238267 1.3898025e-38 335 239
-0.032853961 0.69400001 -0 1.2612729e-38 293 240
-0.031637147 0.69400001 -0 1.5003663e-38 294 240
-0.030420333 0.69400001 -0 1.4727435e-38 295 240
-0.029203519 0.69400001 -0 1.3899133e-38 296 240
-0.027946379 0.69300002 -0 1.3991688e-38 297 240
-0.02673132 0.69300002 -0 1.4360097e-38 298 240
-0.025553079 0.69400001 -0 1.4267543e-38 299 240
-0.024301201 0.69300002 -0 1.4359729e-38 300 240
-0.023019511 0.69099998 -0 1.4359729e-38 301 240
-0.021776399 0.69 -0 1.4634887e-38 302 240
-0.020566599 0.69 -0 1.500331e-38 303 240
-0.019300694 0.68800002 -0 1.4637407e-38 304 240
-0.0180944 0.68800002 -0 1.4821799e-38 305 240
-0.01686356 0.68699998 -0 1.4729969e-38 306 240
-0.015636226 0.68599999 -0 1.4822164e-38 307 240
-0.01443344 0.68599999 -0 1.4728897e-38 308 240
-0.013249939 0.68699998 -0 1.4636701e-38 309 240
-0.012027865 0.68599999 -0 1.4268642e-38 310 240
-0.010825079 0.68599999 -0 1.4268642e-38 311 240
-0.0096363192 0.68699998 -0 1.4269363e-38 312 240
-0.0084317802 0.68699998 -0 1.4361559e-38 313 240
-0.0072272392 0.68699998 -0 1.4546306e-38 314 240
-0.0060226996 0.68699998 -0 1.4638502e-38 315 240
-0.0048181596 0.68699998 -0 1.4822167e-38 316 240
-0.00360836 0.68599999 -0 1.4637417e-38 317 240
-0.0024055731 0.68599999 -0 1.4544859e-38 318 240
-0.0012027866 0.68599999 -0 1.4268272e-38 319 240
0 0.68400002 -0 1.3807669e-38 320 240
0.00119928 0.68400002 -0 1.3438527e-38 321 240
0.0024055731 0.68599999 -0 1.3164112e-38 322 240
0.00360836 0.68599999 -0 1.3532893e-38 323 240
0.0048111463 0.68599999 -0 1.463742e-38 324 240
0.0060226996 0.68699998 -0 1.4084246e-38 325 240
0.0072272392 0.68699998 -0 1.4175335e-38 326 240
0.0084317802 0.68699998 -0 1.4083138e-38 327 240
0.0096363192 0.68699998 -0 1.4174968e-38 328 240
0.010888199 0.69 -0 1.4359e-38 329 240
0.012097999 0.69 -0 1.4357924e-38 330 240
0.0133078 0.69 -0 1.4265728e-38 331 240
0.014517599 0.69 -0 1.4083132e-38 332 240
0.015727401 0.69 -0 1.4083132e-38 333 240
0.01701084 0.69300002 -0 1.4083841e-38 334 240
0.0183574 0.69800001 -0 1.3622865e-38 335 240
-0.034218054 0.69700003 -0.0012220733 1.4359744e-38 292 241
-0.032853961 0.69400001 -0.0012168133 1.4820364e-38 293 241
-0.031637147 0.69400001 -0.0012168133 1.5187341e-38 294 241
-0.030420333 0.69400001 -0.0012168133 1.4910394e-38 295 241
-0.029203519 0.69400001 -0.0012168133 1.3714019e-38 296 241
-0.027946379 0.69300002 -0.00121506 1.3621823e-38 297 241
-0.02673132 0.69300002 -0.00121506 1.408173e-38 298 241
-0.02551626 0.69300002 -0.00121506 1.4173925e-38 299 241
-0.024301201 0.69300002 -0.00121506 1.4360092e-38 300 241
-0.022986198 0.69 -0.0012097999 1.4267896e-38 301 241
-0.021713281 0.68800002 -0.0012062934 1.4633789e-38 302 241
-0.020506985 0.68800002 -0.0012062934 1.4818539e-38 303 241
-0.019272638 0.68699998 -0.0012045399 1.4726709e-38 304 241
-0.018068098 0.68699998 -0.0012045399 1.4911101e-38 305 241
-0.016839013 0.68599999 -0.0012027866 1.4818929e-38 306 241
-0.015636226 0.68599999 -0.0012027866 1.500296e-38 307 241
-0.01443344 0.68599999 -0.0012027866 1.4726749e-38 308 241
-0.013230653 0.68599999 -0.0012027866 1.4726749e-38 309 241
-0.012027865 0.68599999 -0.0012027866 1.445196e-38 310 241
-0.010825079 0.68599999 -0.0012027866 1.445196e-38 311 241
-0.0096222926 0.68599999 -0.0012027866 1.4268289e-38 312 241
-0.0084195063 0.68599999 -0.0012027866 1.4268289e-38 313 241
-0.0072167199 0.68599999 -0.0012027866 1.4453039e-38 314 241
-0.0060139326 0.68599999 -0.0012027866 1.463707e-38 315 241
-0.0048111463 0.68599999 -0.0012027866 1.4637423e-38 316 241
-0.00360836 0.68599999 -0.0012027866 1.4453392e-38 317 241
-0.0024055731 0.68599999 -0.0012027866 1.4544856e-38 318 241
-0.00119928 0.68400002 -0.00119928 1.4176432e-38 319 241
0 0.68400002 -0.00119928 1.3440313e-38 320 241
0.00119928 0.68400002 -0.00119928 1.3071171e-38 321 241
0.0024055731 0.68599999 -0.0012027866 1.2793157e-38 322 241
0.00360836 0.68599999 -0.0012027866 1.2700962e-38 323 241
0.0048111463 0.68599999 -0.0012027866 1.334489e-38 324 241
0.0060226996 0.68699998 -0.0012045399 1.334489e-38 325 241
0.0072272392 0.68699998 -0.0012045399 1.4172832e-38 326 241
0.0084317802 0.68699998 -0.0012045399 1.3896247e-38 327 241
0.0096363192 0.68699998 -0.0012045399 1.4357208e-38 328 241
0.010840859 0.68699998 -0.0012045399 1.4265012e-38 329 241
0.012045399 0.68699998 -0.0012045399 1.4356126e-38 330 241
0.013269227 0.68800002 -0.0012062934 1.4448681e-38 331 241
0.014475521 0.68800002 -0.0012062934 1.4082772e-38 332 241
0.015727401 0.69 -0.0012097999 1.4174968e-38 333 241
0.016961746 0.69099998 -0.0012115532 1.4083488e-38 334 241
0.0181733 0.69099998 -0.0012115532 1.4083488e-38 335 241
-0.034218054 0.69700003 -0.0024441467 1.4728139e-38 292 242
-0.032853961 0.69400001 -0.0024336267 1.5004367e-38 293 242
-0.031637147 0.69400001 -0.0024336267 1.4818905e-38 294 242
-0.030420333 0.69400001 -0.0024336267 1.4173536e-38 295 242
-0.029203519 0.69400001 -0.0024336267 1.3434548e-38 296 242
-0.027946379 0.69300002 -0.00243012 1.361894e-38 297 242
-0.02673132 0.69300002 -0.00243012 1.371295e-38 298 242
-0.02551626 0.69300002 -0.00243012 1.4081732e-38 299 242
-0.024125867 0.68800002 -0.0024125867 1.3992035e-38 300 242
-0.022919573 0.68800002 -0.0024125867 1.389984e-38 301 242
-0.021681719 0.68699998 -0.0024090798 1.4265381e-38 302 242
-0.020477179 0.68699998 -0.0024090798 1.4449774e-38 303 242
-0.019272638 0.68699998 -0.0024090798 1.4175353e-38 304 242
-0.018068098 0.68699998 -0.0024090798 1.4267549e-38 305 242
-0.016839013 0.68599999 -0.0024055731 1.4266842e-38 306 242
-0.015636226 0.68599999 -0.0024055731 1.4359038e-38 307 242
-0.01443344 0.68599999 -0.0024055731 1.408318e-38 308 242
-0.01319208 0.68400002 -0.0023985601 1.4175376e-38 309 242
-0.0119928 0.68400002 -0.0023985601 1.4083177e-38 310 242
-0.01079352 0.68400002 -0.0023985601 1.4083177e-38 311 242
-0.0095942402 0.68400002 -0.0023985601 1.3992782e-38 312 242
-0.0083949603 0.68400002 -0.0023985601 1.3992782e-38 313 242
-0.0071956799 0.68400002 -0.0023985601 1.4085345e-38 314 242
-0.0059964 0.68400002 -0.0023985601 1.3993149e-38 315 242
-0.0047971201 0.68400002 -0.0023985601 1.4084979e-38 316 242
-0.00359784 0.68400002 -0.0023985601 1.4084979e-38 317 242
-0.0023985601 0.68400002 -0.0023985601 1.3808022e-38 318 242
-0.00119928 0.68400002 -0.0023985601 1.3715468e-38 319 242
0 0.68400002 -0.0023985601 1.3163016e-38 320 242
0.00119928 0.68400002 -0.0023985601 1.2794593e-38 321 242
0.0024055731 0.68599999 -0.0024055731 1.2792085e-38 322 242
0.00360836 0.68599999 -0.0024055731 1.269989e-38 323 242
0.0048111463 0.68599999 -0.0024055731 1.2792085e-38 324 242
0.0060139326 0.68599999 -0.0024055731 1.2976837e-38 325 242
0.0072167199 0.68599999 -0.0024055731 1.3345597e-38 326 242
0.0084195063 0.68599999 -0.0024055731 1.3345597e-38 327 242
0.0096363192 0.68699998 -0.0024090798 1.3804757e-38 328 242
0.010840859 0.68699998 -0.0024090798 1.3804757e-38 329 242
0.012045399 0.68699998 -0.0024090798 1.4079546e-38 330 242
0.013249939 0.68699998 -0.0024090798 1.4263577e-38 331 242
0.014454478 0.68699998 -0.0024090798 1.3897672e-38 332 242
0.015681813 0.68800002 -0.0024125867 1.4082063e-38 333 242
0.0169372 0.69 -0.0024195998 1.3807274e-38 334 242
0.0181733 0.69099998 -0.0024231065 1.389947e-38 335 242
0.01944096 0.69300002 -0.00243012 1.3808343e-38 336 242
0.023019511 0.69099998 -0.0024231065 1.5750279e-38 339 242
-0.035592664 0.69999999 -0.0036819996 1.4267546e-38 291 243
-0.034218054 0.69700003 -0.00366622 1.4911451e-38 292 243
-0.032853961 0.69400001 -0.0036504399 1.4819255e-38 293 243
-0.031637147 0.69400001 -0.0036504399 1.4451196e-38 294 243
-0.030420333 0.69400001 -0.0036504399 1.3805826e-38 295 243
-0.029161438 0.69300002 -0.0036451798 1.3341997e-38 296 243
-0.027946379 0.69300002 -0.0036451798 1.3526388e-38 297 243
-0.026654173 0.69099998 -0.0036346598 1.3529277e-38 298 243
-0.025442619 0.69099998 -0.0036346598 1.3713669e-38 299 243
-0.024090799 0.68699998 -0.0036136196 1.3807294e-38 300 243
-0.022886258 0.68699998 -0.0036136196 1.3622902e-38 301 243
-0.021681719 0.68699998 -0.0036136196 1.3897321e-38 302 243
-0.020477179 0.68699998 -0.0036136196 1.4081713e-38 303 243
-0.019272638 0.68699998 -0.0036136196 1.4082436e-38 304 243
-0.0179892 0.68400002 -0.00359784 1.4174631e-38 305 243
-0.016789921 0.68400002 -0.00359784 1.3898414e-38 306 243
-0.01559064 0.68400002 -0.00359784 1.3898414e-38 307 243
-0.01439136 0.68400002 -0.00359784 1.3806587e-38 308 243
-0.01319208 0.68400002 -0.00359784 1.3806587e-38 309 243
-0.0119928 0.68400002 -0.00359784 1.3715474e-38 310 243
-0.01079352 0.68400002 -0.00359784 1.3715474e-38 311 243
-0.0095802136 0.68300003 -0.0035925799 1.3808032e-38 312 243
-0.0083826864 0.68300003 -0.0035925799 1.3808032e-38 313 243
-0.0071851597 0.68300003 -0.0035925799 1.3808754e-38 314 243
-0.0059876335 0.68300003 -0.0035925799 1.3624723e-38 315 243
-0.0047901068 0.68300003 -0.0035925799 1.3808035e-38 316 243
-0.0035925799 0.68300003 -0.0035925799 1.3439254e-38 317 243
-0.0023950534 0.68300003 -0.0035925799 1.3438173e-38 318 243
-0.0011975267 0.68300003 -0.0035925799 1.3345978e-38 319 243
0 0.68300003 -0.0035925799 1.3160868e-38 320 243
0.00119928 0.68400002 -0.00359784 1.2792085e-38 321 243
0.0023985601 0.68400002 -0.00359784 1.2699521e-38 322 243
0.00360836 0.68599999 -0.00360836 1.2699521e-38 323 243
0.0048111463 0.68599999 -0.00360836 1.2883905e-38 324 243
0.0060139326 0.68599999 -0.00360836 1.2883905e-38 325 243
0.0072167199 0.68599999 -0.00360836 1.306865e-38 326 243
0.0084195063 0.68599999 -0.00360836 1.2976454e-38 327 243
0.0096222926 0.68599999 -0.00360836 1.3435264e-38 328 243
0.010825079 0.68599999 -0.00360836 1.352746e-38 329 243
0.012045399 0.68699998 -0.0036136196 1.3711488e-38 330 243
0.013249939 0.68699998 -0.0036136196 1.3987716e-38 331 243
0.014454478 0.68699998 -0.0036136196 1.3897321e-38 332 243
0.015681813 0.68800002 -0.0036188802 1.3897321e-38 333 243
0.0169372 0.69 -0.0036293997 1.3714372e-38 334 243
0.0181733 0.69099998 -0.0036346598 1.3806568e-38 335 243
0.01944096 0.69300002 -0.0036451798 1.3807996e-38 336 243
0.021807959 0.69099998 -0.0036346598 1.2702408e-38 338 243
-0.038047329 0.69999999 -0.0049093333 9.7715835e-39 289 244
-0.036819998 0.69999999 -0.0049093333 1.4543392e-38 290 244
-0.035440128 0.69700003 -0.0048882933 1.4727783e-38 291 244
-0.034168959 0.69599998 -0.0048812795 1.4727057e-38 292 244
-0.032853961 0.69400001 -0.0048672534 1.4727057e-38 293 244
-0.031591557 0.69300002 -0.00486024 1.4083138e-38 294 244
-0.0303765 0.69300002 -0.00486024 1.3714357e-38 295 244
-0.029035198 0.69 -0.0048391996 1.3345599e-38 296 244
-0.027744746 0.68800002 -0.0048251734 1.3529631e-38 297 244
-0.026538454 0.68800002 -0.0048251734 1.3255918e-38 298 244
-0.025295338 0.68699998 -0.0048181596 1.3348113e-38 299 244
-0.024055731 0.68599999 -0.0048111463 1.3439583e-38 300 244
-0.022786319 0.68400002 -0.0047971201 1.3347387e-38 301 244
-0.02158704 0.68400002 -0.0047971201 1.3714009e-38 302 244
-0.020447372 0.68599999 -0.0048111463 1.3990236e-38 303 244
-0.019244585 0.68599999 -0.0048111463 1.3623611e-38 304 244
-0.0179892 0.68400002 -0.0047971201 1.3438861e-38 305 244
-0.016789921 0.68400002 -0.0047971201 1.3621826e-38 306 244
-0.01559064 0.68400002 -0.0047971201 1.3621826e-38 307 244
-0.01439136 0.68400002 -0.0047971201 1.3437808e-38 308 244
-0.013172794 0.68300003 -0.0047901068 1.3345612e-38 309 244
-0.011975267 0.68300003 -0.0047901068 1.3346331e-38 310 244
-0.01077774 0.68300003 -0.0047901068 1.3346331e-38 311 244
-0.009566186 0.68199998 -0.004783093 1.3530725e-38 312 244
-0.0083704125 0.68199998 -0.004783093 1.3530725e-38 313 244
-0.00717464 0.68199998 -0.004783093 1.3439973e-38 314 244
-0.005978866 0.68199998 -0.004783093 1.3255581e-38 315 244
-0.004783093 0.68199998 -0.004783093 1.3347058e-38 316 244
-0.00358732 0.68199998 -0.004783093 1.307047e-38 317 244
-0.0023950534 0.68300003 -0.0047901068 1.3160868e-38 318 244
-0.0011957732 0.68199998 -0.004783093 1.2976837e-38 319 244
0 0.68199998 -0.004783093 1.2975034e-38 320 244
0.0011975267 0.68300003 -0.0047901068 1.2790643e-38 321 244
0.0023985601 0.68400002 -0.0047971201 1.2607678e-38 322 244
0.00359784 0.68400002 -0.0047971201 1.2699874e-38 323 244
0.0047971201 0.68400002 -0.0047971201 1.260875e-38 324 244
0.0059964 0.68400002 -0.0047971201 1.260875e-38 325 244
0.0072167199 0.68599999 -0.0048111463 1.260516e-38 326 244
0.0084195063 0.68599999 -0.0048111463 1.2328213e-38 327 244
0.0096222926 0.68599999 -0.0048111463 1.2972138e-38 328 244
0.010825079 0.68599999 -0.0048111463 1.3249084e-38 329 244
0.012027865 0.68599999 -0.0048111463 1.3618211e-38 330 244
0.013230653 0.68599999 -0.0048111463 1.3802602e-38 331 244
0.014454478 0.68699998 -0.0048181596 1.3804404e-38 332 244
0.015659019 0.68699998 -0.0048181596 1.38966e-38 333 244
0.016888106 0.68800002 -0.0048251734 1.3622179e-38 334 244
0.018146999 0.69 -0.0048391996 1.3898768e-38 335 244
0.019384852 0.69099998 -0.0048462129 1.3623976e-38 336 244
0.020596405 0.69099998 -0.0048462129 1.3623976e-38 337 244
0.021807959 0.69099998 -0.0048462129 1.3256283e-38 338 244
0.023019511 0.69099998 -0.0048462129 1.2242492e-38 339 244
-0.038047329 0.69999999 -0.0061366665 1.1971675e-38 289 245
-0.0367148 0.69800001 -0.006119133 1.4636647e-38 290 245
-0.035389278 0.69599998 -0.0061015999 1.4544451e-38 291 245
-0.034070771 0.69400001 -0.0060840664 1.445083e-38 292 245
-0.032853961 0.69400001 -0.0060840664 1.445083e-38 293 245
-0.031591557 0.69300002 -0.0060753003 1.4175332e-38 294 245
-0.030244999 0.69 -0.0060489997 1.3898744e-38 295 245
-0.028951041 0.68800002 -0.0060314666 1.3714722e-38 296 245
-0.027704418 0.68699998 -0.0060226996 1.3714722e-38 297 245
-0.026499879 0.68699998 -0.0060226996 1.3623979e-38 298 245
-0.025295338 0.68699998 -0.0060226996 1.3347032e-38 299 245
-0.0239856 0.68400002 -0.0059964 1.3162297e-38 300 245
-0.022786319 0.68400002 -0.0059964 1.3070101e-38 301 245
-0.02158704 0.68400002 -0.0059964 1.316265e-38 302 245
-0.020447372 0.68599999 -0.0060139326 1.3346681e-38 303 245
-0.019244585 0.68599999 -0.0060139326 1.3345599e-38 304 245
-0.017962901 0.68300003 -0.0059876335 1.3253045e-38 305 245
-0.016765373 0.68300003 -0.0059876335 1.3160146e-38 306 245
-0.015567848 0.68300003 -0.0059876335 1.3160146e-38 307 245
-0.014370319 0.68300003 -0.0059876335 1.3160149e-38 308 245
-0.013172794 0.68300003 -0.0059876335 1.3252344e-38 309 245
-0.011957732 0.68199998 -0.005978866 1.3160865e-38 310 245
-0.010761959 0.68199998 -0.005978866 1.2976834e-38 311 245
-0.009566186 0.68199998 -0.005978866 1.2977921e-38 312 245
-0.0083704125 0.68199998 -0.005978866 1.3070117e-38 313 245
-0.00717464 0.68199998 -0.005978866 1.2979e-38 314 245
-0.005978866 0.68199998 -0.005978866 1.2886805e-38 315 245
-0.004783093 0.68199998 -0.005978866 1.2978274e-38 316 245
-0.00358732 0.68199998 -0.005978866 1.2794243e-38 317 245
-0.0023915465 0.68199998 -0.005978866 1.2792088e-38 318 245
-0.0011957732 0.68199998 -0.005978866 1.2699892e-38 319 245
0 0.68199998 -0.005978866 1.2606622e-38 320 245
0.0011957732 0.68199998 -0.005978866 1.2606622e-38 321 245
0.0023950534 0.68300003 -0.0059876335 1.2423649e-38 322 245
0.0035925799 0.68300003 -0.0059876335 1.26084e-38 323 245
0.0047901068 0.68300003 -0.0059876335 1.2517278e-38 324 245
0.0059964 0.68400002 -0.0059964 1.2148494e-38 325 245
0.0071956799 0.68400002 -0.0059964 1.2511179e-38 326 245
0.0083949603 0.68400002 -0.0059964 1.2050201e-38 327 245
0.0095942402 0.68400002 -0.0059964 1.2327511e-38 328 245
0.01079352 0.68400002 -0.0059964 1.2604457e-38 329 245
0.0119928 0.68400002 -0.0059964 1.2790991e-38 330 245
0.01319208 0.68400002 -0.0059964 1.3251967e-38 331 245
0.01443344 0.68599999 -0.0060139326 1.334416e-38 332 245
0.015659019 0.68699998 -0.0060226996 1.3528912e-38 333 245
0.01686356 0.68699998 -0.0060226996 1.3530707e-38 334 245
0.0180944 0.68800002 -0.0060314666 1.3807294e-38 335 245
0.019300694 0.68800002 -0.0060314666 1.3624695e-38 336 245
0.020566599 0.69 -0.0060489997 1.3440664e-38 337 245
0.021807959 0.69099998 -0.0060577663 1.3625051e-38 338 245
0.023019511 0.69099998 -0.0060577663 1.1688942e-38 339 245
0.024231065 0.69099998 -0.0060577663 1.1051193e-38 340 245
-0.039274666 0.69999999 -0.0073639993 1.3531057e-38 288 246
-0.038047329 0.69999999 -0.0073639993 1.3807644e-38 289 246
-0.036662199 0.69700003 -0.00733244 1.4634493e-38 290 246
-0.035389278 0.69599998 -0.0073219193 1.4542296e-38 291 246
-0.034070771 0.69400001 -0.0073008798 1.4633419e-38 292 246
-0.03280662 0.69300002 -0.0072903596 1.4910006e-38 293 246
-0.031500384 0.69099998 -0.0072693196 1.3992023e-38 294 246
-0.030157333 0.68800002 -0.0072377604 1.4176054e-38 295 246
-0.028908957 0.68699998 -0.0072272392 1.3625774e-38 296 246
-0.027704418 0.68699998 -0.0072272392 1.3902359e-38 297 246
-0.026499879 0.68699998 -0.0072272392 1.3716893e-38 298 246
-0.025184879 0.68400002 -0.0071956799 1.3255915e-38 299 246
-0.0239856 0.68400002 -0.0071956799 1.2606595e-38 300 246
-0.022786319 0.68400002 -0.0071956799 1.2883542e-38 301 246
-0.02158704 0.68400002 -0.0071956799 1.3343797e-38 302 246
-0.020387759 0.68400002 -0.0071956799 1.3343797e-38 303 246
-0.01918848 0.68400002 -0.0071956799 1.3435267e-38 304 246
-0.017936599 0.68199998 -0.00717464 1.3250877e-38 305 246
-0.016740825 0.68199998 -0.00717464 1.3251249e-38 306 246
-0.015545053 0.68199998 -0.00717464 1.3343444e-38 307 246
-0.01434928 0.68199998 -0.00717464 1.3067936e-38 308 246
-0.013153506 0.68199998 -0.00717464 1.3251967e-38 309 246
-0.011957732 0.68199998 -0.00717464 1.2976454e-38 310 246
-0.010761959 0.68199998 -0.00717464 1.2976454e-38 311 246
-0.0095381327 0.68000001 -0.0071535995 1.2884987e-38 312 246
-0.0083458666 0.68000001 -0.0071535995 1.2884987e-38 313 246
-0.0071535995 0.68000001 -0.0071535995 1.2885353e-38 314 246
-0.0059613334 0.68000001 -0.0071535995 1.297755e-38 315 246
-0.004783093 0.68199998 -0.00717464 1.2610564e-38 316 246
-0.00358732 0.68199998 -0.00717464 1.2334337e-38 317 246
-0.0023915465 0.68199998 -0.00717464 1.2607694e-38 318 246
-0.0011957732 0.68199998 -0.00717464 1.2423303e-38 319 246
0 0.68199998 -0.00717464 1.2514779e-38 320 246
0.0011957732 0.68199998 -0.00717464 1.2330387e-38 321 246
0.0023915465 0.68199998 -0.00717464 1.2422567e-38 322 246
0.0035925799 0.68300003 -0.0071851597 1.2606598e-38 323 246
0.0047901068 0.68300003 -0.0071851597 1.2698072e-38 324 246
0.0059876335 0.68300003 -0.0071851597 1.2237454e-38 325 246
0.0071851597 0.68300003 -0.0071851597 1.2142384e-38 326 246
0.0083826864 0.68300003 -0.0071851597 1.2142384e-38 327 246
0.0095802136 0.68300003 -0.0071851597 1.2143092e-38 328 246
0.01077774 0.68300003 -0.0071851597 1.2511513e-38 329 246
0.011975267 0.68300003 -0.0071851597 1.2789529e-38 330 246
0.013172794 0.68300003 -0.0071851597 1.3250507e-38 331 246
0.01439136 0.68400002 -0.0071956799 1.334235e-38 332 246
0.015636226 0.68599999 -0.0072167199 1.3987719e-38 333 246
0.01686356 0.68699998 -0.0072272392 1.3713653e-38 334 246
0.0180944 0.68800002 -0.0072377604 1.4174631e-38 335 246
0.019300694 0.68800002 -0.0072377604 1.3624695e-38 336 246
0.020506985 0.68800002 -0.0072377604 1.3440664e-38 337 246
0.021807959 0.69099998 -0.0072693196 1.3439217e-38 338 246
0.023019511 0.69099998 -0.0072693196 1.2424705e-38 339 246
0.024231065 0.69099998 -0.0072693196 1.1782274e-38 340 246
-0.040502001 0.69999999 -0.0085913334 8.3886757e-39 287 247
-0.039162453 0.69800001 -0.0085667865 1.3714009e-38 288 247
-0.037938625 0.69800001 -0.0085667865 1.4359379e-38 289 247
-0.036609598 0.69599998 -0.0085422397 1.4358644e-38 290 247
-0.035287585 0.69400001 -0.0085176928 1.4082416e-38 291 247
-0.034021679 0.69300002 -0.0085054198 1.4174612e-38 292 247
-0.032711938 0.69099998 -0.008480873 1.4358644e-38 293 247
-0.031454802 0.69 -0.0084686 1.4268252e-38 294 247
-0.030157333 0.68800002 -0.0084440531 1.4360448e-38 295 247
-0.028908957 0.68699998 -0.0084317802 1.4269684e-38 296 247
-0.027704418 0.68699998 -0.0084317802 1.4084934e-38 297 247
-0.02638416 0.68400002 -0.0083949603 1.3990221e-38 298 247
-0.025184879 0.68400002 -0.0083949603 1.2699486e-38 299 247
-0.0239856 0.68400002 -0.0083949603 1.2512232e-38 300 247
-0.022753006 0.68300003 -0.0083826864 1.3249798e-38 301 247
-0.02155548 0.68300003 -0.0083826864 1.2883908e-38 302 247
-0.020357953 0.68300003 -0.0083826864 1.2883908e-38 303 247
-0.019160427 0.68300003 -0.0083826864 1.2883908e-38 304 247
-0.017936599 0.68199998 -0.0083704125 1.2883908e-38 305 247
-0.016740825 0.68199998 -0.0083704125 1.2883911e-38 306 247
-0.015545053 0.68199998 -0.0083704125 1.2976106e-38 307 247
-0.01434928 0.68199998 -0.0083704125 1.2700962e-38 308 247
-0.013153506 0.68199998 -0.0083704125 1.2700962e-38 309 247
-0.011957732 0.68199998 -0.0083704125 1.251693e-38 310 247
-0.0107304 0.68000001 -0.0083458666 1.251693e-38 311 247
-0.0095381327 0.68000001 -0.0083458666 1.251658e-38 312 247
-0.0083458666 0.68000001 -0.0083458666 1.251658e-38 313 247
-0.0071535995 0.68000001 -0.0083458666 1.2241435e-38 314 247
-0.0059613334 0.68000001 -0.0083458666 1.2517662e-38 315 247
-0.0047690663 0.68000001 -0.0083458666 1.2151755e-38 316 247
-0.0035767998 0.68000001 -0.0083458666 1.1967362e-38 317 247
-0.0023845332 0.68000001 -0.0083458666 1.1965924e-38 318 247
-0.0011922666 0.68000001 -0.0083458666 1.1781533e-38 319 247
0 0.68000001 -0.0083458666 1.1690054e-38 320 247
0.0011957732 0.68199998 -0.0083704125 1.1413467e-38 321 247
0.0023915465 0.68199998 -0.0083704125 1.1411672e-38 322 247
0.0035925799 0.68300003 -0.0083826864 1.1411672e-38 323 247
0.0047901068 0.68300003 -0.0083826864 1.1501349e-38 324 247
0.0059876335 0.68300003 -0.0083826864 1.1316958e-38 325 247
0.0071851597 0.68300003 -0.0083826864 1.1499186e-38 326 247
0.0083826864 0.68300003 -0.0083826864 1.1499186e-38 327 247
0.0095802136 0.68300003 -0.0083826864 1.094997e-38 328 247
0.010761959 0.68199998 -0.0083704125 1.1226557e-38 329 247
0.011957732 0.68199998 -0.0083704125 1.1412022e-38 330 247
0.013153506 0.68199998 -0.0083704125 1.1596413e-38 331 247
0.01439136 0.68400002 -0.0083949603 1.2699521e-38 332 247
0.01559064 0.68400002 -0.0083949603 1.334489e-38 333 247
0.016839013 0.68599999 -0.0084195063 1.3438527e-38 334 247
0.018068098 0.68699998 -0.0084317802 1.3530722e-38 335 247
0.019272638 0.68699998 -0.0084317802 1.3348834e-38 336 247
0.020477179 0.68699998 -0.0084317802 1.3256637e-38 337 247
0.021807959 0.69099998 -0.008480873 1.3256268e-38 338 247
0.023019511 0.69099998 -0.008480873 1.2518703e-38 339 247
0.024231065 0.69099998 -0.008480873 1.2055616e-38 340 247
-0.040386278 0.69800001 -0.0097906133 9.3048656e-39 287 248
-0.039050236 0.69599998 -0.0097625591 1.4079546e-38 288 248
-0.037829921 0.69599998 -0.0097625591 1.4540523e-38 289 248
-0.036609598 0.69599998 -0.0097625591 1.4173889e-38 290 248
-0.035287585 0.69400001 -0.0097345067 1.4081334e-38 291 248
-0.034021679 0.69300002 -0.0097204801 1.4080616e-38 292 248
-0.032711938 0.69099998 -0.0096924258 1.4633789e-38 293 248
-0.031454802 0.69 -0.0096783992 1.4084587e-38 294 248
-0.030157333 0.68800002 -0.0096503468 1.4268978e-38 295 248
-0.028908957 0.68699998 -0.0096363192 1.4269345e-38 296 248
-0.027704418 0.68699998 -0.0096363192 1.3992757e-38 297 248
-0.02638416 0.68400002 -0.0095942402 1.3712574e-38 298 248
-0.025184879 0.68400002 -0.0095942402 1.2698781e-38 299 248
-0.0239856 0.68400002 -0.0095942402 1.2973567e-38 300 248
-0.022753006 0.68300003 -0.0095802136 1.3066122e-38 301 248
-0.02155548 0.68300003 -0.0095802136 1.2791694e-38 302 248
-0.020357953 0.68300003 -0.0095802136 1.2791694e-38 303 248
-0.019160427 0.68300003 -0.0095802136 1.2790621e-38 304 248
-0.017883999 0.68000001 -0.0095381327 1.2790621e-38 305 248
-0.016691733 0.68000001 -0.0095381327 1.2698078e-38 306 248
-0.015499466 0.68000001 -0.0095381327 1.2790273e-38 307 248
-0.014307199 0.68000001 -0.0095381327 1.2515133e-38 308 248
-0.013114933 0.68000001 -0.0095381327 1.2515133e-38 309 248
-0.011905133 0.67900002 -0.009524107 1.242258e-38 310 248
-0.010714619 0.67900002 -0.009524107 1.2330384e-38 311 248
-0.009524107 0.67900002 -0.009524107 1.2422582e-38 312 248
-0.0083335936 0.67900002 -0.009524107 1.2514779e-38 313 248
-0.0071430802 0.67900002 -0.009524107 1.2239634e-38 314 248
-0.0059525664 0.67900002 -0.009524107 1.233183e-38 315 248
-0.0047620535 0.67900002 -0.009524107 1.1782975e-38 316 248
-0.0035715401 0.67900002 -0.009524107 1.1598584e-38 317 248
-0.0023810267 0.67900002 -0.009524107 1.1781896e-38 318 248
-0.0011922666 0.68000001 -0.0095381327 1.1505668e-38 319 248
0 0.68000001 -0.0095381327 1.1413472e-38 320 248
0.0011922666 0.68000001 -0.0095381327 1.1044331e-38 321 248
0.0023915465 0.68199998 -0.009566186 1.1225841e-38 322 248
0.00358732 0.68199998 -0.009566186 1.0948896e-38 323 248
0.004783093 0.68199998 -0.009566186 1.1315159e-38 324 248
0.005978866 0.68199998 -0.009566186 1.1130769e-38 325 248
0.00717464 0.68199998 -0.009566186 1.1039292e-38 326 248
0.0083704125 0.68199998 -0.009566186 1.0763065e-38 327 248
0.009566186 0.68199998 -0.009566186 1.0763428e-38 328 248
0.0107304 0.68000001 -0.0095381327 1.0763428e-38 329 248
0.011922667 0.68000001 -0.0095381327 1.0948542e-38 330 248
0.013153506 0.68199998 -0.009566186 1.1501715e-38 331 248
0.014370319 0.68300003 -0.0095802136 1.2420429e-38 332 248
0.01559064 0.68400002 -0.0095942402 1.3250548e-38 333 248
0.016839013 0.68599999 -0.0096222926 1.3161221e-38 334 248
0.018068098 0.68699998 -0.0096363192 1.3530003e-38 335 248
0.019272638 0.68699998 -0.0096363192 1.3256283e-38 336 248
0.020477179 0.68699998 -0.0096363192 1.3256283e-38 337 248
0.021713281 0.68800002 -0.0096503468 1.3255921e-38 338 248
0.022986198 0.69 -0.0096783992 1.2978975e-38 339 248
0.024195999 0.69 -0.0096783992 1.223999e-38 340 248
-0.040328421 0.69700003 -0.01099866 1.1233059e-38 287 249
-0.039050236 0.69599998 -0.010982879 1.3528893e-38 288 249
-0.037829921 0.69599998 -0.010982879 1.3897675e-38 289 249
-0.036504399 0.69400001 -0.01095132 1.3805108e-38 290 249
-0.035236739 0.69300002 -0.010935539 1.3805108e-38 291 249
-0.033923492 0.69099998 -0.01090398 1.3896953e-38 292 249
-0.032664597 0.69 -0.010888199 1.417318e-38 293 249
-0.031363625 0.68800002 -0.010856641 1.3899486e-38 294 249
-0.030157333 0.68800002 -0.010856641 1.4083878e-38 295 249
-0.028908957 0.68699998 -0.010840859 1.4084597e-38 296 249
-0.027704418 0.68699998 -0.010840859 1.3623979e-38 297 249
-0.026499879 0.68699998 -0.010840859 1.3710782e-38 298 249
-0.025184879 0.68400002 -0.01079352 1.3341999e-38 299 249
-0.0239856 0.68400002 -0.01079352 1.2973936e-38 300 249
-0.022753006 0.68300003 -0.01077774 1.2973936e-38 301 249
-0.02155548 0.68300003 -0.01077774 1.26995e-38 302 249
-0.020357953 0.68300003 -0.01077774 1.2791697e-38 303 249
-0.019160427 0.68300003 -0.01077774 1.2699147e-38 304 249
-0.017883999 0.68000001 -0.0107304 1.242292e-38 305 249
-0.016691733 0.68000001 -0.0107304 1.251333e-38 306 249
-0.015499466 0.68000001 -0.0107304 1.251333e-38 307 249
-0.014307199 0.68000001 -0.0107304 1.2237835e-38 308 249
-0.013114933 0.68000001 -0.0107304 1.2053804e-38 309 249
-0.011887599 0.67799997 -0.010698839 1.1961258e-38 310 249
-0.010698839 0.67799997 -0.010698839 1.1961258e-38 311 249
-0.0095100794 0.67799997 -0.010698839 1.1778309e-38 312 249
-0.0083213197 0.67799997 -0.010698839 1.1778309e-38 313 249
-0.0071325595 0.67799997 -0.010698839 1.1688627e-38 314 249
-0.0059437994 0.67799997 -0.010698839 1.1688627e-38 315 249
-0.0047620535 0.67900002 -0.010714619 1.1505315e-38 316 249
-0.0035715401 0.67900002 -0.010714619 1.1505315e-38 317 249
-0.0023810267 0.67900002 -0.010714619 1.1413482e-38 318 249
-0.0011905134 0.67900002 -0.010714619 1.1137255e-38 319 249
0 0.67900002 -0.010714619 1.1228009e-38 320 249
0.0011922666 0.68000001 -0.0107304 1.0858866e-38 321 249
0.0023915465 0.68199998 -0.010761959 1.0949617e-38 322 249
0.0035767998 0.68000001 -0.0107304 1.0765586e-38 323 249
0.0047690663 0.68000001 -0.0107304 1.1039295e-38 324 249
0.0059613334 0.68000001 -0.0107304 1.0763068e-38 325 249
0.0071535995 0.68000001 -0.0107304 1.0487923e-38 326 249
0.0083458666 0.68000001 -0.0107304 1.0395727e-38 327 249
0.009566186 0.68199998 -0.010761959 1.0395737e-38 328 249
0.0107304 0.68000001 -0.0107304 1.0488292e-38 329 249
0.011922667 0.68000001 -0.0107304 1.0673053e-38 330 249
0.013153506 0.68199998 -0.010761959 1.0857444e-38 331 249
0.014370319 0.68300003 -0.01077774 1.0675923e-38 332 249
0.015567848 0.68300003 -0.01077774 1.1505685e-38 333 249
0.016839013 0.68599999 -0.010825079 1.224395e-38 334 249
0.018041799 0.68599999 -0.010825079 1.24287e-38 335 249
0.019244585 0.68599999 -0.010825079 1.2979704e-38 336 249
0.020477179 0.68699998 -0.010840859 1.325593e-38 337 249
0.021681719 0.68699998 -0.010840859 1.3164091e-38 338 249
0.022919573 0.68800002 -0.010856641 1.279531e-38 339 249
0.024125867 0.68800002 -0.010856641 1.26084e-38 340 249
-0.041729331 0.69999999 -0.012273333 1.1782252e-38 286 250
-0.040328421 0.69700003 -0.012220734 1.2427621e-38 287 250
-0.039050236 0.69599998 -0.0122032 1.3345217e-38 288 250
-0.037721213 0.69400001 -0.012168133 1.3437413e-38 289 250
-0.036451802 0.69300002 -0.012150601 1.3712555e-38 290 250
-0.035135046 0.69099998 -0.012115533 1.380511e-38 291 250
-0.033923492 0.69099998 -0.012115533 1.3713281e-38 292 250
-0.032664597 0.69 -0.012097999 1.3805476e-38 293 250
-0.031363625 0.68800002 -0.012062933 1.3622179e-38 294 250
-0.030113498 0.68699998 -0.012045399 1.3898768e-38 295 250
-0.028908957 0.68699998 -0.012045399 1.3623625e-38 296 250
-0.027704418 0.68699998 -0.012045399 1.3347037e-38 297 250
-0.026499879 0.68699998 -0.012045399 1.3251965e-38 298 250
-0.025184879 0.68400002 -0.0119928 1.2975738e-38 299 250
-0.023950534 0.68300003 -0.011975267 1.2790624e-38 300 250
-0.022753006 0.68300003 -0.011975267 1.2790624e-38 301 250
-0.021523919 0.68199998 -0.011957732 1.2608032e-38 302 250
-0.020328145 0.68199998 -0.011957732 1.2515835e-38 303 250
-0.019132372 0.68199998 -0.011957732 1.2606951e-38 304 250
-0.017883999 0.68000001 -0.011922667 1.2330366e-38 305 250
-0.016691733 0.68000001 -0.011922667 1.2237098e-38 306 250
-0.015476674 0.67900002 -0.011905133 1.2237098e-38 307 250
-0.01428616 0.67900002 -0.011905133 1.1960522e-38 308 250
-0.013076359 0.67799997 -0.011887599 1.1776491e-38 309 250
-0.011887599 0.67799997 -0.011887599 1.1408803e-38 310 250
-0.010698839 0.67799997 -0.011887599 1.1408803e-38 311 250
-0.0094820261 0.676 -0.011852534 1.1226576e-38 312 250
-0.0082967728 0.676 -0.011852534 1.1318773e-38 313 250
-0.0071325595 0.67799997 -0.011887599 1.0952864e-38 314 250
-0.0059437994 0.67799997 -0.011887599 1.0952864e-38 315 250
-0.0047550397 0.67799997 -0.011887599 1.1136179e-38 316 250
-0.0035662798 0.67799997 -0.011887599 1.1136179e-38 317 250
-0.0023775198 0.67799997 -0.011887599 1.0952514e-38 318 250
-0.0011905134 0.67900002 -0.011905133 1.0767764e-38 319 250
0 0.67900002 -0.011905133 1.0858869e-38 320 250
0.0011922666 0.68000001 -0.011922667 1.0582284e-38 321 250
0.0023845332 0.68000001 -0.011922667 1.0948896e-38 322 250
0.0035767998 0.68000001 -0.011922667 1.0856699e-38 323 250
0.0047690663 0.68000001 -0.011922667 1.1039648e-38 324 250
0.0059613334 0.68000001 -0.011922667 1.0763062e-38 325 250
0.0071535995 0.68000001 -0.011922667 1.0396797e-38 326 250
0.0083458666 0.68000001 -0.011922667 1.0396797e-38 327 250
0.0095381327 0.68000001 -0.011922667 1.0213484e-38 328 250
0.0107304 0.68000001 -0.011922667 1.030568e-38 329 250
0.011922667 0.68000001 -0.011922667 1.0673753e-38 330 250
0.013114933 0.68000001 -0.011922667 1.0765949e-38 331 250
0.01434928 0.68199998 -0.011957732 1.0397539e-38 332 250
0.015567848 0.68300003 -0.011975267 1.12273e-38 333 250
0.016789921 0.68400002 -0.0119928 1.1783346e-38 334 250
0.0179892 0.68400002 -0.0119928 1.2059935e-38 335 250
0.019244585 0.68599999 -0.012027865 1.2611657e-38 336 250
0.020447372 0.68599999 -0.012027865 1.2888604e-38 337 250
0.021681719 0.68699998 -0.012045399 1.2705278e-38 338 250
0.022919573 0.68800002 -0.012062933 1.2429051e-38 339 250
0.024125867 0.68800002 -0.012062933 1.279351e-38 340 250
-0.041610107 0.69800001 -0.013462093 1.1962312e-38 286 251
-0.040328421 0.69700003 -0.013442807 1.2515126e-38 287 251
-0.039050236 0.69599998 -0.013423519 1.3067555e-38 288 251
-0.037666857 0.69300002 -0.01336566 1.3159751e-38 289 251
-0.036451802 0.69300002 -0.01336566 1.3710762e-38 290 251
-0.035135046 0.69099998 -0.013327086 1.3895154e-38 291 251
-0.0338744 0.69 -0.0133078 1.361929e-38 292 251
-0.032569919 0.68800002 -0.013269227 1.3895877e-38 293 251
-0.031363625 0.68800002 -0.013269227 1.3253398e-38 294 251
-0.030113498 0.68699998 -0.013249939 1.3345594e-38 295 251
-0.028908957 0.68699998 -0.013249939 1.343636e-38 296 251
-0.027664091 0.68599999 -0.013230653 1.3251967e-38 297 251
-0.02638416 0.68400002 -0.01319208 1.2975738e-38 298 251
-0.02514806 0.68300003 -0.013172794 1.2791347e-38 299 251
-0.023950534 0.68300003 -0.013172794 1.2698778e-38 300 251
-0.022719691 0.68199998 -0.013153506 1.2698778e-38 301 251
-0.021523919 0.68199998 -0.013153506 1.2699497e-38 302 251
-0.020328145 0.68199998 -0.013153506 1.2607302e-38 303 251
-0.019132372 0.68199998 -0.013153506 1.2514034e-38 304 251
-0.017883999 0.68000001 -0.013114933 1.2237807e-38 305 251
-0.016667187 0.67900002 -0.013095647 1.2145257e-38 306 251
-0.015476674 0.67900002 -0.013095647 1.1960507e-38 307 251
-0.01428616 0.67900002 -0.013095647 1.1684649e-38 308 251
-0.013076359 0.67799997 -0.013076359 1.1592453e-38 309 251
-0.011887599 0.67799997 -0.013076359 1.1225838e-38 310 251
-0.010698839 0.67799997 -0.013076359 1.1133643e-38 311 251
-0.0094820261 0.676 -0.013037786 1.0950696e-38 312 251
-0.0082967728 0.676 -0.013037786 1.0950696e-38 313 251
-0.0071325595 0.67799997 -0.013076359 1.0675198e-38 314 251
-0.0059437994 0.67799997 -0.013076359 1.0675198e-38 315 251
-0.0047410131 0.676 -0.013037786 1.0675201e-38 316 251
-0.0035557596 0.676 -0.013037786 1.0859592e-38 317 251
-0.0023775198 0.67799997 -0.013076359 1.0767397e-38 318 251
-0.0011887599 0.67799997 -0.013076359 1.049081e-38 319 251
0 0.67799997 -0.013076359 1.0582284e-38 320 251
0.0011905134 0.67900002 -0.013095647 1.0397891e-38 321 251
0.0023810267 0.67900002 -0.013095647 1.0856696e-38 322 251
0.0035767998 0.68000001 -0.013114933 1.0856696e-38 323 251
0.0047690663 0.68000001 -0.013114933 1.0856333e-38 324 251
0.0059613334 0.68000001 -0.013114933 1.0671583e-38 325 251
0.0071535995 0.68000001 -0.013114933 1.0304598e-38 326 251
0.0083458666 0.68000001 -0.013114933 1.0396794e-38 327 251
0.0095381327 0.68000001 -0.013114933 1.0030885e-38 328 251
0.0107304 0.68000001 -0.013114933 1.0123081e-38 329 251
0.011922667 0.68000001 -0.013114933 1.0581907e-38 330 251
0.013114933 0.68000001 -0.013114933 1.0674104e-38 331 251
0.01434928 0.68199998 -0.013153506 1.1041816e-38 332 251
0.015567848 0.68300003 -0.013172794 1.1687185e-38 333 251
0.016789921 0.68400002 -0.01319208 1.1598231e-38 334 251
0.0179892 0.68400002 -0.01319208 1.1967012e-38 335 251
0.019244585 0.68599999 -0.013230653 1.2426196e-38 336 251
0.020447372 0.68599999 -0.013230653 1.2518392e-38 337 251
0.021713281 0.68800002 -0.013269227 1.2244675e-38 338 251
0.022919573 0.68800002 -0.013269227 1.2060285e-38 339 251
0.024195999 0.69 -0.0133078 1.2610198e-38 340 251
0.025626717 0.69599998 -0.013423519 1.1134709e-38 341 251
-0.041610107 0.69800001 -0.01468592 1.2054157e-38 286 252
-0.040328421 0.69700003 -0.01466488 1.2514777e-38 287 252
-0.038938027 0.69400001 -0.01460176 1.2698089e-38 288 252
-0.037666857 0.69300002 -0.014580719 1.2698089e-38 289 252
-0.036346599 0.69099998 -0.014538639 1.2516555e-38 290 252
-0.035084199 0.69 -0.014517599 1.2700946e-38 291 252
-0.033776212 0.68800002 -0.014475521 1.297681e-38 292 252
-0.032522578 0.68699998 -0.014454478 1.297681e-38 293 252
-0.031318039 0.68699998 -0.014454478 1.3070104e-38 294 252
-0.030069664 0.68599999 -0.01443344 1.2793157e-38 295 252
-0.02886688 0.68599999 -0.01443344 1.2883555e-38 296 252
-0.027664091 0.68599999 -0.01443344 1.2607328e-38 297 252
-0.026345588 0.68300003 -0.014370319 1.2515126e-38 298 252
-0.02514806 0.68300003 -0.014370319 1.242293e-38 299 252
-0.023915464 0.68199998 -0.01434928 1.2423636e-38 300 252
-0.022719691 0.68199998 -0.01434928 1.233144e-38 301 252
-0.021523919 0.68199998 -0.01434928 1.2055224e-38 302 252
-0.020268533 0.68000001 -0.014307199 1.1963028e-38 303 252
-0.019076265 0.68000001 -0.014307199 1.1870482e-38 304 252
-0.017857701 0.67900002 -0.01428616 1.1593895e-38 305 252
-0.016667187 0.67900002 -0.01428616 1.1501702e-38 306 252
-0.015453878 0.67799997 -0.014265119 1.1409507e-38 307 252
-0.014265119 0.67799997 -0.014265119 1.1132564e-38 308 252
-0.013037786 0.676 -0.014223038 1.1224759e-38 309 252
-0.011852534 0.676 -0.014223038 1.0674104e-38 310 252
-0.01066728 0.676 -0.014223038 1.0766299e-38 311 252
-0.0094820261 0.676 -0.014223038 1.0583709e-38 312 252
-0.0082967728 0.676 -0.014223038 1.0491513e-38 313 252
-0.0071115191 0.676 -0.014223038 1.0400043e-38 314 252
-0.0059262668 0.676 -0.014223038 1.0400043e-38 315 252
-0.0047410131 0.676 -0.014223038 1.0675198e-38 316 252
-0.0035557596 0.676 -0.014223038 1.0675198e-38 317 252
-0.0023705065 0.676 -0.014223038 1.039969e-38 318 252
-0.0011887599 0.67799997 -0.014265119 1.0307495e-38 319 252
0 0.67799997 -0.014265119 1.0123099e-38 320 252
0.0011887599 0.67799997 -0.014265119 1.0030904e-38 321 252
0.0023775198 0.67799997 -0.014265119 1.0397523e-38 322 252
0.0035715401 0.67900002 -0.01428616 1.0397523e-38 323 252
0.0047690663 0.68000001 -0.014307199 1.048792e-38 324 252
0.0059613334 0.68000001 -0.014307199 1.0395725e-38 325 252
0.0071535995 0.68000001 -0.014307199 1.0120933e-38 326 252
0.0083458666 0.68000001 -0.014307199 1.0213128e-38 327 252
0.0095381327 0.68000001 -0.014307199 1.0397876e-38 328 252
0.0107304 0.68000001 -0.014307199 1.0581907e-38 329 252
0.011922667 0.68000001 -0.014307199 1.0490792e-38 330 252
0.013114933 0.68000001 -0.014307199 1.0582987e-38 331 252
0.01434928 0.68199998 -0.01434928 1.0768103e-38 332 252
0.015567848 0.68300003 -0.014370319 1.1228722e-38 333 252
0.016789921 0.68400002 -0.01439136 1.1322372e-38 334 252
0.0179892 0.68400002 -0.01439136 1.1414568e-38 335 252
0.019244585 0.68599999 -0.01443344 1.1597896e-38 336 252
0.020447372 0.68599999 -0.01443344 1.1690091e-38 337 252
0.021713281 0.68800002 -0.014475521 1.1417085e-38 338 252
0.022919573 0.68800002 -0.014475521 1.1693313e-38 339 252
0.024195999 0.69 -0.014517599 1.2060261e-38 340 252
0.02551626 0.69300002 -0.014580719 1.0677327e-38 341 252
0.026847038 0.69599998 -0.014643839 1.2059935e-38 342 252
-0.041550495 0.69700003 -0.015886955 1.2239985e-38 286 253
-0.040270556 0.69599998 -0.015864158 1.2239985e-38 287 253
-0.038938027 0.69400001 -0.015818574 1.2237101e-38 288 253
-0.037666857 0.69300002 -0.015795778 1.2237101e-38 289 253
-0.036346599 0.69099998 -0.015750192 1.1137583e-38 290 253
-0.03498251 0.68800002 -0.015681813 1.1229779e-38 291 253
-0.033727121 0.68699998 -0.015659019 1.2695558e-38 292 253
-0.032522578 0.68699998 -0.015659019 1.324873e-38 293 253
-0.03118128 0.68400002 -0.01559064 1.2882823e-38 294 253
-0.029938167 0.68300003 -0.015567848 1.3251246e-38 295 253
-0.028740639 0.68300003 -0.015567848 1.2698072e-38 296 253
-0.027543113 0.68300003 -0.015567848 1.2513681e-38 297 253
-0.026307013 0.68199998 -0.015545053 1.2238889e-38 298 253
-0.025111238 0.68199998 -0.015545053 1.2054858e-38 299 253
-0.023915464 0.68199998 -0.015545053 1.1870815e-38 300 253
-0.022653066 0.68000001 -0.015499466 1.177862e-38 301 253
-0.0214608 0.68000001 -0.015499466 1.1960141e-38 302 253
-0.020268533 0.68000001 -0.015499466 1.1867946e-38 303 253
-0.019076265 0.68000001 -0.015499466 1.1500608e-38 304 253
-0.017857701 0.67900002 -0.015476674 1.1500608e-38 305 253
-0.016667187 0.67900002 -0.015476674 1.1407703e-38 306 253
-0.015453878 0.67799997 -0.015453878 1.1407703e-38 307 253
-0.014265119 0.67799997 -0.015453878 1.0948531e-38 308 253
-0.013037786 0.676 -0.015408293 1.0948531e-38 309 253
-0.011852534 0.676 -0.015408293 1.0490794e-38 310 253
-0.01066728 0.676 -0.015408293 1.0490794e-38 311 253
-0.0094820261 0.676 -0.015408293 1.0491513e-38 312 253
-0.0082967728 0.676 -0.015408293 1.0398959e-38 313 253
-0.0071115191 0.676 -0.015408293 1.0401113e-38 314 253
-0.0059262668 0.676 -0.015408293 1.0401113e-38 315 253
-0.0047410131 0.676 -0.015408293 1.0676976e-38 316 253
-0.0035557596 0.676 -0.015408293 1.0492945e-38 317 253
-0.0023705065 0.676 -0.015408293 1.0216368e-38 318 253
-0.0011852533 0.676 -0.015408293 9.9401401e-39 319 253
0 0.676 -0.015408293 9.9401513e-39 320 253
0.0011852533 0.676 -0.015408293 9.5717275e-39 321 253
0.0023775198 0.67799997 -0.015453878 1.0212778e-38 322 253
0.0035662798 0.67799997 -0.015453878 1.0120582e-38 323 253
0.0047620535 0.67900002 -0.015476674 1.0486841e-38 324 253
0.0059525664 0.67900002 -0.015476674 1.0302809e-38 325 253
0.0071430802 0.67900002 -0.015476674 1.0304601e-38 326 253
0.0083335936 0.67900002 -0.015476674 1.0304601e-38 327 253
0.009524107 0.67900002 -0.015476674 1.0488992e-38 328 253
0.0107304 0.68000001 -0.015499466 1.0581188e-38 329 253
0.011922667 0.68000001 -0.015499466 1.0214929e-38 330 253
0.013114933 0.68000001 -0.015499466 1.0398962e-38 331 253
0.01434928 0.68199998 -0.015545053 1.076523e-38 332 253
0.015567848 0.68300003 -0.015567848 1.14106e-38 333 253
0.016789921 0.68400002 -0.01559064 1.1503517e-38 334 253
0.0179892 0.68400002 -0.01559064 1.1964495e-38 335 253
0.019244585 0.68599999 -0.015636226 1.1413133e-38 336 253
0.020447372 0.68599999 -0.015636226 1.1505329e-38 337 253
0.021681719 0.68699998 -0.015659019 1.1414931e-38 338 253
0.022886258 0.68699998 -0.015659019 1.1507485e-38 339 253
0.024125867 0.68800002 -0.015681813 1.2058836e-38 340 253
0.025442619 0.69099998 -0.015750192 1.1321271e-38 341 253
0.026654173 0.69099998 -0.015750192 1.1782272e-38 342 253
-0.046705291 0.70099998 -0.017207211 1.7886322e-38 282 254
-0.042772565 0.69700003 -0.017109027 8.9368076e-39 285 254
-0.041550495 0.69700003 -0.017109027 1.224069e-38 286 254
-0.040154841 0.69400001 -0.017035386 1.1687517e-38 287 254
-0.038938027 0.69400001 -0.017035386 1.1502421e-38 288 254
-0.03755815 0.69099998 -0.016961746 1.1410225e-38 289 254
-0.036293998 0.69 -0.0169372 1.0950346e-38 290 254
-0.03498251 0.68800002 -0.016888106 1.1042542e-38 291 254
-0.033727121 0.68699998 -0.01686356 1.1501369e-38 292 254
-0.032522578 0.68699998 -0.01686356 1.1870151e-38 293 254
-0.03118128 0.68400002 -0.016789921 1.2147437e-38 294 254
-0.029938167 0.68300003 -0.016765373 1.2147437e-38 295 254
-0.028740639 0.68300003 -0.016765373 1.2147422e-38 296 254
-0.027543113 0.68300003 -0.016765373 1.1963031e-38 297 254
-0.026307013 0.68199998 -0.016740825 1.1687517e-38 298 254
-0.025111238 0.68199998 -0.016740825 1.1503125e-38 299 254
-0.023845334 0.68000001 -0.016691733 1.1685365e-38 300 254
-0.022653066 0.68000001 -0.016691733 1.1409138e-38 301 254
-0.021429239 0.67900002 -0.016667187 1.1224038e-38 302 254
-0.020238725 0.67900002 -0.016667187 1.1316592e-38 303 254
-0.019048214 0.67900002 -0.016667187 1.0949252e-38 304 254
-0.0178314 0.67799997 -0.016642639 1.0856696e-38 305 254
-0.016642639 0.67799997 -0.016642639 1.0856345e-38 306 254
-0.015408293 0.676 -0.016593546 1.0856345e-38 307 254
-0.014223038 0.676 -0.016593546 1.0580838e-38 308 254
-0.013037786 0.676 -0.016593546 1.0673033e-38 309 254
-0.011852534 0.676 -0.016593546 1.0490438e-38 310 254
-0.01066728 0.676 -0.016593546 1.0490438e-38 311 254
-0.0094820261 0.676 -0.016593546 1.0399315e-38 312 254
-0.0082967728 0.676 -0.016593546 1.0583706e-38 313 254
-0.0071115191 0.676 -0.016593546 1.0492943e-38 314 254
-0.0059262668 0.676 -0.016593546 1.0492943e-38 315 254
-0.0047410131 0.676 -0.016593546 1.0676258e-38 316 254
-0.0035557596 0.676 -0.016593546 1.0676258e-38 317 254
-0.0023705065 0.676 -0.016593546 1.0216012e-38 318 254
-0.0011852533 0.676 -0.016593546 9.9397842e-39 319 254
0 0.676 -0.016593546 9.6639203e-39 320 254
0.0011852533 0.676 -0.016593546 9.5717247e-39 321 254
0.0023705065 0.676 -0.016593546 1.0120582e-38 322 254
0.0035557596 0.676 -0.016593546 1.0028387e-38 323 254
0.0047550397 0.67799997 -0.016642639 1.0027667e-38 324 254
0.0059437994 0.67799997 -0.016642639 1.0027667e-38 325 254
0.0071430802 0.67900002 -0.016667187 9.753595e-39 326 254
0.0083335936 0.67900002 -0.016667187 9.753595e-39 327 254
0.009524107 0.67900002 -0.016667187 9.6617693e-39 328 254
0.0107304 0.68000001 -0.016691733 9.6617693e-39 329 254
0.011922667 0.68000001 -0.016691733 9.3873517e-39 330 254
0.013114933 0.68000001 -0.016691733 9.4795473e-39 331 254
0.01434928 0.68199998 -0.016740825 9.5710395e-39 332 254
0.015567848 0.68300003 -0.016765373 9.8476278e-39 333 254
0.016765373 0.68300003 -0.016765373 1.0585546e-38 334 254
0.0179892 0.68400002 -0.016789921 1.0954328e-38 335 254
0.019244585 0.68599999 -0.016839013 1.0678814e-38 336 254
0.020447372 0.68599999 -0.016839013 1.0771011e-38 337 254
0.021681719 0.68699998 -0.01686356 1.0864634e-38 338 254
0.022886258 0.68699998 -0.01686356 1.1233057e-38 339 254
0.024125867 0.68800002 -0.016888106 1.1784044e-38 340 254
0.025405798 0.69 -0.0169372 1.1323426e-38 341 254
0.02673132 0.69300002 -0.01701084 1.1414568e-38 342 254
0.027986705 0.69400001 -0.017035386 1.4180077e-38 343 254
-0.046705291 0.70099998 -0.018436298 1.8071067e-38 282 255
-0.04541133 0.69999999 -0.018409999 1.4659828e-38 283 255
-0.04405776 0.69800001 -0.0183574 1.2341205e-38 284 255
-0.042772565 0.69700003 -0.018331099 9.8519241e-39 285 255
-0.041490879 0.69599998 -0.018304799 1.1871185e-38 286 255
-0.040154841 0.69400001 -0.0182522 1.1594599e-38 287 255
-0.03888192 0.69300002 -0.018225901 1.1408785e-38 288 255
-0.03755815 0.69099998 -0.0181733 1.1316589e-38 289 255
-0.036293998 0.69 -0.018146999 1.0856701e-38 290 255
-0.03498251 0.68800002 -0.0180944 1.0856701e-38 291 255
-0.033727121 0.68699998 -0.018068098 1.1499904e-38 292 255
-0.032380559 0.68400002 -0.0179892 1.2053078e-38 293 255
-0.031135695 0.68300003 -0.017962901 1.2237451e-38 294 255
-0.029938167 0.68300003 -0.017962901 1.2421482e-38 295 255
-0.02869856 0.68199998 -0.017936599 1.2238526e-38 296 255
-0.027502786 0.68199998 -0.017936599 1.2053775e-38 297 255
-0.026307013 0.68199998 -0.017936599 1.177827e-38 298 255
-0.025111238 0.68199998 -0.017936599 1.159352e-38 299 255
-0.023845334 0.68000001 -0.017883999 1.1408059e-38 300 255
-0.022619752 0.67900002 -0.017857701 1.1408059e-38 301 255
-0.021429239 0.67900002 -0.017857701 1.1131475e-38 302 255
-0.020208918 0.67799997 -0.0178314 1.1315506e-38 303 255
-0.019020159 0.67799997 -0.0178314 1.0764856e-38 304 255
-0.017778801 0.676 -0.017778801 1.0580466e-38 305 255
-0.016593546 0.676 -0.017778801 1.0580116e-38 306 255
-0.015408293 0.676 -0.017778801 1.0764147e-38 307 255
-0.014223038 0.676 -0.017778801 1.058191e-38 308 255
-0.013037786 0.676 -0.017778801 1.0674107e-38 309 255
-0.011852534 0.676 -0.017778801 1.0582987e-38 310 255
-0.01066728 0.676 -0.017778801 1.0582987e-38 311 255
-0.0094820261 0.676 -0.017778801 1.0584062e-38 312 255
-0.0082967728 0.676 -0.017778801 1.0676258e-38 313 255
-0.0071115191 0.676 -0.017778801 1.0492945e-38 314 255
-0.0059262668 0.676 -0.017778801 1.0492945e-38 315 255
-0.0047410131 0.676 -0.017778801 1.0492592e-38 316 255
-0.0035557596 0.676 -0.017778801 1.0307842e-38 317 255
-0.0023705065 0.676 -0.017778801 1.0031981e-38 318 255
