# .PCD v.7 - Point Cloud Data file format
FIELDS x y z rgb imX imY
SIZE 4 4 4 4 4 4
TYPE F F F F F F
COUNT 1 1 1 1 1 1
WIDTH 855
HEIGHT 1
VIEWPOINT 0 0 0 1 0 0 0
POINTS 855
DATA ascii
-0.0026685731 0.76099998 0.0093400059 1.4359784e-38 318 233
-0.0013342865 0.76099998 0.0093400059 1.4820762e-38 319 233
0 0.76099998 0.0093400059 1.4910436e-38 320 233
0.0013342865 0.76099998 0.0093400059 1.4449817e-38 321 233
0.00267208 0.76200002 0.0093522798 1.4262902e-38 322 233
0.0040028598 0.76099998 0.0093400059 1.3986315e-38 323 233
0.0053371461 0.76099998 0.0093400059 1.3800141e-38 324 233
0.0066714329 0.76099998 0.0093400059 1.3154772e-38 325 233
0.0080057196 0.76099998 0.0093400059 1.2968595e-38 326 233
0.0093522798 0.76200002 0.0093522798 1.2876041e-38 327 233
0.01068832 0.76200002 0.0093522798 1.2233912e-38 328 233
0.01202436 0.76200002 0.0093522798 1.2326107e-38 329 233
0.0133604 0.76200002 0.0093522798 1.205275e-38 330 233
0.01469644 0.76200002 0.0093522798 1.205275e-38 331 233
0.016074561 0.764 0.0093768267 1.205095e-38 332 233
0.017459691 0.76599997 0.0094013726 1.205095e-38 333 233
0.018802745 0.76599997 0.0094013726 1.1682904e-38 334 233
0.020172099 0.76700002 0.0094136465 1.1867297e-38 335 233
0.021573013 0.76899999 0.0094381925 1.1134051e-38 336 233
-0.0406598 0.773 0.0081319595 1.6303079e-38 290 234
-0.03920278 0.77100003 0.0081109209 1.5934295e-38 291 234
-0.037850961 0.77100003 0.0081109209 1.7036627e-38 292 234
-0.036404461 0.76899999 0.0080898795 1.6851875e-38 293 234
-0.035056144 0.76899999 0.0080898795 1.7128442e-38 294 234
-0.033707831 0.76899999 0.0080898795 1.7128442e-38 295 234
-0.03227536 0.76700002 0.00806884 1.7128089e-38 296 234
-0.030890226 0.76599997 0.0080583189 1.7035894e-38 297 234
-0.029547172 0.76599997 0.0080583189 1.6944075e-38 298 234
-0.028204117 0.76599997 0.0080583189 1.7036271e-38 299 234
-0.026790932 0.764 0.0080372803 1.7128119e-38 300 234
-0.025451386 0.764 0.0080372803 1.7128119e-38 301 234
-0.024017159 0.76099998 0.0080057196 1.721781e-38 302 234
-0.022682872 0.76099998 0.0080057196 1.7125613e-38 303 234
-0.021348584 0.76099998 0.0080057196 1.7216011e-38 304 234
-0.020014299 0.76099998 0.0080057196 1.703162e-38 305 234
-0.018680012 0.76099998 0.0080057196 1.7306762e-38 306 234
-0.017345725 0.76099998 0.0080057196 1.7398958e-38 307 234
-0.016011439 0.76099998 0.0080057196 1.6939419e-38 308 234
-0.014638579 0.759 0.0079846792 1.6294049e-38 309 234
-0.0133078 0.759 0.0079846792 1.4731754e-38 310 234
-0.01197702 0.759 0.0079846792 1.2150278e-38 311 234
-0.01064624 0.759 0.0079846792 1.0398942e-38 312 234
-0.0093400059 0.76099998 0.0080057196 1.1321258e-38 313 234
-0.0080057196 0.76099998 0.0080057196 1.1231619e-38 314 234
-0.0066538998 0.759 0.0079846792 1.1231619e-38 315 234
-0.0053231199 0.759 0.0079846792 1.2793187e-38 316 234
-0.0040028598 0.76099998 0.0080057196 1.3622587e-38 317 234
-0.0026685731 0.76099998 0.0080057196 1.4450532e-38 318 234
-0.00133078 0.759 0.0079846792 1.4635282e-38 319 234
0 0.759 0.0079846792 1.4818228e-38 320 234
0.0013342865 0.76099998 0.0080057196 1.435689e-38 321 234
0.0026685731 0.76099998 0.0080057196 1.4171778e-38 322 234
0.0040028598 0.76099998 0.0080057196 1.3802997e-38 323 234
0.0053371461 0.76099998 0.0080057196 1.343386e-38 324 234
0.0066714329 0.76099998 0.0080057196 1.2972883e-38 325 234
0.0080057196 0.76099998 0.0080057196 1.2694148e-38 326 234
0.0093400059 0.76099998 0.0080057196 1.2601953e-38 327 234
0.01068832 0.76200002 0.0080162399 1.1958384e-38 328 234
0.01202436 0.76200002 0.0080162399 1.1958384e-38 329 234
0.0133604 0.76200002 0.0080162399 1.1959819e-38 330 234
0.01469644 0.76200002 0.0080162399 1.1775788e-38 331 234
0.016074561 0.764 0.0080372803 1.1774709e-38 332 234
0.017459691 0.76599997 0.0080583189 1.1498482e-38 333 234
0.018802745 0.76599997 0.0080583189 1.1497776e-38 334 234
0.020172099 0.76700002 0.00806884 1.140558e-38 335 234
0.021516906 0.76700002 0.00806884 1.1130801e-38 336 234
0.022861714 0.76700002 0.00806884 1.1407747e-38 337 234
0.02442744 0.77399999 0.0081424797 1.1228432e-38 338 234
-0.042069476 0.77399999 0.0067853997 1.3275795e-38 289 235
-0.0406598 0.773 0.0067766332 1.6301983e-38 290 235
-0.039304473 0.773 0.0067766332 1.6301983e-38 291 235
-0.037850961 0.77100003 0.0067590997 1.7036977e-38 292 235
-0.036404461 0.76899999 0.0067415666 1.6852226e-38 293 235
-0.035056144 0.76899999 0.0067415666 1.694513e-38 294 235
-0.033620168 0.76700002 0.006724033 1.694513e-38 295 235
-0.03227536 0.76700002 0.006724033 1.6852944e-38 296 235
-0.030890226 0.76599997 0.0067152665 1.69455e-38 297 235
-0.029547172 0.76599997 0.0067152665 1.6761482e-38 298 235
-0.028204117 0.76599997 0.0067152665 1.6853677e-38 299 235
-0.026790932 0.764 0.006697733 1.7128119e-38 300 235
-0.025451386 0.764 0.006697733 1.7035923e-38 301 235
-0.024017159 0.76099998 0.0066714329 1.7126687e-38 302 235
-0.022682872 0.76099998 0.0066714329 1.6850458e-38 303 235
-0.021348584 0.76099998 0.0066714329 1.7033052e-38 304 235
-0.020014299 0.76099998 0.0066714329 1.6940856e-38 305 235
-0.01863092 0.759 0.0066538998 1.7124169e-38 306 235
-0.017300138 0.759 0.0066538998 1.7216364e-38 307 235
-0.015969358 0.759 0.0066538998 1.6939419e-38 308 235
-0.014638579 0.759 0.0066538998 1.6386603e-38 309 235
-0.013272733 0.75700003 0.0066363667 1.5742666e-38 310 235
-0.01194546 0.75700003 0.0066363667 1.4451927e-38 311 235
-0.010618187 0.75700003 0.0066363667 1.3435264e-38 312 235
-0.00931546 0.759 0.0066538998 1.352746e-38 313 235
-0.0079846792 0.759 0.0066538998 1.307047e-38 314 235
-0.0066538998 0.759 0.0066538998 1.3439254e-38 315 235
-0.0053231199 0.759 0.0066538998 1.3990275e-38 316 235
-0.0039923396 0.759 0.0066538998 1.4175025e-38 317 235
-0.00266156 0.759 0.0066538998 1.4174669e-38 318 235
-0.00133078 0.759 0.0066538998 1.4082474e-38 319 235
0 0.759 0.0066538998 1.4265423e-38 320 235
0.00133078 0.759 0.0066538998 1.4080673e-38 321 235
0.00266156 0.759 0.0066538998 1.3896268e-38 322 235
0.0039923396 0.759 0.0066538998 1.3527487e-38 323 235
0.0053371461 0.76099998 0.0066714329 1.3525687e-38 324 235
0.0066714329 0.76099998 0.0066714329 1.3064711e-38 325 235
0.0080057196 0.76099998 0.0066714329 1.2787772e-38 326 235
0.0093400059 0.76099998 0.0066714329 1.2326794e-38 327 235
0.010674292 0.76099998 0.0066714329 1.1775791e-38 328 235
0.01202436 0.76200002 0.0066801999 1.1683595e-38 329 235
0.0133604 0.76200002 0.0066801999 1.1500643e-38 330 235
0.01469644 0.76200002 0.0066801999 1.1408447e-38 331 235
0.016074561 0.764 0.006697733 1.1224053e-38 332 235
0.017459691 0.76599997 0.0067152665 1.1131858e-38 333 235
0.018802745 0.76599997 0.0067152665 1.0580137e-38 334 235
0.020172099 0.76700002 0.006724033 1.0580137e-38 335 235
0.021516906 0.76700002 0.006724033 9.9391003e-39 336 235
0.022861714 0.76700002 0.006724033 1.0492274e-38 337 235
0.024395877 0.773 0.0067766332 1.0587379e-38 338 235
0.025784519 0.77399999 0.0067853997 1.0126401e-38 339 235
-0.042015124 0.773 0.0054213065 1.3456574e-38 289 236
-0.040554602 0.77100003 0.0054072798 1.639381e-38 290 236
-0.039101087 0.76899999 0.0053932532 1.639381e-38 291 236
-0.03775277 0.76899999 0.0053932532 1.6944791e-38 292 236
-0.036404461 0.76899999 0.0053932532 1.6852594e-38 293 236
-0.035056144 0.76899999 0.0053932532 1.6944424e-38 294 236
-0.033620168 0.76700002 0.0053792265 1.7036621e-38 295 236
-0.03227536 0.76700002 0.0053792265 1.6945147e-38 296 236
-0.030890226 0.76599997 0.0053722127 1.6945147e-38 297 236
-0.029547172 0.76599997 0.0053722127 1.6853324e-38 298 236
-0.028130481 0.764 0.0053581866 1.694552e-38 299 236
-0.0267208 0.76200002 0.0053441599 1.7127766e-38 300 236
-0.025351444 0.76099998 0.0053371461 1.7127766e-38 301 236
-0.024017159 0.76099998 0.0053371461 1.7218166e-38 302 236
-0.02262326 0.759 0.0053231199 1.7033415e-38 303 236
-0.02129248 0.759 0.0053231199 1.69405e-38 304 236
-0.020014299 0.76099998 0.0053371461 1.69405e-38 305 236
-0.01863092 0.759 0.0053231199 1.69405e-38 306 236
-0.017300138 0.759 0.0053231199 1.7217086e-38 307 236
-0.015969358 0.759 0.0053231199 1.6939068e-38 308 236
-0.014600007 0.75700003 0.0053090933 1.6478449e-38 309 236
-0.013272733 0.75700003 0.0053090933 1.6476644e-38 310 236
-0.01194546 0.75700003 0.0053090933 1.6108222e-38 311 236
-0.010618187 0.75700003 0.0053090933 1.5648315e-38 312 236
-0.0092909131 0.75700003 0.0053090933 1.5187339e-38 313 236
-0.0079636406 0.75700003 0.0053090933 1.4820013e-38 314 236
-0.0066363667 0.75700003 0.0053090933 1.5096959e-38 315 236
-0.0053090933 0.75700003 0.0053090933 1.4728549e-38 316 236
-0.0039923396 0.759 0.0053231199 1.4175376e-38 317 236
-0.00266156 0.759 0.0053231199 1.4173227e-38 318 236
-0.0013272733 0.75700003 0.0053090933 1.4080673e-38 319 236
0 0.75700003 0.0053090933 1.4079957e-38 320 236
0.0013272733 0.75700003 0.0053090933 1.398776e-38 321 236
0.0026545466 0.75700003 0.0053090933 1.3620051e-38 322 236
0.0039923396 0.759 0.0053231199 1.3343464e-38 323 236
0.0053231199 0.759 0.0053231199 1.3340946e-38 324 236
0.0066538998 0.759 0.0053231199 1.306436e-38 325 236
0.0079846792 0.759 0.0053231199 1.2511905e-38 326 236
0.00931546 0.759 0.0053231199 1.2327514e-38 327 236
0.010674292 0.76099998 0.0053371461 1.186726e-38 328 236
0.01202436 0.76200002 0.0053441599 1.186726e-38 329 236
0.0133604 0.76200002 0.0053441599 1.1592115e-38 330 236
0.01469644 0.76200002 0.0053441599 1.1408084e-38 331 236
0.016074561 0.764 0.0053581866 1.1224409e-38 332 236
0.017459691 0.76599997 0.0053722127 1.0855627e-38 333 236
0.018827293 0.76700002 0.0053792265 1.0304977e-38 334 236
0.020172099 0.76700002 0.0053792265 1.0212781e-38 335 236
0.021516906 0.76700002 0.0053792265 1.0029847e-38 336 236
0.022861714 0.76700002 0.0053792265 1.0306794e-38 337 236
0.02433276 0.77100003 0.0054072798 9.8501641e-39 338 236
0.025751207 0.773 0.0054213065 8.7438166e-39 339 236
-0.043426558 0.77399999 0.0040712398 1.6035518e-38 288 237
-0.042015124 0.773 0.0040659797 1.3822823e-38 289 237
-0.040554602 0.77100003 0.0040554604 1.6577113e-38 290 237
-0.039101087 0.76899999 0.0040449398 1.6577113e-38 291 237
-0.03775277 0.76899999 0.0040449398 1.6851878e-38 292 237
-0.036309779 0.76700002 0.00403442 1.6851878e-38 293 237
-0.034964975 0.76700002 0.00403442 1.6852231e-38 294 237
-0.033620168 0.76700002 0.00403442 1.6852231e-38 295 237
-0.032233275 0.76599997 0.0040291594 1.6944075e-38 296 237
-0.030890226 0.76599997 0.0040291594 1.7036271e-38 297 237
-0.029470026 0.764 0.0040186401 1.7036642e-38 298 237
-0.028020019 0.76099998 0.0040028598 1.7128838e-38 299 237
-0.026685731 0.76099998 0.0040028598 1.7218885e-38 300 237
-0.025351444 0.76099998 0.0040028598 1.7218885e-38 301 237
-0.023954039 0.759 0.0039923396 1.7125613e-38 302 237
-0.02262326 0.759 0.0039923396 1.6941222e-38 303 237
-0.02129248 0.759 0.0039923396 1.7031617e-38 304 237
-0.0199617 0.759 0.0039923396 1.7031617e-38 305 237
-0.01863092 0.759 0.0039923396 1.703162e-38 306 237
-0.017300138 0.759 0.0039923396 1.7123815e-38 307 237
-0.015927281 0.75700003 0.0039818203 1.6937635e-38 308 237
-0.014600007 0.75700003 0.0039818203 1.6752885e-38 309 237
-0.013237666 0.755 0.0039712996 1.6293702e-38 310 237
-0.011913899 0.755 0.0039712996 1.6017473e-38 311 237
-0.010590133 0.755 0.0039712996 1.5740881e-38 312 237
-0.0092909131 0.75700003 0.0039818203 1.5372098e-38 313 237
-0.0079636406 0.75700003 0.0039818203 1.5004042e-38 314 237
-0.0066363667 0.75700003 0.0039818203 1.4911846e-38 315 237
-0.0053090933 0.75700003 0.0039818203 1.4265773e-38 316 237
-0.0039818203 0.75700003 0.0039818203 1.37126e-38 317 237
-0.0026545466 0.75700003 0.0039818203 1.3527149e-38 318 237
-0.0013272733 0.75700003 0.0039818203 1.3619703e-38 319 237
0 0.75700003 0.0039818203 1.371082e-38 320 237
0.0013272733 0.75700003 0.0039818203 1.371082e-38 321 237
0.0026545466 0.75700003 0.0039818203 1.3525703e-38 322 237
0.0039923396 0.759 0.0039923396 1.3249476e-38 323 237
0.0053231199 0.759 0.0039923396 1.3338788e-38 324 237
0.0066538998 0.759 0.0039923396 1.3154757e-38 325 237
0.0079846792 0.759 0.0039923396 1.2512261e-38 326 237
0.00931546 0.759 0.0039923396 1.2420066e-38 327 237
0.010674292 0.76099998 0.0040028598 1.1776141e-38 328 237
0.01202436 0.76200002 0.0040081199 1.1683945e-38 329 237
0.013395466 0.764 0.0040186401 1.1408084e-38 330 237
0.014735013 0.764 0.0040186401 1.1315889e-38 331 237
0.016074561 0.764 0.0040186401 1.0947828e-38 332 237
0.017459691 0.76599997 0.0040291594 1.0670882e-38 333 237
0.018827293 0.76700002 0.00403442 9.8443655e-39 334 237
0.020172099 0.76700002 0.00403442 9.9365612e-39 335 237
0.021516906 0.76700002 0.00403442 9.6617876e-39 336 237
0.022861714 0.76700002 0.00403442 9.9387346e-39 337 237
0.024269639 0.76899999 0.0040449398 9.5721353e-39 338 237
0.02568458 0.77100003 0.0040554604 8.3735921e-39 339 237
0.027106533 0.773 0.0040659797 8.5688084e-39 340 237
-0.043370452 0.773 0.0027106532 1.5757479e-38 288 238
-0.04190642 0.77100003 0.0027036399 1.4005762e-38 289 238
-0.0404494 0.76899999 0.0026966266 1.6484912e-38 290 238
-0.039101087 0.76899999 0.0026966266 1.6392715e-38 291 238
-0.037654586 0.76700002 0.0026896133 1.6576017e-38 292 238
-0.036309779 0.76700002 0.0026896133 1.6576017e-38 293 238
-0.034964975 0.76700002 0.0026896133 1.6667131e-38 294 238
-0.033576332 0.76599997 0.0026861064 1.6759326e-38 295 238
-0.032233275 0.76599997 0.0026861064 1.6851528e-38 296 238
-0.030809574 0.764 0.0026790933 1.703592e-38 297 238
-0.029470026 0.764 0.0026790933 1.6761144e-38 298 238
-0.028020019 0.76099998 0.0026685731 1.6761144e-38 299 238
-0.026685731 0.76099998 0.0026685731 1.6942668e-38 300 238
-0.025284819 0.759 0.00266156 1.6942668e-38 301 238
-0.023954039 0.759 0.00266156 1.7033064e-38 302 238
-0.02262326 0.759 0.00266156 1.6848673e-38 303 238
-0.02129248 0.759 0.00266156 1.7031264e-38 304 238
-0.0199617 0.759 0.00266156 1.6939068e-38 305 238
-0.01863092 0.759 0.00266156 1.6755759e-38 306 238
-0.017300138 0.759 0.00266156 1.6755759e-38 307 238
-0.015927281 0.75700003 0.0026545466 1.6753606e-38 308 238
-0.014600007 0.75700003 0.0026545466 1.6477021e-38 309 238
-0.013237666 0.755 0.0026475333 1.6109317e-38 310 238
-0.011913899 0.755 0.0026475333 1.601712e-38 311 238
-0.010590133 0.755 0.0026475333 1.5647979e-38 312 238
-0.0092663663 0.755 0.0026475333 1.5463948e-38 313 238
-0.0079425992 0.755 0.0026475333 1.5187001e-38 314 238
-0.0066188332 0.755 0.0026475333 1.4818579e-38 315 238
-0.0052950666 0.755 0.0026475333 1.4540918e-38 316 238
-0.0039712996 0.755 0.0026475333 1.407958e-38 317 238
-0.0026545466 0.75700003 0.0026545466 1.3711167e-38 318 238
-0.0013272733 0.75700003 0.0026545466 1.3711167e-38 319 238
0 0.75700003 0.0026545466 1.3342393e-38 320 238
0.0013272733 0.75700003 0.0026545466 1.3342393e-38 321 238
0.0026545466 0.75700003 0.0026545466 1.324912e-38 322 238
0.0039818203 0.75700003 0.0026545466 1.3064729e-38 323 238
0.0053231199 0.759 0.00266156 1.287997e-38 324 238
0.0066538998 0.759 0.00266156 1.269522e-38 325 238
0.0079846792 0.759 0.00266156 1.2236751e-38 326 238
0.0093400059 0.76099998 0.0026685731 1.2144555e-38 327 238
0.010674292 0.76099998 0.0026685731 1.1592466e-38 328 238
0.01202436 0.76200002 0.00267208 1.1408435e-38 329 238
0.0133604 0.76200002 0.00267208 1.1040744e-38 330 238
0.01469644 0.76200002 0.00267208 1.0855992e-38 331 238
0.01603248 0.76200002 0.00267208 1.0855276e-38 332 238
0.017414106 0.764 0.0026790933 1.0578689e-38 333 238
0.018753653 0.764 0.0026790933 1.0027678e-38 334 238
0.020145798 0.76599997 0.0026861064 1.0120232e-38 335 238
0.021516906 0.76700002 0.0026896133 9.844381e-39 336 238
0.022861714 0.76700002 0.0026896133 1.0029131e-38 337 238
0.024269639 0.76899999 0.0026966266 9.3873881e-39 338 238
0.025617953 0.76899999 0.0026966266 8.2813993e-39 339 238
0.026966266 0.76899999 0.0026966266 8.1060324e-39 340 238
0.028461859 0.773 0.0027106532 1.4282779e-38 341 238
-0.043370452 0.773 0.0013553266 1.5294335e-38 288 239
-0.04190642 0.77100003 0.00135182 1.4188346e-38 289 239
-0.0404494 0.76899999 0.0013483133 1.6300156e-38 290 239
-0.038999394 0.76700002 0.0013448066 1.6207602e-38 291 239
-0.037654586 0.76700002 0.0013448066 1.6849724e-38 292 239
-0.036262438 0.76599997 0.0013430532 1.6849724e-38 293 239
-0.034919381 0.76599997 0.0013430532 1.6574569e-38 294 239
-0.033576332 0.76599997 0.0013430532 1.6482374e-38 295 239
-0.032149121 0.764 0.0013395466 1.6573495e-38 296 239
-0.030809574 0.764 0.0013395466 1.685008e-38 297 239
-0.029392879 0.76200002 0.00133604 1.6575667e-38 298 239
-0.028020019 0.76099998 0.0013342865 1.6667862e-38 299 239
-0.026685731 0.76099998 0.0013342865 1.703342e-38 300 239
-0.025284819 0.759 0.00133078 1.684867e-38 301 239
-0.023954039 0.759 0.00133078 1.6847954e-38 302 239
-0.02262326 0.759 0.00133078 1.6663563e-38 303 239
-0.02129248 0.759 0.00133078 1.6938704e-38 304 239
-0.0199617 0.759 0.00133078 1.6753954e-38 305 239
-0.01863092 0.759 0.00133078 1.6845433e-38 306 239
-0.017254554 0.75700003 0.0013272733 1.6845433e-38 307 239
-0.015927281 0.75700003 0.0013272733 1.6385544e-38 308 239
-0.014600007 0.75700003 0.0013272733 1.6109317e-38 309 239
-0.013237666 0.755 0.0013237667 1.5924572e-38 310 239
-0.011913899 0.755 0.0013237667 1.574018e-38 311 239
-0.010590133 0.755 0.0013237667 1.5464316e-38 312 239
-0.0092663663 0.755 0.0013237667 1.5372121e-38 313 239
-0.0079425992 0.755 0.0013237667 1.509589e-38 314 239
-0.0066188332 0.755 0.0013237667 1.4818944e-38 315 239
-0.0052950666 0.755 0.0013237667 1.4450165e-38 316 239
-0.0039712996 0.755 0.0013237667 1.4357969e-38 317 239
-0.0026475333 0.755 0.0013237667 1.3623641e-38 318 239
-0.0013237667 0.755 0.0013237667 1.279424e-38 319 239
0 0.755 0.0013237667 1.3160868e-38 320 239
0.0013237667 0.755 0.0013237667 1.269989e-38 321 239
0.0026545466 0.75700003 0.0013272733 1.3064726e-38 322 239
0.0039818203 0.75700003 0.0013272733 1.2880333e-38 323 239
0.0053231199 0.759 0.00133078 1.2695223e-38 324 239
0.0066538998 0.759 0.00133078 1.2695223e-38 325 239
0.0079846792 0.759 0.00133078 1.2052372e-38 326 239
0.0093400059 0.76099998 0.0013342865 1.1960175e-38 327 239
0.010674292 0.76099998 0.0013342865 1.1407728e-38 328 239
0.01202436 0.76200002 0.00133604 1.1315533e-38 329 239
0.0133604 0.76200002 0.00133604 1.0855992e-38 330 239
0.01469644 0.76200002 0.00133604 1.0763797e-38 331 239
0.01603248 0.76200002 0.00133604 1.0580122e-38 332 239
0.017414106 0.764 0.0013395466 1.0395372e-38 333 239
0.018753653 0.764 0.0013395466 9.9369143e-39 334 239
0.020145798 0.76599997 0.0013430532 9.8447187e-39 335 239
0.021488851 0.76599997 0.0013430532 9.8443711e-39 336 239
0.022861714 0.76700002 0.0013448066 9.9365668e-39 337 239
0.024269639 0.76899999 0.0013483133 9.3866454e-39 338 239
0.025617953 0.76899999 0.0013483133 8.8334716e-39 339 239
0.026966266 0.76899999 0.0013483133 7.3688149e-39 340 239
0.028461859 0.773 0.0013553266 1.2255182e-38 341 239
-0.043370452 0.773 -0 1.5107778e-38 288 240
-0.041797712 0.76899999 -0 1.46468e-38 289 240
-0.040344197 0.76700002 -0 1.6023932e-38 290 240
-0.038999394 0.76700002 -0 1.6023932e-38 291 240
-0.037654586 0.76700002 -0 1.6023213e-38 292 240
-0.036262438 0.76599997 -0 1.6023213e-38 293 240
-0.034919381 0.76599997 -0 1.6205439e-38 294 240
-0.033488665 0.764 -0 1.5928494e-38 295 240
-0.032149121 0.764 -0 1.5837027e-38 296 240
-0.030728921 0.76200002 -0 1.6113254e-38 297 240
-0.029354304 0.76099998 -0 1.6022159e-38 298 240
-0.028020019 0.76099998 -0 1.6022159e-38 299 240
-0.026685731 0.76099998 -0 1.6204397e-38 300 240
-0.025284819 0.759 -0 1.61122e-38 301 240
-0.023954039 0.759 -0 1.6112553e-38 302 240
-0.02262326 0.759 -0 1.6020357e-38 303 240
-0.02129248 0.759 -0 1.6202954e-38 304 240
-0.0199617 0.759 -0 1.6202954e-38 305 240
-0.01863092 0.759 -0 1.6294077e-38 306 240
-0.017254554 0.75700003 -0 1.6294077e-38 307 240
-0.015927281 0.75700003 -0 1.5926018e-38 308 240
-0.014600007 0.75700003 -0 1.5741625e-38 309 240
-0.013237666 0.755 -0 1.5648355e-38 310 240
-0.011913899 0.755 -0 1.5463963e-38 311 240
-0.010590133 0.755 -0 1.5188806e-38 312 240
-0.0092663663 0.755 -0 1.5188806e-38 313 240
-0.0079425992 0.755 -0 1.5370672e-38 314 240
-0.0066188332 0.755 -0 1.5001891e-38 315 240
-0.0052950666 0.755 -0 1.4726381e-38 316 240
-0.0039712996 0.755 -0 1.4634186e-38 317 240
-0.0026475333 0.755 -0 1.3898417e-38 318 240
-0.0013237667 0.755 -0 1.3345244e-38 319 240
0 0.755 -0 1.3250898e-38 320 240
0.0013237667 0.755 -0 1.2882117e-38 321 240
0.0026545466 0.75700003 -0 1.2788138e-38 322 240
0.0039818203 0.75700003 -0 1.2604107e-38 323 240
0.0053231199 0.759 -0 1.2419362e-38 324 240
0.0066538998 0.759 -0 1.2327167e-38 325 240
0.0079846792 0.759 -0 1.19591e-38 326 240
0.0093400059 0.76099998 -0 1.1866904e-38 327 240
0.010674292 0.76099998 -0 1.1224053e-38 328 240
0.012008579 0.76099998 -0 1.1131858e-38 329 240
0.0133604 0.76200002 -0 1.0765233e-38 330 240
0.01469644 0.76200002 -0 1.0580482e-38 331 240
0.01603248 0.76200002 -0 1.0212778e-38 332 240
0.01736852 0.76200002 -0 1.0212778e-38 333 240
0.01870456 0.76200002 -0 9.9369143e-39 334 240
0.020093199 0.764 -0 9.9369143e-39 335 240
0.021488851 0.76599997 -0 1.0027327e-38 336 240
0.022831906 0.76599997 -0 1.0119523e-38 337 240
0.024206521 0.76700002 -0 9.2029828e-39 338 240
0.025551327 0.76700002 -0 8.8342017e-39 339 240
0.026896132 0.76700002 -0 8.0098669e-39 340 240
0.02824094 0.76700002 -0 1.1421107e-38 341 240
-0.044725779 0.773 -0.0013553266 1.2539675e-38 287 241
-0.043258239 0.77100003 -0.00135182 1.5198175e-38 288 241
-0.041797712 0.76899999 -0.0013483133 1.4829394e-38 289 241
-0.040344197 0.76700002 -0.0013448066 1.5931013e-38 290 241
-0.038999394 0.76700002 -0.0013448066 1.5838818e-38 291 241
-0.037654586 0.76700002 -0.0013448066 1.583773e-38 292 241
-0.036262438 0.76599997 -0.0013430532 1.583773e-38 293 241
-0.034919381 0.76599997 -0.0013430532 1.5560783e-38 294 241
-0.033488665 0.764 -0.0013395466 1.5560783e-38 295 241
-0.032149121 0.764 -0.0013395466 1.6019246e-38 296 241
-0.030728921 0.76200002 -0.00133604 1.6111443e-38 297 241
-0.029354304 0.76099998 -0.0013342865 1.5837024e-38 298 241
-0.028020019 0.76099998 -0.0013342865 1.5744828e-38 299 241
-0.026685731 0.76099998 -0.0013342865 1.6018191e-38 300 241
-0.025284819 0.759 -0.00133078 1.6018191e-38 301 241
-0.023954039 0.759 -0.00133078 1.6018194e-38 302 241
-0.02262326 0.759 -0.00133078 1.5741607e-38 303 241
-0.02129248 0.759 -0.00133078 1.6107162e-38 304 241
-0.0199617 0.759 -0.00133078 1.6291912e-38 305 241
-0.018581826 0.75700003 -0.0013272733 1.6107887e-38 306 241
-0.017254554 0.75700003 -0.0013272733 1.6200082e-38 307 241
-0.015885198 0.755 -0.0013237667 1.5648708e-38 308 241
-0.014561433 0.755 -0.0013237667 1.5464316e-38 309 241
-0.013237666 0.755 -0.0013237667 1.5371045e-38 310 241
-0.011913899 0.755 -0.0013237667 1.5278849e-38 311 241
-0.010590133 0.755 -0.0013237667 1.5095181e-38 312 241
-0.0092663663 0.755 -0.0013237667 1.5279571e-38 313 241
-0.0079425992 0.755 -0.0013237667 1.4911862e-38 314 241
-0.0066188332 0.755 -0.0013237667 1.4635635e-38 315 241
-0.0052950666 0.755 -0.0013237667 1.4358685e-38 316 241
-0.0039712996 0.755 -0.0013237667 1.3990263e-38 317 241
-0.0026475333 0.755 -0.0013237667 1.3988107e-38 318 241
-0.0013237667 0.755 -0.0013237667 1.3343097e-38 319 241
0 0.75700003 -0.0013272733 1.3157996e-38 320 241
0.0013272733 0.75700003 -0.0013272733 1.2697018e-38 321 241
0.0026545466 0.75700003 -0.0013272733 1.2787785e-38 322 241
0.0039818203 0.75700003 -0.0013272733 1.2511558e-38 323 241
0.0053231199 0.759 -0.00133078 1.2326811e-38 324 241
0.0066538998 0.759 -0.00133078 1.2234614e-38 325 241
0.0079846792 0.759 -0.00133078 1.1683958e-38 326 241
0.00931546 0.759 -0.00133078 1.1591762e-38 327 241
0.01064624 0.759 -0.00133078 1.1041107e-38 328 241
0.012008579 0.76099998 -0.0013342865 1.0948911e-38 329 241
0.013342866 0.76099998 -0.0013342865 1.0490091e-38 330 241
0.01469644 0.76200002 -0.00133604 1.0305339e-38 331 241
0.01603248 0.76200002 -0.00133604 1.0304623e-38 332 241
0.01736852 0.76200002 -0.00133604 1.0120232e-38 333 241
0.01870456 0.76200002 -0.00133604 9.8443683e-39 334 241
0.020093199 0.764 -0.0013395466 9.936564e-39 335 241
0.021432746 0.764 -0.0013395466 9.7525356e-39 336 241
0.022831906 0.76599997 -0.0013430532 9.5685045e-39 337 241
0.024206521 0.76700002 -0.0013448066 9.0192922e-39 338 241
0.025551327 0.76700002 -0.0013448066 9.0192922e-39 339 241
0.026896132 0.76700002 -0.0013448066 8.653423e-39 340 241
0.02824094 0.76700002 -0.0013448066 1.0865758e-38 341 241
-0.044725779 0.773 -0.0027106532 1.2169082e-38 287 242
-0.043258239 0.77100003 -0.0027036399 1.5013059e-38 288 242
-0.041797712 0.76899999 -0.0026966266 1.4736831e-38 289 242
-0.040344197 0.76700002 -0.0026896133 1.5470405e-38 290 242
-0.038999394 0.76700002 -0.0026896133 1.5378209e-38 291 242
-0.037654586 0.76700002 -0.0026896133 1.5285647e-38 292 242
-0.036262438 0.76599997 -0.0026861064 1.5285647e-38 293 242
-0.034919381 0.76599997 -0.0026861064 1.5375689e-38 294 242
-0.033488665 0.764 -0.0026790933 1.5283493e-38 295 242
-0.032149121 0.764 -0.0026790933 1.5467518e-38 296 242
-0.030688593 0.76099998 -0.0026685731 1.5559714e-38 297 242
-0.029354304 0.76099998 -0.0026685731 1.537677e-38 298 242
-0.028020019 0.76099998 -0.0026685731 1.5192379e-38 299 242
-0.026685731 0.76099998 -0.0026685731 1.5557578e-38 300 242
-0.025284819 0.759 -0.00266156 1.5465383e-38 301 242
-0.023954039 0.759 -0.00266156 1.5740177e-38 302 242
-0.02262326 0.759 -0.00266156 1.5647982e-38 303 242
-0.02129248 0.759 -0.00266156 1.5739108e-38 304 242
-0.0199617 0.759 -0.00266156 1.5739108e-38 305 242
-0.018581826 0.75700003 -0.0026545466 1.5463966e-38 306 242
-0.017254554 0.75700003 -0.0026545466 1.5463966e-38 307 242
-0.015885198 0.755 -0.0026475333 1.5095184e-38 308 242
-0.014561433 0.755 -0.0026475333 1.5002988e-38 309 242
-0.013237666 0.755 -0.0026475333 1.4910792e-38 310 242
-0.011913899 0.755 -0.0026475333 1.4726042e-38 311 242
-0.010590133 0.755 -0.0026475333 1.4357984e-38 312 242
-0.0092663663 0.755 -0.0026475333 1.4357984e-38 313 242
-0.0079425992 0.755 -0.0026475333 1.4634203e-38 314 242
-0.0066188332 0.755 -0.0026475333 1.4357616e-38 315 242
-0.0052950666 0.755 -0.0026475333 1.3990265e-38 316 242
-0.0039712996 0.755 -0.0026475333 1.3621123e-38 317 242
-0.0026475333 0.755 -0.0026475333 1.3434938e-38 318 242
-0.0013237667 0.755 -0.0026475333 1.315835e-38 319 242
0 0.75700003 -0.0026545466 1.2789218e-38 320 242
0.0013272733 0.75700003 -0.0026545466 1.251263e-38 321 242
0.0026545466 0.75700003 -0.0026545466 1.2420081e-38 322 242
0.0039818203 0.75700003 -0.0026545466 1.223605e-38 323 242
0.0053090933 0.75700003 -0.0026545466 1.1959825e-38 324 242
0.0066363667 0.75700003 -0.0026545466 1.1775435e-38 325 242
0.0079846792 0.759 -0.00266156 1.140845e-38 326 242
0.00931546 0.759 -0.00266156 1.140845e-38 327 242
0.01064624 0.759 -0.00266156 1.1133661e-38 328 242
0.012008579 0.76099998 -0.0026685731 1.1041107e-38 329 242
0.013342866 0.76099998 -0.0026685731 1.0398255e-38 330 242
0.01469644 0.76200002 -0.00267208 1.0122027e-38 331 242
0.01603248 0.76200002 -0.00267208 9.8450872e-39 332 242
0.01736852 0.76200002 -0.00267208 9.7528916e-39 333 242
0.01870456 0.76200002 -0.00267208 9.2018828e-39 334 242
0.020093199 0.764 -0.0026790933 9.2018828e-39 335 242
0.021432746 0.764 -0.0026790933 9.2933624e-39 336 242
0.022861714 0.76700002 -0.0026896133 9.2933624e-39 337 242
0.024206521 0.76700002 -0.0026896133 8.652309e-39 338 242
0.025551327 0.76700002 -0.0026896133 9.0210901e-39 339 242
0.026896132 0.76700002 -0.0026896133 9.2973463e-39 340 242
0.02824094 0.76700002 -0.0026896133 1.0588085e-38 341 242
0.029585747 0.76700002 -0.0026896133 1.3091073e-38 342 242
-0.044783637 0.77399999 -0.0040712398 1.2075804e-38 287 243
-0.043258239 0.77100003 -0.0040554604 1.455279e-38 288 243
-0.041797712 0.76899999 -0.0040449398 1.4275844e-38 289 243
-0.040344197 0.76700002 -0.00403442 1.5193095e-38 290 243
-0.038999394 0.76700002 -0.00403442 1.4916868e-38 291 243
-0.037605491 0.76599997 -0.0040291594 1.5007266e-38 292 243
-0.036262438 0.76599997 -0.0040291594 1.5007266e-38 293 243
-0.034828212 0.764 -0.0040186401 1.5282055e-38 294 243
-0.033488665 0.764 -0.0040186401 1.5189858e-38 295 243
-0.032064959 0.76200002 -0.0040081199 1.5282406e-38 296 243
-0.030688593 0.76099998 -0.0040028598 1.5466437e-38 297 243
-0.029354304 0.76099998 -0.0040028598 1.5466439e-38 298 243
-0.028020019 0.76099998 -0.0040028598 1.5190211e-38 299 243
-0.026685731 0.76099998 -0.0040028598 1.5372101e-38 300 243
-0.025284819 0.759 -0.0039923396 1.5279906e-38 301 243
-0.023954039 0.759 -0.0039923396 1.5555063e-38 302 243
-0.02262326 0.759 -0.0039923396 1.5462868e-38 303 243
-0.02129248 0.759 -0.0039923396 1.5370319e-38 304 243
-0.0199617 0.759 -0.0039923396 1.5186288e-38 305 243
-0.018581826 0.75700003 -0.0039818203 1.5001538e-38 306 243
-0.017254554 0.75700003 -0.0039818203 1.4817145e-38 307 243
-0.015885198 0.755 -0.0039712996 1.4724947e-38 308 243
-0.014561433 0.755 -0.0039712996 1.4540915e-38 309 243
-0.013237666 0.755 -0.0039712996 1.4540562e-38 310 243
-0.011913899 0.755 -0.0039712996 1.4263974e-38 311 243
-0.010590133 0.755 -0.0039712996 1.3985959e-38 312 243
-0.0092663663 0.755 -0.0039712996 1.4170709e-38 313 243
-0.0079425992 0.755 -0.0039712996 1.4081026e-38 314 243
-0.0066188332 0.755 -0.0039712996 1.3896633e-38 315 243
-0.0052950666 0.755 -0.0039712996 1.3803716e-38 316 243
-0.0039712996 0.755 -0.0039712996 1.3343097e-38 317 243
-0.0026475333 0.755 -0.0039712996 1.3157631e-38 318 243
-0.0013237667 0.755 -0.0039712996 1.2972881e-38 319 243
0 0.75700003 -0.0039818203 1.2604823e-38 320 243
0.0013272733 0.75700003 -0.0039818203 1.22364e-38 321 243
0.0026545466 0.75700003 -0.0039818203 1.2143851e-38 322 243
0.0039818203 0.75700003 -0.0039818203 1.2143851e-38 323 243
0.0053090933 0.75700003 -0.0039818203 1.1775791e-38 324 243
0.0066363667 0.75700003 -0.0039818203 1.1683595e-38 325 243
0.0079846792 0.759 -0.0039923396 1.1316254e-38 326 243
0.00931546 0.759 -0.0039923396 1.1316254e-38 327 243
0.01064624 0.759 -0.0039923396 1.0857797e-38 328 243
0.012008579 0.76099998 -0.0040028598 1.0765602e-38 329 243
0.013342866 0.76099998 -0.0040028598 1.0122397e-38 330 243
0.01469644 0.76200002 -0.0040081199 9.846169e-39 331 243
0.01603248 0.76200002 -0.0040081199 9.385558e-39 332 243
0.01736852 0.76200002 -0.0040081199 9.2933624e-39 333 243
0.018753653 0.764 -0.0040186401 9.2015297e-39 334 243
0.020093199 0.764 -0.0040186401 9.2015297e-39 335 243
0.021432746 0.764 -0.0040186401 9.2008094e-39 336 243
0.022861714 0.76700002 -0.00403442 9.2933652e-39 337 243
0.024269639 0.76899999 -0.0040449398 8.9274665e-39 338 243
0.025617953 0.76899999 -0.0040449398 9.3884447e-39 339 243
0.026966266 0.76899999 -0.0040449398 9.4817403e-39 340 243
0.028314579 0.76899999 -0.0040449398 1.0034555e-38 341 243
0.02966289 0.76899999 -0.0040449398 1.2812316e-38 342 243
-0.044725779 0.773 -0.0054213065 1.2350596e-38 287 244
-0.043370452 0.773 -0.0054213065 1.4460241e-38 288 244
-0.041797712 0.76899999 -0.0053932532 1.3999263e-38 289 244
-0.040344197 0.76700002 -0.0053792265 1.4916515e-38 290 244
-0.038999394 0.76700002 -0.0053792265 1.4732124e-38 291 244
-0.037605491 0.76599997 -0.0053722127 1.4822518e-38 292 244
-0.036262438 0.76599997 -0.0053722127 1.4822518e-38 293 244
-0.034828212 0.764 -0.0053581866 1.509766e-38 294 244
-0.033488665 0.764 -0.0053581866 1.509766e-38 295 244
-0.032022879 0.76099998 -0.0053371461 1.509801e-38 296 244
-0.030688593 0.76099998 -0.0053371461 1.509801e-38 297 244
-0.029354304 0.76099998 -0.0053371461 1.5097297e-38 298 244
-0.028020019 0.76099998 -0.0053371461 1.4912547e-38 299 244
-0.026685731 0.76099998 -0.0053371461 1.5186988e-38 300 244
-0.025284819 0.759 -0.0053231199 1.5094793e-38 301 244
-0.023954039 0.759 -0.0053231199 1.5369229e-38 302 244
-0.02262326 0.759 -0.0053231199 1.5277033e-38 303 244
-0.02129248 0.759 -0.0053231199 1.5184486e-38 304 244
-0.019909101 0.75700003 -0.0053090933 1.4723509e-38 305 244
-0.018581826 0.75700003 -0.0053090933 1.3984145e-38 306 244
-0.017208965 0.755 -0.0052950666 1.407634e-38 307 244
-0.015885198 0.755 -0.0052950666 1.3804066e-38 308 244
-0.014561433 0.755 -0.0052950666 1.3896262e-38 309 244
-0.013237666 0.755 -0.0052950666 1.4171057e-38 310 244
-0.011913899 0.755 -0.0052950666 1.3986665e-38 311 244
-0.010590133 0.755 -0.0052950666 1.380335e-38 312 244
-0.0092663663 0.755 -0.0052950666 1.4079577e-38 313 244
-0.0079425992 0.755 -0.0052950666 1.3714025e-38 314 244
-0.0066100666 0.75400001 -0.0052880533 1.3529275e-38 315 244
-0.0052880533 0.75400001 -0.0052880533 1.3526403e-38 316 244
-0.0039712996 0.755 -0.0052950666 1.3065785e-38 317 244
-0.0026475333 0.755 -0.0052950666 1.3063636e-38 318 244
-0.0013237667 0.755 -0.0052950666 1.3063636e-38 319 244
0 0.75700003 -0.0053090933 1.2511905e-38 320 244
0.0013272733 0.75700003 -0.0053090933 1.2327514e-38 321 244
0.0026545466 0.75700003 -0.0053090933 1.2143849e-38 322 244
0.0039818203 0.75700003 -0.0053090933 1.1959456e-38 323 244
0.0053090933 0.75700003 -0.0053090933 1.1591397e-38 324 244
0.0066363667 0.75700003 -0.0053090933 1.1591397e-38 325 244
0.0079636406 0.75700003 -0.0053090933 1.1224056e-38 326 244
0.00931546 0.759 -0.0053231199 1.1224056e-38 327 244
0.01064624 0.759 -0.0053231199 1.0673047e-38 328 244
0.012008579 0.76099998 -0.0053371461 1.0580852e-38 329 244
0.013342866 0.76099998 -0.0053371461 9.7543363e-39 330 244
0.014677152 0.76099998 -0.0053371461 9.5699451e-39 331 244
0.01603248 0.76200002 -0.0053441599 9.0182174e-39 332 244
0.01736852 0.76200002 -0.0053441599 8.9260204e-39 333 244
0.01870456 0.76200002 -0.0053441599 8.6512314e-39 334 244
0.020093199 0.764 -0.0053581866 8.6512314e-39 335 244
0.021432746 0.764 -0.0053581866 9.0174971e-39 336 244
0.022861714 0.76700002 -0.0053792265 9.0174971e-39 337 244
0.024269639 0.76899999 -0.0053932532 9.2022584e-39 338 244
0.025617953 0.76899999 -0.0053932532 9.5710395e-39 339 244
0.026966266 0.76899999 -0.0053932532 9.8501613e-39 340 244
0.028314579 0.76899999 -0.0053932532 9.7579657e-39 341 244
0.02966289 0.76899999 -0.0053932532 1.2258776e-38 342 244
-0.046140719 0.77399999 -0.0067853997 1.6866746e-38 286 245
-0.044725779 0.773 -0.0067766332 1.2440995e-38 287 245
-0.043370452 0.773 -0.0067766332 1.4367693e-38 288 245
-0.041797712 0.76899999 -0.0067415666 1.399891e-38 289 245
-0.040344197 0.76700002 -0.006724033 1.4455904e-38 290 245
-0.038999394 0.76700002 -0.006724033 1.4271512e-38 291 245
-0.037605491 0.76599997 -0.0067152665 1.463777e-38 292 245
-0.036262438 0.76599997 -0.0067152665 1.463777e-38 293 245
-0.034828212 0.764 -0.006697733 1.47296e-38 294 245
-0.033488665 0.764 -0.006697733 1.47296e-38 295 245
-0.032022879 0.76099998 -0.0066714329 1.4913266e-38 296 245
-0.030688593 0.76099998 -0.0066714329 1.482107e-38 297 245
-0.029354304 0.76099998 -0.0066714329 1.4912196e-38 298 245
-0.028020019 0.76099998 -0.0066714329 1.4727805e-38 299 245
-0.026685731 0.76099998 -0.0066714329 1.4910047e-38 300 245
-0.025284819 0.759 -0.0066538998 1.4910047e-38 301 245
-0.023954039 0.759 -0.0066538998 1.5092643e-38 302 245
-0.022563647 0.75700003 -0.0066363667 1.5000089e-38 303 245
-0.021236373 0.75700003 -0.0066363667 1.4631313e-38 304 245
-0.019909101 0.75700003 -0.0066363667 1.4262529e-38 305 245
-0.018581826 0.75700003 -0.0066363667 1.3615735e-38 306 245
-0.017208965 0.755 -0.0066188332 1.3615735e-38 307 245
-0.015885198 0.755 -0.0066188332 1.3250914e-38 308 245
-0.014561433 0.755 -0.0066188332 1.3343111e-38 309 245
-0.013237666 0.755 -0.0066188332 1.3343108e-38 310 245
-0.011913899 0.755 -0.0066188332 1.3343108e-38 311 245
-0.010590133 0.755 -0.0066188332 1.3252695e-38 312 245
-0.0092663663 0.755 -0.0066188332 1.3621476e-38 313 245
-0.0079425992 0.755 -0.0066188332 1.3253767e-38 314 245
-0.0066100666 0.75400001 -0.0066100666 1.2977539e-38 315 245
-0.0052880533 0.75400001 -0.0066100666 1.3065435e-38 316 245
-0.0039712996 0.755 -0.0066188332 1.2788488e-38 317 245
-0.0026475333 0.755 -0.0066188332 1.2511908e-38 318 245
-0.0013237667 0.755 -0.0066188332 1.2419712e-38 319 245
0 0.75700003 -0.0066363667 1.2144923e-38 320 245
0.0013272733 0.75700003 -0.0066363667 1.2052369e-38 321 245
0.0026545466 0.75700003 -0.0066363667 1.1776144e-38 322 245
0.0039818203 0.75700003 -0.0066363667 1.1683589e-38 323 245
0.0053090933 0.75700003 -0.0066363667 1.1316252e-38 324 245
0.0066363667 0.75700003 -0.0066363667 1.1224056e-38 325 245
0.0079636406 0.75700003 -0.0066363667 1.1315536e-38 326 245
0.00931546 0.759 -0.0066538998 1.1130786e-38 327 245
0.01064624 0.759 -0.0066538998 1.0396466e-38 328 245
0.012008579 0.76099998 -0.0066714329 1.030427e-38 329 245
0.013342866 0.76099998 -0.0066714329 9.5695919e-39 330 245
0.014677152 0.76099998 -0.0066714329 9.3855608e-39 331 245
0.01603248 0.76200002 -0.0066801999 8.834908e-39 332 245
0.01736852 0.76200002 -0.0066801999 8.834908e-39 333 245
0.01870456 0.76200002 -0.0066801999 8.6512314e-39 334 245
0.020093199 0.764 -0.006697733 8.6512314e-39 335 245
0.021432746 0.764 -0.006697733 8.8334716e-39 336 245
0.022831906 0.76599997 -0.0067152665 8.9256673e-39 337 245
0.024206521 0.76700002 -0.006724033 9.1093593e-39 338 245
0.025617953 0.76899999 -0.0067415666 9.5703374e-39 339 245
0.026966266 0.76899999 -0.0067415666 9.0243663e-39 340 245
0.028314579 0.76899999 -0.0067415666 8.8403352e-39 341 245
0.02966289 0.76899999 -0.0067415666 1.2349174e-38 342 245
-0.047497798 0.77399999 -0.0081424797 1.7518261e-38 285 246
-0.046140719 0.77399999 -0.0081424797 1.6591951e-38 286 246
-0.044725779 0.773 -0.0081319595 1.1613386e-38 287 246
-0.043258239 0.77100003 -0.0081109209 1.4090757e-38 288 246
-0.041797712 0.76899999 -0.0080898795 1.399856e-38 289 246
-0.040344197 0.76700002 -0.00806884 1.4362641e-38 290 246
-0.038999394 0.76700002 -0.00806884 1.4270445e-38 291 246
-0.037605491 0.76599997 -0.0080583189 1.4636333e-38 292 246
-0.036262438 0.76599997 -0.0080583189 1.4636333e-38 293 246
-0.034828212 0.764 -0.0080372803 1.4912547e-38 294 246
-0.033401001 0.76200002 -0.0080162399 1.4912547e-38 295 246
-0.032022879 0.76099998 -0.0080057196 1.5003666e-38 296 246
-0.030688593 0.76099998 -0.0080057196 1.4727438e-38 297 246
-0.029354304 0.76099998 -0.0080057196 1.4634889e-38 298 246
-0.028020019 0.76099998 -0.0080057196 1.4634889e-38 299 246
-0.026615599 0.759 -0.0079846792 1.4724931e-38 300 246
-0.025284819 0.759 -0.0079846792 1.4817127e-38 301 246
-0.023954039 0.759 -0.0079846792 1.4907525e-38 302 246
-0.022563647 0.75700003 -0.0079636406 1.4815329e-38 303 246
-0.021236373 0.75700003 -0.0079636406 1.4539104e-38 304 246
-0.019909101 0.75700003 -0.0079636406 1.4262158e-38 305 246
-0.018532733 0.755 -0.0079425992 1.3435643e-38 306 246
-0.017208965 0.755 -0.0079425992 1.3066501e-38 307 246
-0.015885198 0.755 -0.0079425992 1.3158703e-38 308 246
-0.014561433 0.755 -0.0079425992 1.2882117e-38 309 246
-0.013237666 0.755 -0.0079425992 1.3248382e-38 310 246
-0.011913899 0.755 -0.0079425992 1.3248382e-38 311 246
-0.010590133 0.755 -0.0079425992 1.3066148e-38 312 246
-0.0092663663 0.755 -0.0079425992 1.3343094e-38 313 246
-0.0079425992 0.755 -0.0079425992 1.3434211e-38 314 246
-0.0066100666 0.75400001 -0.00793208 1.3065429e-38 315 246
-0.0052880533 0.75400001 -0.00793208 1.2787772e-38 316 246
-0.0039712996 0.755 -0.0079425992 1.2510826e-38 317 246
-0.0026475333 0.755 -0.0079425992 1.2327517e-38 318 246
-0.0013237667 0.755 -0.0079425992 1.2327517e-38 319 246
0 0.75700003 -0.0079636406 1.2327517e-38 320 246
0.0013272733 0.75700003 -0.0079636406 1.1958734e-38 321 246
0.0026545466 0.75700003 -0.0079636406 1.1867258e-38 322 246
0.0039818203 0.75700003 -0.0079636406 1.1775062e-38 323 246
0.0053090933 0.75700003 -0.0079636406 1.1224406e-38 324 246
0.0066363667 0.75700003 -0.0079636406 1.1224406e-38 325 246
0.0079636406 0.75700003 -0.0079636406 1.1038944e-38 326 246
0.0092909131 0.75700003 -0.0079636406 1.1038944e-38 327 246
0.01064624 0.759 -0.0079846792 1.0028762e-38 328 246
0.01197702 0.759 -0.0079846792 9.9365668e-39 329 246
0.013342866 0.76099998 -0.0080057196 9.2933652e-39 330 246
0.014677152 0.76099998 -0.0080057196 9.2933652e-39 331 246
0.01603248 0.76200002 -0.0080162399 8.8349024e-39 332 246
0.01736852 0.76200002 -0.0080162399 8.8349024e-39 333 246
0.01870456 0.76200002 -0.0080162399 8.6512258e-39 334 246
0.020093199 0.764 -0.0080372803 8.374999e-39 335 246
0.021432746 0.764 -0.0080372803 8.8331087e-39 336 246
0.022831906 0.76599997 -0.0080583189 8.8331087e-39 337 246
0.024206521 0.76700002 -0.00806884 9.0171468e-39 338 246
0.025617953 0.76899999 -0.0080898795 9.3859293e-39 339 246
0.026966266 0.76899999 -0.0080898795 8.8396051e-39 340 246
0.028314579 0.76899999 -0.0080898795 9.1165521e-39 341 246
0.02966289 0.76899999 -0.0080898795 1.2531772e-38 342 246
-0.047497798 0.77399999 -0.0094995592 1.7794125e-38 285 247
-0.046081103 0.773 -0.0094872871 1.6867812e-38 286 247
-0.044725779 0.773 -0.0094872871 1.1612661e-38 287 247
-0.043258239 0.77100003 -0.0094627403 1.3814156e-38 288 247
-0.041797712 0.76899999 -0.0094381925 1.3814156e-38 289 247
-0.0404494 0.76899999 -0.0094381925 1.4362994e-38 290 247
-0.038999394 0.76700002 -0.0094136465 1.427044e-38 291 247
-0.037605491 0.76599997 -0.0094013726 1.4269717e-38 292 247
-0.036262438 0.76599997 -0.0094013726 1.4269717e-38 293 247
-0.034828212 0.764 -0.0093768267 1.4452307e-38 294 247
-0.033401001 0.76200002 -0.0093522798 1.4452307e-38 295 247
-0.032022879 0.76099998 -0.0093400059 1.4359391e-38 296 247
-0.030688593 0.76099998 -0.0093400059 1.4359391e-38 297 247
-0.029354304 0.76099998 -0.0093400059 1.4450871e-38 298 247
-0.028020019 0.76099998 -0.0093400059 1.4358675e-38 299 247
-0.026615599 0.759 -0.00931546 1.4267193e-38 300 247
-0.025284819 0.759 -0.00931546 1.3990966e-38 301 247
-0.02389092 0.75700003 -0.0092909131 1.4540543e-38 302 247
-0.022563647 0.75700003 -0.0092909131 1.4263956e-38 303 247
-0.021236373 0.75700003 -0.0092909131 1.4171757e-38 304 247
-0.019909101 0.75700003 -0.0092909131 1.389517e-38 305 247
-0.018532733 0.755 -0.0092663663 1.3618937e-38 306 247
-0.017208965 0.755 -0.0092663663 1.3526741e-38 307 247
-0.015885198 0.755 -0.0092663663 1.3065785e-38 308 247
-0.014561433 0.755 -0.0092663663 1.2604807e-38 309 247
-0.013237666 0.755 -0.0092663663 1.1868356e-38 310 247
-0.011913899 0.755 -0.0092663663 1.1868356e-38 311 247
-0.010590133 0.755 -0.0092663663 1.1502816e-38 312 247
-0.0092663663 0.755 -0.0092663663 1.1595012e-38 313 247
-0.0079425992 0.755 -0.0092663663 1.2053819e-38 314 247
-0.0066188332 0.755 -0.0092663663 1.1961624e-38 315 247
-0.0052950666 0.755 -0.0092663663 1.2144214e-38 316 247
-0.0039712996 0.755 -0.0092663663 1.2052019e-38 317 247
-0.0026475333 0.755 -0.0092663663 1.1777583e-38 318 247
-0.0013237667 0.755 -0.0092663663 1.1593192e-38 319 247
0 0.755 -0.0092663663 1.1776144e-38 320 247
0.0013272733 0.75700003 -0.0092909131 1.1683589e-38 321 247
0.0026545466 0.75700003 -0.0092909131 1.1591397e-38 322 247
0.0039818203 0.75700003 -0.0092909131 1.1591397e-38 323 247
0.0053090933 0.75700003 -0.0092909131 1.0948548e-38 324 247
0.0066188332 0.755 -0.0092663663 1.0855992e-38 325 247
0.0079425992 0.755 -0.0092663663 1.0579415e-38 326 247
0.0092909131 0.75700003 -0.0092909131 1.0395024e-38 327 247
0.01064624 0.759 -0.00931546 1.002733e-38 328 247
0.01197702 0.759 -0.00931546 9.9351346e-39 329 247
0.013342866 0.76099998 -0.0093400059 9.2018856e-39 330 247
0.01469644 0.76200002 -0.0093522798 9.2940812e-39 331 247
0.01603248 0.76200002 -0.0093522798 9.0192866e-39 332 247
0.01736852 0.76200002 -0.0093522798 8.8352555e-39 333 247
0.018753653 0.764 -0.0093768267 8.6508628e-39 334 247
0.020093199 0.764 -0.0093768267 8.4664716e-39 335 247
0.021488851 0.76599997 -0.0094013726 8.4646933e-39 336 247
0.022831906 0.76599997 -0.0094013726 8.5568889e-39 337 247
0.024269639 0.76899999 -0.0094381925 8.0991688e-39 338 247
0.025617953 0.76899999 -0.0094381925 8.6523426e-39 339 247
0.026966266 0.76899999 -0.0094381925 7.8290699e-39 340 247
0.028314579 0.76899999 -0.0094381925 8.4744393e-39 341 247
-0.047497798 0.77399999 -0.01085664 1.8071072e-38 285 248
-0.046081103 0.773 -0.010842613 1.686997e-38 286 248
-0.044725779 0.773 -0.010842613 1.1614819e-38 287 248
-0.043370452 0.773 -0.010842613 1.3998184e-38 288 248
-0.04190642 0.77100003 -0.01081456 1.3721957e-38 289 248
-0.0404494 0.76899999 -0.010786506 1.4271514e-38 290 248
-0.039101087 0.76899999 -0.010786506 1.3902733e-38 291 248
-0.037654586 0.76700002 -0.010758453 1.4268995e-38 292 248
-0.036262438 0.76599997 -0.010744425 1.4176798e-38 293 248
-0.034828212 0.764 -0.010716373 1.4635255e-38 294 248
-0.033401001 0.76200002 -0.01068832 1.435867e-38 295 248
-0.032022879 0.76099998 -0.010674292 1.4449789e-38 296 248
-0.030688593 0.76099998 -0.010674292 1.4449789e-38 297 248
-0.029277159 0.759 -0.01064624 1.4174281e-38 298 248
-0.027946379 0.759 -0.01064624 1.4174281e-38 299 248
-0.026615599 0.759 -0.01064624 1.4174278e-38 300 248
-0.025218192 0.75700003 -0.010618187 1.4174278e-38 301 248
-0.02389092 0.75700003 -0.010618187 1.4264675e-38 302 248
-0.022504034 0.755 -0.010590133 1.4172479e-38 303 248
-0.021180267 0.755 -0.010590133 1.4079562e-38 304 248
-0.0198565 0.755 -0.010590133 1.389517e-38 305 248
-0.018532733 0.755 -0.010590133 1.3618937e-38 306 248
-0.017208965 0.755 -0.010590133 1.3434545e-38 307 248
-0.015885198 0.755 -0.010590133 1.2881387e-38 308 248
-0.014542146 0.75400001 -0.010576107 1.2328213e-38 309 248
-0.013220133 0.75400001 -0.010576107 1.1589597e-38 310 248
-0.01189812 0.75400001 -0.010576107 1.1497402e-38 311 248
-0.010576107 0.75400001 -0.010576107 1.113151e-38 312 248
-0.0092540924 0.75400001 -0.010576107 1.113151e-38 313 248
-0.00793208 0.75400001 -0.010576107 1.1591759e-38 314 248
-0.0066100666 0.75400001 -0.010576107 1.1591759e-38 315 248
-0.0052880533 0.75400001 -0.010576107 1.1592115e-38 316 248
-0.0039712996 0.755 -0.010590133 1.1684311e-38 317 248
-0.0026475333 0.755 -0.010590133 1.1684308e-38 318 248
-0.0013237667 0.755 -0.010590133 1.1684308e-38 319 248
0 0.755 -0.010590133 1.1408798e-38 320 248
0.0013272733 0.75700003 -0.010618187 1.1224406e-38 321 248
0.0026545466 0.75700003 -0.010618187 1.1499554e-38 322 248
0.0039818203 0.75700003 -0.010618187 1.1407e-38 323 248
0.0053090933 0.75700003 -0.010618187 1.0855629e-38 324 248
0.0066188332 0.755 -0.010590133 1.0671238e-38 325 248
0.0079425992 0.755 -0.010590133 1.0302823e-38 326 248
0.0092909131 0.75700003 -0.010618187 1.0302823e-38 327 248
0.01064624 0.759 -0.01064624 9.5688576e-39 328 248
0.01197702 0.759 -0.01064624 9.4766606e-39 329 248
0.013342866 0.76099998 -0.010674292 9.0182034e-39 330 248
0.01469644 0.76200002 -0.01068832 9.2022359e-39 331 248
0.01603248 0.76200002 -0.01068832 9.0189209e-39 332 248
0.01736852 0.76200002 -0.01068832 8.8345282e-39 333 248
0.018753653 0.764 -0.010716373 8.5579455e-39 334 248
0.020093199 0.764 -0.010716373 8.4657499e-39 335 248
0.021488851 0.76599997 -0.010744425 8.3721277e-39 336 248
0.022831906 0.76599997 -0.010744425 8.3721277e-39 337 248
0.024269639 0.76899999 -0.010786506 8.0069578e-39 338 248
0.025617953 0.76899999 -0.010786506 8.4679359e-39 339 248
0.026966266 0.76899999 -0.010786506 8.011292e-39 340 248
0.028314579 0.76899999 -0.010786506 9.4864235e-39 341 248
-0.047497798 0.77399999 -0.01221372 1.8163984e-38 285 249
-0.046140719 0.77399999 -0.01221372 1.7881967e-38 286 249
-0.044725779 0.773 -0.012197939 1.2903403e-38 287 249
-0.043370452 0.773 -0.012197939 1.4182581e-38 288 249
-0.04190642 0.77100003 -0.01216638 1.3721604e-38 289 249
-0.040554602 0.77100003 -0.01216638 1.4178963e-38 290 249
-0.039101087 0.76899999 -0.012134819 1.381054e-38 291 249
-0.037654586 0.76700002 -0.01210326 1.4176798e-38 292 249
-0.036262438 0.76599997 -0.012087479 1.4084602e-38 293 249
-0.034828212 0.764 -0.01205592 1.435867e-38 294 249
-0.033401001 0.76200002 -0.01202436 1.4174278e-38 295 249
-0.032022879 0.76099998 -0.012008579 1.4082083e-38 296 249
-0.030688593 0.76099998 -0.012008579 1.4082083e-38 297 249
-0.029277159 0.759 -0.01197702 1.4081365e-38 298 249
-0.027946379 0.759 -0.01197702 1.4081365e-38 299 249
-0.026615599 0.759 -0.01197702 1.4172482e-38 300 249
-0.025218192 0.75700003 -0.01194546 1.4172482e-38 301 249
-0.023827799 0.755 -0.011913899 1.3895899e-38 302 249
