# .PCD v.7 - Point Cloud Data file format
FIELDS x y z rgb imX imY
SIZE 4 4 4 4 4 4
TYPE F F F F F F
COUNT 1 1 1 1 1 1
WIDTH 855
HEIGHT 1
VIEWPOINT 0 0 0 1 0 0 0
POINTS 855
DATA ascii
0.01216638 0.77100003 0.028388219 1.4448738e-38 329 219
0.013518199 0.77100003 0.028388219 1.3622221e-38 330 219
0.01487002 0.77100003 0.028388219 1.3069048e-38 331 219
0.01632704 0.77600002 0.028572321 1.196453e-38 332 219
0.017801592 0.78100002 0.028756421 1.3255269e-38 333 219
0.019170946 0.78100002 0.028756421 1.3548817e-38 334 219
0.020829599 0.792 0.029161438 1.5761152e-38 335 219
0.022218239 0.792 0.029161438 1.6687444e-38 336 219
0.02360688 0.792 0.029161438 1.7517563e-38 337 219
0.024995519 0.792 0.029161438 1.7702309e-38 338 219
-0.026017714 0.78100002 0.027387068 1.37357e-38 301 220
-0.024616797 0.77999997 0.027351998 1.5652326e-38 302 220
-0.023249198 0.77999997 0.027351998 1.4822206e-38 303 220
-0.021825492 0.778 0.027281865 1.5924203e-38 304 220
-0.020461399 0.778 0.027281865 1.620043e-38 305 220
-0.019097306 0.778 0.027281865 1.6293329e-38 306 220
-0.017687626 0.77600002 0.027211733 1.6201133e-38 307 220
-0.01632704 0.77600002 0.027211733 1.6384436e-38 308 220
-0.014927879 0.77399999 0.027141599 1.629224e-38 309 220
-0.013553266 0.773 0.027106533 1.6108938e-38 310 220
-0.012197939 0.773 0.027106533 1.6293329e-38 311 220
-0.010842613 0.773 0.027106533 1.647413e-38 312 220
-0.0094627403 0.77100003 0.027036399 1.5920956e-38 313 220
-0.0081109209 0.77100003 0.027036399 1.4638499e-38 314 220
-0.0067590997 0.77100003 0.027036399 1.4546303e-38 315 220
-0.0054072798 0.77100003 0.027036399 1.4821095e-38 316 220
-0.0040554604 0.77100003 0.027036399 1.47289e-38 317 220
-0.0027036399 0.77100003 0.027036399 1.5003689e-38 318 220
-0.0013553266 0.773 0.027106533 1.5280274e-38 319 220
0 0.773 0.027106533 1.4913291e-38 320 220
0.0013553266 0.773 0.027106533 1.4636704e-38 321 220
0.0027106532 0.773 0.027106533 1.4818225e-38 322 220
0.0040659797 0.773 0.027106533 1.4541637e-38 323 220
0.0054213065 0.773 0.027106533 1.4633477e-38 324 220
0.0067766332 0.773 0.027106533 1.4541281e-38 325 220
0.0081109209 0.77100003 0.027036399 1.4450518e-38 326 220
0.0094627403 0.77100003 0.027036399 1.4450518e-38 327 220
0.01081456 0.77100003 0.027036399 1.4449439e-38 328 220
0.01216638 0.77100003 0.027036399 1.4449439e-38 329 220
0.013518199 0.77100003 0.027036399 1.4081029e-38 330 220
0.014966453 0.77600002 0.027211733 1.4081029e-38 331 220
0.01632704 0.77600002 0.027211733 1.4078176e-38 332 220
0.017801592 0.78100002 0.027387068 1.3064025e-38 333 220
0.019170946 0.78100002 0.027387068 1.1228432e-38 334 220
0.0205929 0.78299999 0.027457198 1.316454e-38 335 220
0.021965759 0.78299999 0.027457198 1.1618114e-38 336 220
0.023398234 0.78500003 0.027527334 1.466057e-38 337 220
0.024900839 0.78899997 0.027667599 1.6597049e-38 338 220
0.026284218 0.78899997 0.027667599 1.7519007e-38 339 220
-0.027387068 0.78100002 0.026017714 1.695243e-38 300 221
-0.026017714 0.78100002 0.026017714 1.3633387e-38 301 221
-0.024616797 0.77999997 0.025984399 1.5189153e-38 302 221
-0.023189586 0.778 0.025917772 1.5281708e-38 303 221
-0.021769386 0.77600002 0.025851147 1.6292262e-38 304 221
-0.0204088 0.77600002 0.025851147 1.6476295e-38 305 221
-0.019048214 0.77600002 0.025851147 1.6568477e-38 306 221
-0.017687626 0.77600002 0.025851147 1.6568477e-38 307 221
-0.01632704 0.77600002 0.025851147 1.6475556e-38 308 221
-0.014927879 0.77399999 0.025784519 1.6383361e-38 309 221
-0.013518199 0.77100003 0.02568458 1.6200414e-38 310 221
-0.01216638 0.77100003 0.02568458 1.6477e-38 311 221
-0.01081456 0.77100003 0.02568458 1.6294038e-38 312 221
-0.0094627403 0.77100003 0.02568458 1.6109288e-38 313 221
-0.0080898795 0.76899999 0.025617953 1.5832708e-38 314 221
-0.0067415666 0.76899999 0.025617953 1.5740512e-38 315 221
-0.0053932532 0.76899999 0.025617953 1.5647964e-38 316 221
-0.0040449398 0.76899999 0.025617953 1.5647964e-38 317 221
-0.0026966266 0.76899999 0.025617953 1.5372819e-38 318 221
-0.00135182 0.77100003 0.02568458 1.5280622e-38 319 221
0 0.77100003 0.02568458 1.5464298e-38 320 221
0.00135182 0.77100003 0.02568458 1.518771e-38 321 221
0.0027036399 0.77100003 0.02568458 1.5002247e-38 322 221
0.0040554604 0.77100003 0.02568458 1.4817495e-38 323 221
0.0054072798 0.77100003 0.02568458 1.4359394e-38 324 221
0.0067590997 0.77100003 0.02568458 1.4543787e-38 325 221
0.0081109209 0.77100003 0.02568458 1.4544137e-38 326 221
0.0094627403 0.77100003 0.02568458 1.445194e-38 327 221
0.01081456 0.77100003 0.02568458 1.4724934e-38 328 221
0.01216638 0.77100003 0.02568458 1.4632738e-38 329 221
0.013518199 0.77100003 0.02568458 1.4263974e-38 330 221
0.014831445 0.76899999 0.025617953 1.4079583e-38 331 221
0.016179759 0.76899999 0.025617953 1.3710817e-38 332 221
0.01764204 0.77399999 0.025784519 1.2881417e-38 333 221
0.0191464 0.77999997 0.025984399 1.1776524e-38 334 221
0.0205929 0.78299999 0.026084339 1.1868719e-38 335 221
0.021965759 0.78299999 0.026084339 1.1144153e-38 336 221
0.02333862 0.78299999 0.026084339 1.354088e-38 337 221
0.024837719 0.787 0.026217593 1.4288563e-38 338 221
0.026217593 0.787 0.026217593 1.6409062e-38 339 221
-0.028756421 0.78100002 0.024648361 1.309393e-38 299 222
-0.027351998 0.77999997 0.024616797 1.5469378e-38 300 222
-0.025984399 0.77999997 0.024616797 1.4639616e-38 301 222
-0.024490559 0.77600002 0.024490559 1.6018194e-38 302 222
-0.02307036 0.77399999 0.02442744 1.6018194e-38 303 222
-0.021713279 0.77399999 0.02442744 1.629298e-38 304 222
-0.020356199 0.77399999 0.02442744 1.647773e-38 305 222
-0.018999118 0.77399999 0.02442744 1.6569194e-38 306 222
-0.017619247 0.773 0.024395877 1.6569194e-38 307 222
-0.016263919 0.773 0.024395877 1.6383732e-38 308 222
-0.01487002 0.77100003 0.02433276 1.6198982e-38 309 222
-0.013518199 0.77100003 0.02433276 1.6107881e-38 310 222
-0.01216638 0.77100003 0.02433276 1.6292632e-38 311 222
-0.01081456 0.77100003 0.02433276 1.6202948e-38 312 222
-0.0094627403 0.77100003 0.02433276 1.6202948e-38 313 222
-0.0080898795 0.76899999 0.024269639 1.5927074e-38 314 222
-0.0067415666 0.76899999 0.024269639 1.5650127e-38 315 222
-0.0053932532 0.76899999 0.024269639 1.5741963e-38 316 222
-0.0040449398 0.76899999 0.024269639 1.5557213e-38 317 222
-0.0026966266 0.76899999 0.024269639 1.5465383e-38 318 222
-0.0013483133 0.76899999 0.024269639 1.5189156e-38 319 222
0 0.76899999 0.024269639 1.5462514e-38 320 222
0.0013483133 0.76899999 0.024269639 1.5094092e-38 321 222
0.0026966266 0.76899999 0.024269639 1.5001173e-38 322 222
0.0040449398 0.76899999 0.024269639 1.4816423e-38 323 222
0.0053932532 0.76899999 0.024269639 1.4450871e-38 324 222
0.0067415666 0.76899999 0.024269639 1.4911849e-38 325 222
0.0080898795 0.76899999 0.024269639 1.4820367e-38 326 222
0.0094381925 0.76899999 0.024269639 1.4636335e-38 327 222
0.010786506 0.76899999 0.024269639 1.4817848e-38 328 222
0.012134819 0.76899999 0.024269639 1.4541622e-38 329 222
0.013483133 0.76899999 0.024269639 1.4264322e-38 330 222
0.014792874 0.76700002 0.024206521 1.407993e-38 331 222
0.01613768 0.76700002 0.024206521 1.3803353e-38 332 222
0.017528072 0.76899999 0.024269639 1.3526406e-38 333 222
0.018876385 0.76899999 0.024269639 1.2882498e-38 334 222
0.0202247 0.76899999 0.024269639 1.2882498e-38 335 222
0.021881599 0.77999997 0.024616797 1.2517354e-38 336 222
0.023279008 0.78100002 0.024648361 1.2148931e-38 337 222
0.024711479 0.78299999 0.024711479 1.0594961e-38 338 222
0.026150968 0.78500003 0.0247746 1.3268635e-38 339 222
0.027527334 0.78500003 0.0247746 1.43858e-38 340 222
-0.030125774 0.78100002 0.023279008 1.6497953e-38 298 223
-0.028756421 0.78100002 0.023279008 1.2810488e-38 299 223
-0.027387068 0.78100002 0.023279008 1.5741269e-38 300 223
-0.025984399 0.77999997 0.023249198 1.5833825e-38 301 223
-0.024490559 0.77600002 0.023129974 1.6110389e-38 302 223
-0.02307036 0.77399999 0.02307036 1.6018194e-38 303 223
-0.021685226 0.773 0.023040552 1.6293332e-38 304 223
-0.0203299 0.773 0.023040552 1.6385529e-38 305 223
-0.018974574 0.773 0.023040552 1.656955e-38 306 223
-0.017619247 0.773 0.023040552 1.6476994e-38 307 223
-0.016263919 0.773 0.023040552 1.6108587e-38 308 223
-0.01487002 0.77100003 0.02298094 1.6108587e-38 309 223
-0.013518199 0.77100003 0.02298094 1.5741256e-38 310 223
-0.012134819 0.76899999 0.022921326 1.5741256e-38 311 223
-0.010786506 0.76899999 0.022921326 1.574161e-38 312 223
-0.0094381925 0.76899999 0.022921326 1.6017838e-38 313 223
-0.0080898795 0.76899999 0.022921326 1.6018194e-38 314 223
-0.0067415666 0.76899999 0.022921326 1.5925638e-38 315 223
-0.0053932532 0.76899999 0.022921326 1.5925275e-38 316 223
-0.0040449398 0.76899999 0.022921326 1.5925275e-38 317 223
-0.0026966266 0.76899999 0.022921326 1.5740175e-38 318 223
-0.0013483133 0.76899999 0.022921326 1.5371751e-38 319 223
0 0.76700002 0.022861714 1.5094811e-38 320 223
0.0013448066 0.76700002 0.022861714 1.4818225e-38 321 223
0.0026896133 0.76700002 0.022861714 1.4909691e-38 322 223
0.00403442 0.76700002 0.022861714 1.4909691e-38 323 223
0.0053932532 0.76899999 0.022921326 1.4819648e-38 324 223
0.006724033 0.76700002 0.022861714 1.5096593e-38 325 223
0.00806884 0.76700002 0.022861714 1.5186988e-38 326 223
0.0094136465 0.76700002 0.022861714 1.5186988e-38 327 223
0.010758453 0.76700002 0.022861714 1.4817127e-38 328 223
0.01210326 0.76700002 0.022861714 1.4632736e-38 329 223
0.013448066 0.76700002 0.022861714 1.4447271e-38 330 223
0.014792874 0.76700002 0.022861714 1.426288e-38 331 223
0.01613768 0.76700002 0.022861714 1.380335e-38 332 223
0.017482487 0.76700002 0.022861714 1.3618958e-38 333 223
0.018876385 0.76899999 0.022921326 1.2239281e-38 334 223
0.0202247 0.76899999 0.022921326 1.1870858e-38 335 223
0.021713279 0.77399999 0.02307036 1.1872672e-38 336 223
0.023129974 0.77600002 0.023129974 1.1872672e-38 337 223
0.024616797 0.77999997 0.023249198 1.1320612e-38 338 223
0.026084339 0.78299999 0.02333862 1.1596839e-38 339 223
0.027387068 0.78100002 0.023279008 1.0239139e-38 340 223
0.028756421 0.78100002 0.023279008 1.3927323e-38 341 223
-0.030125774 0.78100002 0.021909652 1.5752094e-38 298 224
-0.028756421 0.78100002 0.021909652 1.3815986e-38 299 224
-0.027351998 0.77999997 0.021881599 1.6199714e-38 300 224
-0.025917772 0.778 0.021825492 1.6475942e-38 301 224
-0.02442744 0.77399999 0.021713279 1.6201139e-38 302 224
-0.023040552 0.773 0.021685226 1.6293336e-38 303 224
-0.021629119 0.77100003 0.021629119 1.6293685e-38 304 224
-0.020277301 0.77100003 0.021629119 1.6385882e-38 305 224
-0.018925481 0.77100003 0.021629119 1.6478077e-38 306 224
-0.01757366 0.77100003 0.021629119 1.6385882e-38 307 224
-0.016179759 0.76899999 0.021573013 1.6293329e-38 308 224
-0.014831445 0.76899999 0.021573013 1.6293329e-38 309 224
-0.013483133 0.76899999 0.021573013 1.6110024e-38 310 224
-0.012134819 0.76899999 0.021573013 1.5925272e-38 311 224
-0.010786506 0.76899999 0.021573013 1.6108587e-38 312 224
-0.0094136465 0.76700002 0.021516906 1.629298e-38 313 224
-0.00806884 0.76700002 0.021516906 1.6292986e-38 314 224
-0.006724033 0.76700002 0.021516906 1.620043e-38 315 224
-0.0053792265 0.76700002 0.021516906 1.5924572e-38 316 224
-0.00403442 0.76700002 0.021516906 1.5832376e-38 317 224
-0.0026896133 0.76700002 0.021516906 1.5189169e-38 318 224
-0.0013448066 0.76700002 0.021516906 1.4728549e-38 319 224
0 0.76700002 0.021516906 1.4268642e-38 320 224
0.0013448066 0.76700002 0.021516906 1.4176445e-38 321 224
0.0026896133 0.76700002 0.021516906 1.4452663e-38 322 224
0.00403442 0.76700002 0.021516906 1.4637054e-38 323 224
0.0053792265 0.76700002 0.021516906 1.5005114e-38 324 224
0.006724033 0.76700002 0.021516906 1.5005114e-38 325 224
0.0080583189 0.76599997 0.021488851 1.5462496e-38 326 224
0.0094013726 0.76599997 0.021488851 1.5278105e-38 327 224
0.010758453 0.76700002 0.021516906 1.5000792e-38 328 224
0.01210326 0.76700002 0.021516906 1.463237e-38 329 224
0.013448066 0.76700002 0.021516906 1.4355428e-38 330 224
0.014792874 0.76700002 0.021516906 1.4262874e-38 331 224
0.01613768 0.76700002 0.021516906 1.3711505e-38 332 224
0.017482487 0.76700002 0.021516906 1.3527112e-38 333 224
0.018827293 0.76700002 0.021516906 1.2054876e-38 334 224
0.0202247 0.76899999 0.021573013 1.1501702e-38 335 224
0.021629119 0.77100003 0.021629119 1.1596081e-38 336 224
0.023040552 0.773 0.021685226 1.1965224e-38 337 224
0.024490559 0.77600002 0.021769386 1.2515173e-38 338 224
0.025984399 0.77999997 0.021881599 1.1224434e-38 339 224
0.027351998 0.77999997 0.021881599 8.569509e-39 340 224
0.028719598 0.77999997 0.021881599 1.2717952e-38 341 224
-0.030087199 0.77999997 0.020513998 1.5286785e-38 298 225
-0.028719598 0.77999997 0.020513998 1.4917642e-38 299 225
-0.027281865 0.778 0.020461399 1.620043e-38 300 225
-0.025851147 0.77600002 0.0204088 1.6292986e-38 301 225
-0.024395877 0.773 0.0203299 1.6201136e-38 302 225
-0.02298094 0.77100003 0.020277301 1.6293332e-38 303 225
-0.021573013 0.76899999 0.0202247 1.6476997e-38 304 225
-0.0202247 0.76899999 0.0202247 1.666139e-38 305 225
-0.018876385 0.76899999 0.0202247 1.6570276e-38 306 225
-0.017528072 0.76899999 0.0202247 1.6570276e-38 307 225
-0.01613768 0.76700002 0.020172099 1.6478449e-38 308 225
-0.014792874 0.76700002 0.020172099 1.6570644e-38 309 225
-0.013448066 0.76700002 0.020172099 1.6205103e-38 310 225
-0.01210326 0.76700002 0.020172099 1.6205103e-38 311 225
-0.010758453 0.76700002 0.020172099 1.666356e-38 312 225
-0.0094136465 0.76700002 0.020172099 1.6571363e-38 313 225
-0.00806884 0.76700002 0.020172099 1.6385181e-38 314 225
-0.006724033 0.76700002 0.020172099 1.620043e-38 315 225
-0.0053792265 0.76700002 0.020172099 1.5464316e-38 316 225
-0.00403442 0.76700002 0.020172099 1.5464316e-38 317 225
-0.0026896133 0.76700002 0.020172099 1.3997465e-38 318 225
-0.0013430532 0.76599997 0.020145798 1.3629041e-38 319 225
0 0.76599997 0.020145798 1.3627238e-38 320 225
0.0013430532 0.76599997 0.020145798 1.3627238e-38 321 225
0.0026861064 0.76599997 0.020145798 1.4086414e-38 322 225
0.0040291594 0.76599997 0.020145798 1.4271164e-38 323 225
0.0053722127 0.76599997 0.020145798 1.5188803e-38 324 225
0.0067152665 0.76599997 0.020145798 1.5188803e-38 325 225
0.0080583189 0.76599997 0.020145798 1.5369953e-38 326 225
0.0094013726 0.76599997 0.020145798 1.5185203e-38 327 225
0.010744425 0.76599997 0.020145798 1.4816776e-38 328 225
0.012087479 0.76599997 0.020145798 1.4632385e-38 329 225
0.013430533 0.76599997 0.020145798 1.408173e-38 330 225
0.014773586 0.76599997 0.020145798 1.3713306e-38 331 225
0.016116638 0.76599997 0.020145798 1.3895899e-38 332 225
0.017459691 0.76599997 0.020145798 1.3618952e-38 333 225
0.018827293 0.76700002 0.020172099 1.2144549e-38 334 225
0.0202247 0.76899999 0.0202247 1.2052352e-38 335 225
0.021629119 0.77100003 0.020277301 1.1503148e-38 336 225
0.023040552 0.773 0.0203299 1.168718e-38 337 225
0.02442744 0.77399999 0.020356199 1.233183e-38 338 225
0.025784519 0.77399999 0.020356199 1.2147437e-38 339 225
0.027141599 0.77399999 0.020356199 1.1320236e-38 340 225
0.028645959 0.778 0.020461399 1.2610974e-38 341 225
0.03001005 0.778 0.020461399 1.2174517e-38 342 225
-0.031212838 0.77399999 0.018999118 1.3823564e-38 297 226
-0.03001005 0.778 0.019097306 1.5375368e-38 298 226
-0.028645959 0.778 0.019097306 1.5651594e-38 299 226
-0.027211733 0.77600002 0.019048214 1.6109668e-38 300 226
-0.025784519 0.77399999 0.018999118 1.6017471e-38 301 226
-0.02433276 0.77100003 0.018925481 1.6201489e-38 302 226
-0.022921326 0.76899999 0.018876385 1.6385882e-38 303 226
-0.021516906 0.76700002 0.018827293 1.6386598e-38 304 226
-0.020172099 0.76700002 0.018827293 1.6479152e-38 305 226
-0.018827293 0.76700002 0.018827293 1.6571714e-38 306 226
-0.017482487 0.76700002 0.018827293 1.6387682e-38 307 226
-0.01613768 0.76700002 0.018827293 1.6662837e-38 308 226
-0.014792874 0.76700002 0.018827293 1.6755033e-38 309 226
-0.013448066 0.76700002 0.018827293 1.6848305e-38 310 226
-0.01210326 0.76700002 0.018827293 1.69405e-38 311 226
-0.010758453 0.76700002 0.018827293 1.6939774e-38 312 226
-0.0094013726 0.76599997 0.018802745 1.6755742e-38 313 226
-0.0080583189 0.76599997 0.018802745 1.6568491e-38 314 226
-0.0067152665 0.76599997 0.018802745 1.6107871e-38 315 226
-0.0053722127 0.76599997 0.018802745 1.5280651e-38 316 226
-0.0040291594 0.76599997 0.018802745 1.5188455e-38 317 226
-0.0026861064 0.76599997 0.018802745 1.3446812e-38 318 226
-0.0013430532 0.76599997 0.018802745 1.3354617e-38 319 226
0 0.764 0.018753653 1.2713196e-38 320 226
0.0013395466 0.764 0.018753653 1.2621001e-38 321 226
0.0026790933 0.764 0.018753653 1.3169505e-38 322 226
0.0040186401 0.764 0.018753653 1.3353897e-38 323 226
0.0053581866 0.764 0.018753653 1.5188818e-38 324 226
0.0067152665 0.76599997 0.018802745 1.4820395e-38 325 226
0.0080372803 0.764 0.018753653 1.5369231e-38 326 226
0.0093768267 0.764 0.018753653 1.5184839e-38 327 226
0.010744425 0.76599997 0.018802745 1.5092993e-38 328 226
0.01205592 0.764 0.018753653 1.5000798e-38 329 226
0.013395466 0.764 0.018753653 1.4357581e-38 330 226
0.014735013 0.764 0.018753653 1.4172829e-38 331 226
0.016116638 0.76599997 0.018802745 1.4080268e-38 332 226
0.017459691 0.76599997 0.018802745 1.3527094e-38 333 226
0.018802745 0.76599997 0.018802745 1.2881374e-38 334 226
0.020172099 0.76700002 0.018827293 1.2512232e-38 335 226
0.021573013 0.76899999 0.018876385 1.223782e-38 336 226
0.023040552 0.773 0.018974574 1.2330015e-38 337 226
0.02442744 0.77399999 0.018999118 1.2514782e-38 338 226
0.025784519 0.77399999 0.018999118 1.2883205e-38 339 226
0.027141599 0.77399999 0.018999118 1.2330776e-38 340 226
0.028572321 0.77600002 0.019048214 1.1870157e-38 341 226
0.03001005 0.778 0.019097306 1.1607294e-38 342 226
-0.032569919 0.77399999 0.01764204 1.4558233e-38 296 227
-0.031212838 0.77399999 0.01764204 1.3359691e-38 297 227
-0.029855758 0.77399999 0.01764204 1.6017487e-38 298 227
-0.028498679 0.77399999 0.01764204 1.6109683e-38 299 227
-0.027141599 0.77399999 0.01764204 1.6201139e-38 300 227
-0.025751207 0.773 0.017619247 1.6201139e-38 301 227
-0.02433276 0.77100003 0.01757366 1.6110373e-38 302 227
-0.022921326 0.76899999 0.017528072 1.6294405e-38 303 227
-0.021516906 0.76700002 0.017482487 1.6295484e-38 304 227
-0.020172099 0.76700002 0.017482487 1.6571711e-38 305 227
-0.018827293 0.76700002 0.017482487 1.6571716e-38 306 227
-0.017482487 0.76700002 0.017482487 1.6663912e-38 307 227
-0.016116638 0.76599997 0.017459691 1.675504e-38 308 227
-0.014773586 0.76599997 0.017459691 1.6939071e-38 309 227
-0.013430533 0.76599997 0.017459691 1.6940153e-38 310 227
-0.012087479 0.76599997 0.017459691 1.7032348e-38 311 227
-0.010716373 0.764 0.017414106 1.6847601e-38 312 227
-0.0093768267 0.764 0.017414106 1.6755406e-38 313 227
-0.0080372803 0.764 0.017414106 1.610932e-38 314 227
-0.0067152665 0.76599997 0.017459691 1.5647982e-38 315 227
-0.0053722127 0.76599997 0.017459691 1.4912941e-38 316 227
-0.0040291594 0.76599997 0.017459691 1.4912941e-38 317 227
-0.0026861064 0.76599997 0.017459691 1.2988352e-38 318 227
-0.0013395466 0.764 0.017414106 1.3264938e-38 319 227
0 0.764 0.017414106 1.2624612e-38 320 227
0.0013395466 0.764 0.017414106 1.1979242e-38 321 227
0.0026790933 0.764 0.017414106 1.2157871e-38 322 227
0.0040186401 0.764 0.017414106 1.2157871e-38 323 227
0.0053581866 0.764 0.017414106 1.4545956e-38 324 227
0.0067152665 0.76599997 0.017459691 1.4453402e-38 325 227
0.0080372803 0.764 0.017414106 1.5094086e-38 326 227
0.0093768267 0.764 0.017414106 1.5186282e-38 327 227
0.010716373 0.764 0.017414106 1.4819651e-38 328 227
0.01205592 0.764 0.017414106 1.4727455e-38 329 227
0.013395466 0.764 0.017414106 1.435867e-38 330 227
0.014735013 0.764 0.017414106 1.4082083e-38 331 227
0.016116638 0.76599997 0.017459691 1.3990233e-38 332 227
0.017459691 0.76599997 0.017459691 1.3344864e-38 333 227
0.018802745 0.76599997 0.017459691 1.3435262e-38 334 227
0.020172099 0.76700002 0.017482487 1.2974642e-38 335 227
0.021516906 0.76700002 0.017482487 1.2241043e-38 336 227
0.02298094 0.77100003 0.01757366 1.2241043e-38 337 227
0.02442744 0.77399999 0.01764204 1.2700227e-38 338 227
0.025784519 0.77399999 0.01764204 1.2700227e-38 339 227
0.027141599 0.77399999 0.01764204 1.2792088e-38 340 227
0.028572321 0.77600002 0.017687626 1.2515501e-38 341 227
0.029932907 0.77600002 0.017687626 1.0314742e-38 342 227
0.031293493 0.77600002 0.017687626 1.2803664e-38 343 227
-0.034014668 0.77600002 0.01632704 1.4935689e-38 295 228
-0.032569919 0.77399999 0.016284959 1.4919441e-38 296 228
-0.031212838 0.77399999 0.016284959 1.4458822e-38 297 228
-0.029855758 0.77399999 0.016284959 1.6385894e-38 298 228
-0.028498679 0.77399999 0.016284959 1.6109668e-38 299 228
-0.027106533 0.773 0.016263919 1.6200414e-38 300 228
-0.02568458 0.77100003 0.016221842 1.6200414e-38 301 228
-0.024269639 0.76899999 0.016179759 1.6294402e-38 302 228
-0.022861714 0.76700002 0.01613768 1.6386598e-38 303 228
-0.021516906 0.76700002 0.01613768 1.6478796e-38 304 228
-0.020172099 0.76700002 0.01613768 1.6570992e-38 305 228
-0.018802745 0.76599997 0.016116638 1.6571363e-38 306 228
-0.017459691 0.76599997 0.016116638 1.666356e-38 307 228
-0.016074561 0.764 0.016074561 1.6939071e-38 308 228
-0.014735013 0.764 0.016074561 1.7031267e-38 309 228
-0.013395466 0.764 0.016074561 1.7123818e-38 310 228
-0.01205592 0.764 0.016074561 1.7216014e-38 311 228
-0.010716373 0.764 0.016074561 1.7216011e-38 312 228
-0.0093768267 0.764 0.016074561 1.703162e-38 313 228
-0.0080372803 0.764 0.016074561 1.6937254e-38 314 228
-0.006697733 0.764 0.016074561 1.573871e-38 315 228
-0.0053581866 0.764 0.016074561 1.4637054e-38 316 228
-0.0040186401 0.764 0.016074561 1.4913641e-38 317 228
-0.0026790933 0.764 0.016074561 1.2437702e-38 318 228
-0.0013395466 0.764 0.016074561 1.2345505e-38 319 228
0 0.764 0.016074561 1.17041e-38 320 228
0.0013395466 0.764 0.016074561 1.1335316e-38 321 228
0.0026790933 0.764 0.016074561 1.1971678e-38 322 228
0.0040186401 0.764 0.016074561 1.2340821e-38 323 228
0.0053581866 0.764 0.016074561 1.4821092e-38 324 228
0.006697733 0.764 0.016074561 1.4821092e-38 325 228
0.0080372803 0.764 0.016074561 1.5186991e-38 326 228
0.0093768267 0.764 0.016074561 1.5186991e-38 327 228
0.010716373 0.764 0.016074561 1.5370301e-38 328 228
0.01205592 0.764 0.016074561 1.5185909e-38 329 228
0.013395466 0.764 0.016074561 1.4818552e-38 330 228
0.014735013 0.764 0.016074561 1.4449771e-38 331 228
0.016116638 0.76599997 0.016116638 1.426501e-38 332 228
0.017459691 0.76599997 0.016116638 1.3712195e-38 333 228
0.018802745 0.76599997 0.016116638 1.3435252e-38 334 228
0.020145798 0.76599997 0.016116638 1.32505e-38 335 228
0.021516906 0.76700002 0.01613768 1.2884243e-38 336 228
0.022921326 0.76899999 0.016179759 1.3068634e-38 337 228
0.024395877 0.773 0.016263919 1.3159403e-38 338 228
0.025784519 0.77399999 0.016284959 1.3159403e-38 339 228
0.027141599 0.77399999 0.016284959 1.2975053e-38 340 228
0.028572321 0.77600002 0.01632704 1.3067248e-38 341 228
0.029932907 0.77600002 0.01632704 1.1138388e-38 342 228
0.031293493 0.77600002 0.01632704 1.2060345e-38 343 228
0.032654081 0.77600002 0.01632704 1.4198147e-38 344 228
-0.03528408 0.77399999 0.014927879 1.5855482e-38 294 229
-0.033927001 0.77399999 0.014927879 1.438035e-38 295 229
-0.032569919 0.77399999 0.014927879 1.5563009e-38 296 229
-0.03117251 0.773 0.014908593 1.5102389e-38 297 229
-0.029817186 0.773 0.014908593 1.6294055e-38 298 229
-0.028461859 0.773 0.014908593 1.6017468e-38 299 229
-0.027036399 0.77100003 0.01487002 1.620077e-38 300 229
-0.025617953 0.76899999 0.014831445 1.6292966e-38 301 229
-0.024206521 0.76700002 0.014792874 1.6385879e-38 302 229
-0.022831906 0.76599997 0.014773586 1.6478433e-38 303 229
-0.021488851 0.76599997 0.014773586 1.6570992e-38 304 229
-0.020145798 0.76599997 0.014773586 1.6478796e-38 305 229
-0.018802745 0.76599997 0.014773586 1.6662837e-38 306 229
-0.017414106 0.764 0.014735013 1.6755033e-38 307 229
-0.01603248 0.76200002 0.01469644 1.6847952e-38 308 229
-0.01469644 0.76200002 0.01469644 1.6940147e-38 309 229
-0.0133604 0.76200002 0.01469644 1.7216733e-38 310 229
-0.01202436 0.76200002 0.01469644 1.7216733e-38 311 229
-0.01068832 0.76200002 0.01469644 1.7033418e-38 312 229
-0.0093522798 0.76200002 0.01469644 1.7125613e-38 313 229
-0.0080162399 0.76200002 0.01469644 1.739679e-38 314 229
-0.006697733 0.764 0.014735013 1.6567029e-38 315 229
-0.0053581866 0.764 0.014735013 1.5280975e-38 316 229
-0.0040081199 0.76200002 0.01469644 1.5096944e-38 317 229
-0.00267208 0.76200002 0.01469644 1.2618834e-38 318 229
-0.0013395466 0.764 0.014735013 1.1881268e-38 319 229
0 0.764 0.014735013 1.1973833e-38 320 229
0.0013395466 0.764 0.014735013 1.1789083e-38 321 229
0.0026790933 0.764 0.014735013 1.2612732e-38 322 229
0.0040186401 0.764 0.014735013 1.3350297e-38 323 229
0.0053581866 0.764 0.014735013 1.5189878e-38 324 229
0.006697733 0.764 0.014735013 1.5189878e-38 325 229
0.0080372803 0.764 0.014735013 1.5646893e-38 326 229
0.0093768267 0.764 0.014735013 1.5554697e-38 327 229
0.010716373 0.764 0.014735013 1.5462499e-38 328 229
0.01205592 0.764 0.014735013 1.5278108e-38 329 229
0.013395466 0.764 0.014735013 1.4727438e-38 330 229
0.014735013 0.764 0.014735013 1.4450492e-38 331 229
0.016116638 0.76599997 0.014773586 1.4357208e-38 332 229
0.017459691 0.76599997 0.014773586 1.3711839e-38 333 229
0.018802745 0.76599997 0.014773586 1.3527097e-38 334 229
0.020145798 0.76599997 0.014773586 1.3434543e-38 335 229
0.021516906 0.76700002 0.014792874 1.2976088e-38 336 229
0.022921326 0.76899999 0.014831445 1.3252315e-38 337 229
0.024395877 0.773 0.014908593 1.3251602e-38 338 229
0.025751207 0.773 0.014908593 1.3251602e-38 339 229
0.027106533 0.773 0.014908593 1.2974681e-38 340 229
0.028498679 0.77399999 0.014927879 1.3343464e-38 341 229
0.029855758 0.77399999 0.014927879 1.1782307e-38 342 229
0.031212838 0.77399999 0.014927879 1.1506079e-38 343 229
0.032654081 0.77600002 0.014966453 1.3181474e-38 344 229
0.034014668 0.77600002 0.014966453 1.705369e-38 345 229
-0.03528408 0.77399999 0.013570799 1.5207222e-38 294 230
-0.033927001 0.77399999 0.013570799 1.4100874e-38 295 230
-0.032569919 0.77399999 0.013570799 1.5745592e-38 296 230
-0.03117251 0.773 0.013553266 1.5561199e-38 297 230
-0.029817186 0.773 0.013553266 1.6110017e-38 298 230
-0.028461859 0.773 0.013553266 1.5925625e-38 299 230
-0.027036399 0.77100003 0.013518199 1.6201121e-38 300 230
-0.025617953 0.76899999 0.013483133 1.6477347e-38 301 230
-0.024206521 0.76700002 0.013448066 1.6386951e-38 302 230
-0.022831906 0.76599997 0.013430533 1.6571701e-38 303 230
-0.021488851 0.76599997 0.013430533 1.6571348e-38 304 230
-0.020145798 0.76599997 0.013430533 1.6663543e-38 305 230
-0.018753653 0.764 0.013395466 1.666356e-38 306 230
-0.017414106 0.764 0.013395466 1.6755756e-38 307 230
-0.01603248 0.76200002 0.0133604 1.694015e-38 308 230
-0.01469644 0.76200002 0.0133604 1.7032346e-38 309 230
-0.0133604 0.76200002 0.0133604 1.7308926e-38 310 230
-0.01202436 0.76200002 0.0133604 1.7308926e-38 311 230
-0.01068832 0.76200002 0.0133604 1.7400402e-38 312 230
-0.0093522798 0.76200002 0.0133604 1.7308207e-38 313 230
-0.0080162399 0.76200002 0.0133604 1.7306759e-38 314 230
-0.0066801999 0.76200002 0.0133604 1.6753944e-38 315 230
-0.0053441599 0.76200002 0.0133604 1.629224e-38 316 230
-0.0040081199 0.76200002 0.0133604 1.5923458e-38 317 230
-0.00267208 0.76200002 0.0133604 1.3348831e-38 318 230
-0.00133604 0.76200002 0.0133604 1.2703461e-38 319 230
0 0.76200002 0.0133604 1.2615237e-38 320 230
0.00133604 0.76200002 0.0133604 1.2707433e-38 321 230
0.00267208 0.76200002 0.0133604 1.3625442e-38 322 230
0.0040081199 0.76200002 0.0133604 1.4547399e-38 323 230
0.0053441599 0.76200002 0.0133604 1.5836323e-38 324 230
0.006697733 0.764 0.013395466 1.5744128e-38 325 230
0.0080372803 0.764 0.013395466 1.6110019e-38 326 230
0.0093768267 0.764 0.013395466 1.5740878e-38 327 230
0.010716373 0.764 0.013395466 1.6014224e-38 328 230
0.01202436 0.76200002 0.0133604 1.5737997e-38 329 230
0.0133604 0.76200002 0.0133604 1.5278808e-38 330 230
0.01469644 0.76200002 0.0133604 1.481783e-38 331 230
0.016074561 0.764 0.013395466 1.4357924e-38 332 230
0.017414106 0.764 0.013395466 1.3712555e-38 333 230
0.018753653 0.764 0.013395466 1.361929e-38 334 230
0.020145798 0.76599997 0.013430533 1.3527094e-38 335 230
0.021516906 0.76700002 0.013448066 1.334415e-38 336 230
0.022921326 0.76899999 0.013483133 1.334415e-38 337 230
0.024269639 0.76899999 0.013483133 1.3251249e-38 338 230
0.025751207 0.773 0.013553266 1.3343444e-38 339 230
0.027106533 0.773 0.013553266 1.3066877e-38 340 230
0.028498679 0.77399999 0.013570799 1.3251267e-38 341 230
0.029855758 0.77399999 0.013570799 1.1964883e-38 342 230
0.031212838 0.77399999 0.013570799 1.1504265e-38 343 230
0.032569919 0.77399999 0.013570799 1.2624687e-38 344 230
0.033927001 0.77399999 0.013570799 1.6404707e-38 345 230
-0.036830518 0.778 0.012276839 1.6965808e-38 293 231
-0.035375252 0.77600002 0.01224528 1.4558963e-38 294 231
-0.034014668 0.77600002 0.01224528 1.3637005e-38 295 231
-0.032569919 0.77399999 0.01221372 1.5651576e-38 296 231
-0.03117251 0.773 0.012197939 1.5744131e-38 297 231
-0.029817186 0.773 0.012197939 1.6018171e-38 298 231
-0.028461859 0.773 0.012197939 1.5925976e-38 299 231
-0.027036399 0.77100003 0.01216638 1.6201837e-38 300 231
-0.025617953 0.76899999 0.012134819 1.6294032e-38 301 231
-0.024206521 0.76700002 0.01210326 1.6203639e-38 302 231
-0.022831906 0.76599997 0.012087479 1.638803e-38 303 231
-0.021488851 0.76599997 0.012087479 1.6571711e-38 304 231
-0.020145798 0.76599997 0.012087479 1.6571711e-38 305 231
-0.018753653 0.764 0.01205592 1.6663556e-38 306 231
-0.01736852 0.76200002 0.01202436 1.6755753e-38 307 231
-0.01603248 0.76200002 0.01202436 1.684867e-38 308 231
-0.014677152 0.76099998 0.012008579 1.6940866e-38 309 231
-0.013342866 0.76099998 0.012008579 1.7216733e-38 310 231
-0.012008579 0.76099998 0.012008579 1.7216733e-38 311 231
-0.010674292 0.76099998 0.012008579 1.7308209e-38 312 231
-0.0093400059 0.76099998 0.012008579 1.7400405e-38 313 231
-0.0080057196 0.76099998 0.012008579 1.7584777e-38 314 231
-0.0066714329 0.76099998 0.012008579 1.7215996e-38 315 231
-0.0053371461 0.76099998 0.012008579 1.693831e-38 316 231
-0.0040028598 0.76099998 0.012008579 1.6385136e-38 317 231
-0.0026685731 0.76099998 0.012008579 1.4636686e-38 318 231
-0.0013342865 0.76099998 0.012008579 1.4175347e-38 319 231
0 0.76099998 0.012008579 1.4086051e-38 320 231
0.00133604 0.76200002 0.01202436 1.4546669e-38 321 231
0.00267208 0.76200002 0.01202436 1.5282789e-38 322 231
0.0040081199 0.76200002 0.01202436 1.5744128e-38 323 231
0.0053441599 0.76200002 0.01202436 1.6205455e-38 324 231
0.006697733 0.764 0.01205592 1.6297652e-38 325 231
0.0080372803 0.764 0.01205592 1.6388033e-38 326 231
0.0093768267 0.764 0.01205592 1.5926695e-38 327 231
0.010716373 0.764 0.01205592 1.5924178e-38 328 231
0.01202436 0.76200002 0.01202436 1.5555754e-38 329 231
0.0133604 0.76200002 0.01202436 1.5278808e-38 330 231
0.01469644 0.76200002 0.01202436 1.4910385e-38 331 231
0.016074561 0.764 0.01205592 1.4450477e-38 332 231
0.017414106 0.764 0.01205592 1.3897303e-38 333 231
0.018753653 0.764 0.01205592 1.3712195e-38 334 231
0.020145798 0.76599997 0.012087479 1.361964e-38 335 231
0.021516906 0.76700002 0.01210326 1.3436343e-38 336 231
0.022921326 0.76899999 0.012134819 1.3344148e-38 337 231
0.024269639 0.76899999 0.012134819 1.3527112e-38 338 231
0.02568458 0.77100003 0.01216638 1.3527112e-38 339 231
0.027036399 0.77100003 0.01216638 1.306723e-38 340 231
0.028461859 0.773 0.012197939 1.306723e-38 341 231
0.029855758 0.77399999 0.01221372 1.2424044e-38 342 231
0.031212838 0.77399999 0.01221372 1.1963066e-38 343 231
0.032569919 0.77399999 0.01221372 1.1884589e-38 344 231
0.033927001 0.77399999 0.01221372 1.5387663e-38 345 231
-0.036830518 0.778 0.010912746 1.6318639e-38 293 232
-0.035466425 0.778 0.010912746 1.4095094e-38 294 232
-0.034102332 0.778 0.010912746 1.354192e-38 295 232
-0.032569919 0.77399999 0.01085664 1.5558288e-38 296 232
-0.03117251 0.773 0.010842613 1.5650483e-38 297 232
-0.029817186 0.773 0.010842613 1.5925257e-38 298 232
-0.028388219 0.77100003 0.01081456 1.6109288e-38 299 232
-0.027036399 0.77100003 0.01081456 1.6202193e-38 300 232
-0.025551327 0.76700002 0.010758453 1.6386585e-38 301 232
-0.024206521 0.76700002 0.010758453 1.629619e-38 302 232
-0.022831906 0.76599997 0.010744425 1.6388386e-38 303 232
-0.021432746 0.764 0.010716373 1.6663188e-38 304 232
-0.020093199 0.764 0.010716373 1.6939774e-38 305 232
-0.01870456 0.76200002 0.01068832 1.6573516e-38 306 232
-0.01736852 0.76200002 0.01068832 1.6573516e-38 307 232
-0.016011439 0.76099998 0.010674292 1.6847952e-38 308 232
-0.014677152 0.76099998 0.010674292 1.6940147e-38 309 232
-0.013342866 0.76099998 0.010674292 1.7491522e-38 310 232
-0.012008579 0.76099998 0.010674292 1.7399326e-38 311 232
-0.010674292 0.76099998 0.010674292 1.7584073e-38 312 232
-0.0093400059 0.76099998 0.010674292 1.8044693e-38 313 232
-0.0080057196 0.76099998 0.010674292 1.7495828e-38 314 232
-0.0066538998 0.759 0.01064624 1.7218882e-38 315 232
-0.0053231199 0.759 0.01064624 1.71238e-38 316 232
-0.0039923396 0.759 0.01064624 1.6939407e-38 317 232
-0.00266156 0.759 0.01064624 1.6480597e-38 318 232
-0.0013342865 0.76099998 0.010674292 1.6480597e-38 319 232
0 0.76099998 0.010674292 1.6755759e-38 320 232
0.0013342865 0.76099998 0.010674292 1.694015e-38 321 232
0.00267208 0.76200002 0.01068832 1.7216011e-38 322 232
0.0040081199 0.76200002 0.01068832 1.703162e-38 323 232
0.0053441599 0.76200002 0.01068832 1.6388045e-38 324 232
0.006697733 0.764 0.010716373 1.629585e-38 325 232
0.0080372803 0.764 0.010716373 1.6202938e-38 326 232
0.0093768267 0.764 0.010716373 1.5925991e-38 327 232
0.01068832 0.76200002 0.01068832 1.5647966e-38 328 232
0.01202436 0.76200002 0.01068832 1.5463215e-38 329 232
0.0133604 0.76200002 0.01068832 1.5186262e-38 330 232
0.01469644 0.76200002 0.01068832 1.481748e-38 331 232
0.016074561 0.764 0.010716373 1.4449771e-38 332 232
0.017414106 0.764 0.010716373 1.4080987e-38 333 232
0.018753653 0.764 0.010716373 1.3896953e-38 334 232
0.020093199 0.764 0.010716373 1.3804757e-38 335 232
0.021488851 0.76599997 0.010744425 1.3437064e-38 336 232
0.022861714 0.76700002 0.010758453 1.3344867e-38 337 232
0.024269639 0.76899999 0.010786506 1.3344516e-38 338 232
0.02568458 0.77100003 0.01081456 1.3252321e-38 339 232
0.027036399 0.77100003 0.01081456 1.3066501e-38 340 232
0.028461859 0.773 0.010842613 1.3158697e-38 341 232
0.029855758 0.77399999 0.01085664 1.2424747e-38 342 232
0.031212838 0.77399999 0.01085664 1.2148521e-38 343 232
0.032569919 0.77399999 0.01085664 1.105266e-38 344 232
0.034014668 0.77600002 0.010884693 1.4279149e-38 345 232
0.035375252 0.77600002 0.010884693 1.6964739e-38 346 232
-0.038292799 0.77999997 0.0095731998 1.7240586e-38 292 233
-0.036830518 0.778 0.0095486529 1.548851e-38 293 233
-0.035466425 0.778 0.0095486529 1.4091128e-38 294 233
-0.034102332 0.778 0.0095486529 1.4091128e-38 295 233
-0.032569919 0.77399999 0.0094995592 1.5925991e-38 296 233
-0.031212838 0.77399999 0.0094995592 1.574196e-38 297 233
-0.029817186 0.773 0.0094872871 1.5833427e-38 298 233
-0.028388219 0.77100003 0.0094627403 1.5925623e-38 299 233
-0.026966266 0.76899999 0.0094381925 1.6109291e-38 300 233
-0.025551327 0.76700002 0.0094136465 1.6385879e-38 301 233
-0.024174958 0.76599997 0.0094013726 1.6295484e-38 302 233
-0.022831906 0.76599997 0.0094013726 1.6571711e-38 303 233
-0.021432746 0.764 0.0093768267 1.6205455e-38 304 233
-0.020093199 0.764 0.0093768267 1.6297652e-38 305 233
-0.01870456 0.76200002 0.0093522798 1.6755759e-38 306 233
-0.017345725 0.76099998 0.0093400059 1.6847954e-38 307 233
-0.016011439 0.76099998 0.0093400059 1.7031269e-38 308 233
-0.014677152 0.76099998 0.0093400059 1.7123465e-38 309 233
-0.013342866 0.76099998 0.0093400059 1.7032348e-38 310 233
-0.012008579 0.76099998 0.0093400059 1.721638e-38 311 233
-0.010674292 0.76099998 0.0093400059 1.721781e-38 312 233
-0.0093400059 0.76099998 0.0093400059 1.7586591e-38 313 233
-0.0080057196 0.76099998 0.0093400059 1.7678769e-38 314 233
-0.0066538998 0.759 0.00931546 1.7586573e-38 315 233
-0.0053231199 0.759 0.00931546 1.7859563e-38 316 233
-0.0039923396 0.759 0.00931546 1.7767367e-38 317 233
-0.00266156 0.759 0.00931546 1.7309281e-38 318 233
-0.00133078 0.759 0.00931546 1.7032696e-38 319 233
0 0.759 0.00931546 1.7032674e-38 320 233
0.0013342865 0.76099998 0.0093400059 1.6756445e-38 321 233
0.00267208 0.76200002 0.0093522798 1.703338e-38 322 233
0.0040081199 0.76200002 0.0093522798 1.6756793e-38 323 233
0.0053441599 0.76200002 0.0093522798 1.675431e-38 324 233
0.0066801999 0.76200002 0.0093522798 1.6385529e-38 325 233
0.0080162399 0.76200002 0.0093522798 1.620043e-38 326 233
0.0093522798 0.76200002 0.0093522798 1.5739812e-38 327 233
0.01068832 0.76200002 0.0093522798 1.573801e-38 328 233
0.01202436 0.76200002 0.0093522798 1.5277033e-38 329 233
0.0133604 0.76200002 0.0093522798 1.4909681e-38 330 233
0.01469644 0.76200002 0.0093522798 1.4724931e-38 331 233
0.01603248 0.76200002 0.0093522798 1.4265378e-38 332 233
0.017414106 0.764 0.0093768267 1.4173182e-38 333 233
0.018753653 0.764 0.0093768267 1.389695e-38 334 233
0.020093199 0.764 0.0093768267 1.3804754e-38 335 233
0.021432746 0.764 0.0093768267 1.3712209e-38 336 233
0.022861714 0.76700002 0.0094136465 1.3527816e-38 337 233
0.024269639 0.76899999 0.0094381925 1.3527107e-38 338 233
0.025617953 0.76899999 0.0094381925 1.3434911e-38 339 233
0.027036399 0.77100003 0.0094627403 1.3159053e-38 340 233
0.028461859 0.773 0.0094872871 1.3066857e-38 341 233
0.029855758 0.77399999 0.0094995592 1.2699536e-38 342 233
0.031212838 0.77399999 0.0094995592 1.2515145e-38 343 233
0.032569919 0.77399999 0.0094995592 1.0956145e-38 344 233
0.034014668 0.77600002 0.009524107 1.3076645e-38 345 233
-0.038292799 0.77999997 0.0082055992 1.6685967e-38 292 234
-0.036830518 0.778 0.0081845606 1.493389e-38 293 234
-0.035466425 0.778 0.0081845606 1.4456667e-38 294 234
-0.034102332 0.778 0.0081845606 1.4641059e-38 295 234
-0.032654081 0.77600002 0.0081635201 1.5926347e-38 296 234
-0.031212838 0.77399999 0.0081424797 1.5557566e-38 297 234
-0.029817186 0.773 0.0081319595 1.5833061e-38 298 234
-0.028388219 0.77100003 0.0081109209 1.5833061e-38 299 234
-0.026966266 0.76899999 0.0080898795 1.6109641e-38 300 234
-0.025551327 0.76700002 0.00806884 1.6201837e-38 301 234
-0.024174958 0.76599997 0.0080583189 1.6294038e-38 302 234
-0.022772292 0.764 0.0080372803 1.6478431e-38 303 234
-0.02137664 0.76200002 0.0080162399 1.6570998e-38 304 234
-0.0200406 0.76200002 0.0080162399 1.6755389e-38 305 234
-0.018680012 0.76099998 0.0080057196 1.675504e-38 306 234
-0.017345725 0.76099998 0.0080057196 1.6939071e-38 307 234
-0.016011439 0.76099998 0.0080057196 1.7030914e-38 308 234
-0.014677152 0.76099998 0.0080057196 1.7123109e-38 309 234
-0.013342866 0.76099998 0.0080057196 1.7032702e-38 310 234
-0.012008579 0.76099998 0.0080057196 1.7216733e-38 311 234
-0.010674292 0.76099998 0.0080057196 1.7493677e-38 312 234
-0.0093400059 0.76099998 0.0080057196 1.7678068e-38 313 234
-0.0080057196 0.76099998 0.0080057196 1.7588756e-38 314 234
-0.0066538998 0.759 0.0079846792 1.7312528e-38 315 234
-0.0053231199 0.759 0.0079846792 1.7495119e-38 316 234
-0.0039923396 0.759 0.0079846792 1.7402923e-38 317 234
-0.00266156 0.759 0.0079846792 1.7312153e-38 318 234
-0.00133078 0.759 0.0079846792 1.6943372e-38 319 234
0 0.759 0.0079846792 1.6850456e-38 320 234
0.0013342865 0.76099998 0.0080057196 1.657351e-38 321 234
0.0026685731 0.76099998 0.0080057196 1.6939421e-38 322 234
0.0040028598 0.76099998 0.0080057196 1.6755389e-38 323 234
0.0053371461 0.76099998 0.0080057196 1.6385176e-38 324 234
0.0066801999 0.76200002 0.0080162399 1.6108587e-38 325 234
0.0080162399 0.76200002 0.0080162399 1.6105717e-38 326 234
0.0093522798 0.76200002 0.0080162399 1.5737294e-38 327 234
0.01068832 0.76200002 0.0080162399 1.5277036e-38 328 234
0.01202436 0.76200002 0.0080162399 1.5092643e-38 329 234
0.0133604 0.76200002 0.0080162399 1.4724934e-38 330 234
0.01469644 0.76200002 0.0080162399 1.4632738e-38 331 234
0.01603248 0.76200002 0.0080162399 1.4265028e-38 332 234
0.017414106 0.764 0.0080372803 1.4080637e-38 333 234
0.01870456 0.76200002 0.0080162399 1.398987e-38 334 234
0.0200406 0.76200002 0.0080162399 1.380512e-38 335 234
0.021432746 0.764 0.0080372803 1.3712209e-38 336 234
0.022772292 0.764 0.0080372803 1.3620012e-38 337 234
0.024206521 0.76700002 0.00806884 1.3343795e-38 338 234
0.025551327 0.76700002 0.00806884 1.3343795e-38 339 234
0.026966266 0.76899999 0.0080898795 1.3066855e-38 340 234
0.028461859 0.773 0.0081319595 1.3066855e-38 341 234
0.029817186 0.773 0.0081319595 1.2607694e-38 342 234
0.031212838 0.77399999 0.0081424797 1.2607694e-38 343 234
0.032569919 0.77399999 0.0081424797 1.1138367e-38 344 234
0.034014668 0.77600002 0.0081635201 1.2152517e-38 345 234
-0.038292799 0.77999997 0.0068379994 1.6316459e-38 292 235
-0.036925197 0.77999997 0.0068379994 1.4195959e-38 293 235
-0.035466425 0.778 0.0068204664 1.463961e-38 294 235
-0.034102332 0.778 0.0068204664 1.4824362e-38 295 235
-0.032654081 0.77600002 0.0068029333 1.5558285e-38 296 235
-0.031212838 0.77399999 0.0067853997 1.5282058e-38 297 235
-0.029817186 0.773 0.0067766332 1.5741231e-38 298 235
-0.028388219 0.77100003 0.0067590997 1.5649036e-38 299 235
-0.026966266 0.76899999 0.0067415666 1.5741228e-38 300 235
-0.025551327 0.76700002 0.006724033 1.5833783e-38 301 235
-0.024174958 0.76599997 0.0067152665 1.611037e-38 302 235
-0.022772292 0.764 0.006697733 1.6386598e-38 303 235
-0.02137664 0.76200002 0.0066801999 1.6387682e-38 304 235
-0.0200406 0.76200002 0.0066801999 1.6571714e-38 305 235
-0.018680012 0.76099998 0.0066714329 1.6480248e-38 306 235
-0.017345725 0.76099998 0.0066714329 1.6756475e-38 307 235
-0.016011439 0.76099998 0.0066714329 1.6847954e-38 308 235
-0.014677152 0.76099998 0.0066714329 1.694015e-38 309 235
-0.013342866 0.76099998 0.0066714329 1.7032702e-38 310 235
-0.01197702 0.759 0.0066538998 1.7308928e-38 311 235
-0.01064624 0.759 0.0066538998 1.7127059e-38 312 235
-0.00931546 0.759 0.0066538998 1.7311449e-38 313 235
-0.0079846792 0.759 0.0066538998 1.7312177e-38 314 235
-0.0066538998 0.759 0.0066538998 1.7312177e-38 315 235
-0.0053231199 0.759 0.0066538998 1.7495838e-38 316 235
-0.0039923396 0.759 0.0066538998 1.7588035e-38 317 235
-0.00266156 0.759 0.0066538998 1.767949e-38 318 235
-0.0013272733 0.75700003 0.0066363667 1.7218514e-38 319 235
0 0.75700003 0.0066363667 1.6940853e-38 320 235
0.00133078 0.759 0.0066538998 1.6663906e-38 321 235
0.0026685731 0.76099998 0.0066714329 1.6571007e-38 322 235
0.0040028598 0.76099998 0.0066714329 1.6294781e-38 323 235
0.0053371461 0.76099998 0.0066714329 1.6293702e-38 324 235
0.0066714329 0.76099998 0.0066714329 1.5464301e-38 325 235
0.0080057196 0.76099998 0.0066714329 1.5645814e-38 326 235
0.0093400059 0.76099998 0.0066714329 1.5553618e-38 327 235
0.010674292 0.76099998 0.0066714329 1.49104e-38 328 235
0.01202436 0.76200002 0.0066801999 1.4817846e-38 329 235
0.0133604 0.76200002 0.0066801999 1.4450139e-38 330 235
0.01469644 0.76200002 0.0066801999 1.4173913e-38 331 235
0.01603248 0.76200002 0.0066801999 1.3990239e-38 332 235
0.01736852 0.76200002 0.0066801999 1.3897684e-38 333 235
0.01870456 0.76200002 0.0066801999 1.3714009e-38 334 235
0.0200406 0.76200002 0.0066801999 1.3529259e-38 335 235
0.02137664 0.76200002 0.0066801999 1.352854e-38 336 235
0.022772292 0.764 0.006697733 1.3436343e-38 337 235
0.024174958 0.76599997 0.0067152665 1.3343795e-38 338 235
0.025551327 0.76700002 0.006724033 1.3251599e-38 339 235
0.026966266 0.76899999 0.0067415666 1.3250527e-38 340 235
0.028388219 0.77100003 0.0067590997 1.3158331e-38 341 235
0.029740039 0.77100003 0.0067590997 1.2699892e-38 342 235
0.03117251 0.773 0.0067766332 1.2792088e-38 343 235
0.032569919 0.77399999 0.0067853997 1.1504984e-38 344 235
0.034014668 0.77600002 0.0068029333 1.159718e-38 345 235
0.035375252 0.77600002 0.0068029333 1.4194887e-38 346 235
-0.039660398 0.77999997 0.0054703997 1.8346227e-38 291 236
-0.038292799 0.77999997 0.0054703997 1.6038427e-38 292 236
-0.036830518 0.778 0.0054563731 1.3733536e-38 293 236
-0.035466425 0.778 0.0054563731 1.4823276e-38 294 236
-0.034102332 0.778 0.0054563731 1.491583e-38 295 236
-0.032654081 0.77600002 0.0054423464 1.5557566e-38 296 236
-0.031293493 0.77600002 0.0054423464 1.5373175e-38 297 236
-0.029817186 0.773 0.0054213065 1.5647599e-38 298 236
-0.028314579 0.76899999 0.0053932532 1.5647599e-38 299 236
-0.026896132 0.76700002 0.0053792265 1.592346e-38 300 236
-0.025518013 0.76599997 0.0053722127 1.6199688e-38 301 236
-0.024111839 0.764 0.0053581866 1.6018171e-38 302 236
-0.02271268 0.76200002 0.0053441599 1.6294758e-38 303 236
-0.02137664 0.76200002 0.0053441599 1.6203288e-38 304 236
-0.0200406 0.76200002 0.0053441599 1.6295484e-38 305 236
-0.018680012 0.76099998 0.0053371461 1.6480244e-38 306 236
-0.017345725 0.76099998 0.0053371461 1.6572441e-38 307 236
-0.016011439 0.76099998 0.0053371461 1.6847954e-38 308 236
-0.014638579 0.759 0.0053231199 1.694015e-38 309 236
-0.0133078 0.759 0.0053231199 1.6940872e-38 310 236
-0.01197702 0.759 0.0053231199 1.7033067e-38 311 236
-0.01064624 0.759 0.0053231199 1.6942315e-38 312 236
-0.00931546 0.759 0.0053231199 1.7311096e-38 313 236
-0.0079846792 0.759 0.0053231199 1.7220349e-38 314 236
-0.0066538998 0.759 0.0053231199 1.7220349e-38 315 236
-0.0053231199 0.759 0.0053231199 1.7587337e-38 316 236
-0.0039923396 0.759 0.0053231199 1.7587337e-38 317 236
-0.00266156 0.759 0.0053231199 1.7495492e-38 318 236
-0.0013272733 0.75700003 0.0053090933 1.6850122e-38 319 236
0 0.75700003 0.0053090933 1.6387342e-38 320 236
0.00133078 0.759 0.0053231199 1.5741973e-38 321 236
0.00266156 0.759 0.0053231199 1.6293351e-38 322 236
0.0039923396 0.759 0.0053231199 1.6293351e-38 323 236
0.0053371461 0.76099998 0.0053371461 1.6017838e-38 324 236
0.0066714329 0.76099998 0.0053371461 1.509624e-38 325 236
0.0080057196 0.76099998 0.0053371461 1.5278102e-38 326 236
0.0093400059 0.76099998 0.0053371461 1.5278102e-38 327 236
0.010674292 0.76099998 0.0053371461 1.4727432e-38 328 236
0.012008579 0.76099998 0.0053371461 1.4635237e-38 329 236
0.013342866 0.76099998 0.0053371461 1.4267533e-38 330 236
0.014677152 0.76099998 0.0053371461 1.4174979e-38 331 236
0.01603248 0.76200002 0.0053441599 1.3899121e-38 332 236
0.01736852 0.76200002 0.0053441599 1.3622174e-38 333 236
0.01870456 0.76200002 0.0053441599 1.3713656e-38 334 236
0.0200406 0.76200002 0.0053441599 1.3529265e-38 335 236
0.02137664 0.76200002 0.0053441599 1.3528193e-38 336 236
0.022772292 0.764 0.0053581866 1.3435996e-38 337 236
0.024174958 0.76599997 0.0053722127 1.3343447e-38 338 236
0.025551327 0.76700002 0.0053792265 1.3251251e-38 339 236
0.026896132 0.76700002 0.0053792265 1.2883192e-38 340 236
0.028314579 0.76899999 0.0053932532 1.2883192e-38 341 236
0.029740039 0.77100003 0.0054072798 1.2424026e-38 342 236
0.03117251 0.773 0.0054213065 1.251658e-38 343 236
0.032569919 0.77399999 0.0054283198 1.1504262e-38 344 236
0.034014668 0.77600002 0.0054423464 1.1688294e-38 345 236
0.035375252 0.77600002 0.0054423464 1.3824663e-38 346 236
-0.041027997 0.77999997 0.0041027996 1.8163631e-38 290 237
-0.039660398 0.77999997 0.0041027996 1.8071435e-38 291 237
-0.038292799 0.77999997 0.0041027996 1.5577443e-38 292 237
-0.036830518 0.778 0.0040922803 1.308852e-38 293 237
-0.035375252 0.77600002 0.0040817601 1.4822557e-38 294 237
-0.034014668 0.77600002 0.0040817601 1.4822557e-38 295 237
-0.032569919 0.77399999 0.0040712398 1.5647964e-38 296 237
-0.031212838 0.77399999 0.0040712398 1.5463571e-38 297 237
-0.029740039 0.77100003 0.0040554604 1.5738713e-38 298 237
-0.02824094 0.76700002 0.00403442 1.5646517e-38 299 237
-0.026896132 0.76700002 0.00403442 1.5830546e-38 300 237
-0.025518013 0.76599997 0.0040291594 1.6106773e-38 301 237
-0.024111839 0.764 0.0040186401 1.5925257e-38 302 237
-0.022682872 0.76099998 0.0040028598 1.6109288e-38 303 237
-0.021348584 0.76099998 0.0040028598 1.6293332e-38 304 237
-0.020014299 0.76099998 0.0040028598 1.6385529e-38 305 237
-0.018680012 0.76099998 0.0040028598 1.6569926e-38 306 237
