# .PCD v.7 - Point Cloud Data file format
FIELDS x y z rgb imX imY
SIZE 4 4 4 4 4 4
TYPE F F F F F F
COUNT 1 1 1 1 1 1
WIDTH 847
HEIGHT 1
VIEWPOINT 0 0 0 1 0 0 0
POINTS 847
DATA ascii
-0.032022879 0.76099998 -0.0066714329 1.5003663e-38 296 245
-0.030688593 0.76099998 -0.0066714329 1.4819631e-38 297 245
-0.029277159 0.759 -0.0066538998 1.5002943e-38 298 245
-0.027946379 0.759 -0.0066538998 1.4910748e-38 299 245
-0.026615599 0.759 -0.0066538998 1.4910397e-38 300 245
-0.025218192 0.75700003 -0.0066363667 1.4818202e-38 301 245
-0.02389092 0.75700003 -0.0066363667 1.4908246e-38 302 245
-0.022504034 0.755 -0.0066188332 1.4447268e-38 303 245
-0.021180267 0.755 -0.0066188332 1.38941e-38 304 245
-0.0198565 0.755 -0.0066188332 1.3801904e-38 305 245
-0.018532733 0.755 -0.0066188332 1.3342744e-38 306 245
-0.017208965 0.755 -0.0066188332 1.3434941e-38 307 245
-0.015885198 0.755 -0.0066188332 1.3250558e-38 308 245
-0.014561433 0.755 -0.0066188332 1.3250558e-38 309 245
-0.013220133 0.75400001 -0.0066100666 1.3345262e-38 310 245
-0.01189812 0.75400001 -0.0066100666 1.3529653e-38 311 245
-0.010576107 0.75400001 -0.0066100666 1.3345615e-38 312 245
-0.0092540924 0.75400001 -0.0066100666 1.3160865e-38 313 245
-0.00793208 0.75400001 -0.0066100666 1.3249473e-38 314 245
-0.0066100666 0.75400001 -0.0066100666 1.2972886e-38 315 245
-0.0052880533 0.75400001 -0.0066100666 1.2788138e-38 316 245
-0.00396604 0.75400001 -0.0066100666 1.2604107e-38 317 245
-0.0026440267 0.75400001 -0.0066100666 1.2237119e-38 318 245
-0.0013237667 0.755 -0.0066188332 1.2052369e-38 319 245
0 0.755 -0.0066188332 1.1776144e-38 320 245
0.0013237667 0.755 -0.0066188332 1.1683589e-38 321 245
0.0026545466 0.75700003 -0.0066363667 1.1683595e-38 322 245
0.0039818203 0.75700003 -0.0066363667 1.1591399e-38 323 245
0.0053231199 0.759 -0.0066538998 1.1224059e-38 324 245
0.0066363667 0.75700003 -0.0066363667 1.1131504e-38 325 245
0.0079636406 0.75700003 -0.0066363667 1.0672328e-38 326 245
0.00931546 0.759 -0.0066538998 1.0580131e-38 327 245
0.010674292 0.76099998 -0.0066714329 9.8461634e-39 328 245
0.012008579 0.76099998 -0.0066714329 9.7539678e-39 329 245
0.013342866 0.76099998 -0.0066714329 9.2947847e-39 330 245
0.014677152 0.76099998 -0.0066714329 9.0185565e-39 331 245
0.01603248 0.76200002 -0.0066801999 9.1093172e-39 332 245
0.01736852 0.76200002 -0.0066801999 9.1093172e-39 333 245
0.018753653 0.764 -0.006697733 9.0167741e-39 334 245
0.020093199 0.764 -0.006697733 9.0167741e-39 335 245
0.021432746 0.764 -0.006697733 8.9238694e-39 336 245
0.022861714 0.76700002 -0.006724033 9.200815e-39 337 245
0.024269639 0.76899999 -0.0067415666 8.8349178e-39 338 245
0.025617953 0.76899999 -0.0067415666 9.3880915e-39 339 245
0.026966266 0.76899999 -0.0067415666 9.0221985e-39 340 245
0.028388219 0.77100003 -0.0067590997 1.1880622e-38 341 245
-0.047497798 0.77399999 -0.0081424797 1.6319718e-38 285 246
-0.046140719 0.77399999 -0.0081424797 1.6219926e-38 286 246
-0.044725779 0.773 -0.0081319595 1.2440264e-38 287 246
-0.043258239 0.77100003 -0.0081109209 1.4641763e-38 288 246
-0.041797712 0.76899999 -0.0080898795 1.4365174e-38 289 246
-0.0404494 0.76899999 -0.0080898795 1.4362991e-38 290 246
-0.038999394 0.76700002 -0.00806884 1.41786e-38 291 246
-0.037605491 0.76599997 -0.0080583189 1.4820001e-38 292 246
-0.036167759 0.764 -0.0080372803 1.4727805e-38 293 246
-0.034691449 0.76099998 -0.0080057196 1.500295e-38 294 246
-0.033357166 0.76099998 -0.0080057196 1.4910394e-38 295 246
-0.032022879 0.76099998 -0.0080057196 1.4910029e-38 296 246
-0.030688593 0.76099998 -0.0080057196 1.4910029e-38 297 246
-0.029277159 0.759 -0.0079846792 1.491075e-38 298 246
-0.027946379 0.759 -0.0079846792 1.4818555e-38 299 246
-0.026615599 0.759 -0.0079846792 1.481713e-38 300 246
-0.025218192 0.75700003 -0.0079636406 1.4632738e-38 301 246
-0.02389092 0.75700003 -0.0079636406 1.453982e-38 302 246
-0.022504034 0.755 -0.0079425992 1.4355428e-38 303 246
-0.021180267 0.755 -0.0079425992 1.3712577e-38 304 246
-0.0198565 0.755 -0.0079425992 1.3343795e-38 305 246
-0.018532733 0.755 -0.0079425992 1.2975753e-38 306 246
-0.017208965 0.755 -0.0079425992 1.242258e-38 307 246
-0.01586416 0.75400001 -0.00793208 1.3155481e-38 308 246
-0.014542146 0.75400001 -0.00793208 1.3062927e-38 309 246
-0.013220133 0.75400001 -0.00793208 1.3248394e-38 310 246
-0.01189812 0.75400001 -0.00793208 1.334059e-38 311 246
-0.010576107 0.75400001 -0.00793208 1.3249829e-38 312 246
-0.0092540924 0.75400001 -0.00793208 1.3065079e-38 313 246
-0.00793208 0.75400001 -0.00793208 1.2787419e-38 314 246
-0.0066100666 0.75400001 -0.00793208 1.2695223e-38 315 246
-0.0052880533 0.75400001 -0.00793208 1.2419357e-38 316 246
-0.00396604 0.75400001 -0.00793208 1.2327161e-38 317 246
-0.0026440267 0.75400001 -0.00793208 1.2052369e-38 318 246
-0.0013237667 0.755 -0.0079425992 1.1683945e-38 319 246
0 0.755 -0.0079425992 1.1958734e-38 320 246
0.0013237667 0.755 -0.0079425992 1.1774343e-38 321 246
0.0026475333 0.755 -0.0079425992 1.159175e-38 322 246
0.0039818203 0.75700003 -0.0079636406 1.159175e-38 323 246
0.0053090933 0.75700003 -0.0079636406 1.1223334e-38 324 246
0.0066363667 0.75700003 -0.0079636406 1.1131137e-38 325 246
0.0079636406 0.75700003 -0.0079636406 1.0304621e-38 326 246
0.00931546 0.759 -0.0079846792 1.0304621e-38 327 246
0.01064624 0.759 -0.0079846792 9.7528888e-39 328 246
0.012008579 0.76099998 -0.0080057196 9.7528888e-39 329 246
0.013342866 0.76099998 -0.0080057196 9.2937155e-39 330 246
0.01469644 0.76200002 -0.0080162399 9.2015185e-39 331 246
0.01603248 0.76200002 -0.0080162399 8.7430585e-39 332 246
0.01736852 0.76200002 -0.0080162399 8.6508628e-39 333 246
0.018753653 0.764 -0.0080372803 8.8331031e-39 334 246
0.020093199 0.764 -0.0080372803 8.8331031e-39 335 246
0.021432746 0.764 -0.0080372803 9.016421e-39 336 246
0.022861714 0.76700002 -0.00806884 9.1086166e-39 337 246
0.024269639 0.76899999 -0.0080898795 9.1111375e-39 338 246
0.025617953 0.76899999 -0.0080898795 9.2955288e-39 339 246
0.027036399 0.77100003 -0.0081109209 9.1147501e-39 340 246
0.028461859 0.773 -0.0081319595 1.2433793e-38 341 246
-0.04885488 0.77399999 -0.0094995592 1.8256182e-38 284 247
-0.047497798 0.77399999 -0.0094995592 1.6873248e-38 285 247
-0.046081103 0.773 -0.0094872871 1.6956411e-38 286 247
-0.044725779 0.773 -0.0094872871 1.2991999e-38 287 247
-0.043258239 0.77100003 -0.0094627403 1.4549567e-38 288 247
-0.041797712 0.76899999 -0.0094381925 1.3996393e-38 289 247
-0.0404494 0.76899999 -0.0094381925 1.4270793e-38 290 247
-0.038999394 0.76700002 -0.0094136465 1.4086401e-38 291 247
-0.037605491 0.76599997 -0.0094013726 1.4268625e-38 292 247
-0.036167759 0.764 -0.0093768267 1.4452657e-38 293 247
-0.034828212 0.764 -0.0093768267 1.4359744e-38 294 247
-0.033357166 0.76099998 -0.0093400059 1.4359744e-38 295 247
-0.032022879 0.76099998 -0.0093400059 1.4542341e-38 296 247
-0.030688593 0.76099998 -0.0093400059 1.4542341e-38 297 247
-0.029277159 0.759 -0.00931546 1.4542341e-38 298 247
-0.027946379 0.759 -0.00931546 1.4542341e-38 299 247
-0.026615599 0.759 -0.00931546 1.4357593e-38 300 247
-0.025218192 0.75700003 -0.0092909131 1.4173562e-38 301 247
-0.02389092 0.75700003 -0.0092909131 1.4264309e-38 302 247
-0.022504034 0.755 -0.0092663663 1.4079918e-38 303 247
-0.021180267 0.755 -0.0092663663 1.3895877e-38 304 247
-0.0198565 0.755 -0.0092663663 1.361929e-38 305 247
-0.018532733 0.755 -0.0092663663 1.3249451e-38 306 247
-0.017208965 0.755 -0.0092663663 1.2788473e-38 307 247
-0.01586416 0.75400001 -0.0092540924 1.1774008e-38 308 247
-0.014542146 0.75400001 -0.0092540924 1.1866204e-38 309 247
-0.013220133 0.75400001 -0.0092540924 1.1317e-38 310 247
-0.01189812 0.75400001 -0.0092540924 1.1409196e-38 311 247
-0.010576107 0.75400001 -0.0092540924 1.1960199e-38 312 247
-0.0092540924 0.75400001 -0.0092540924 1.1868003e-38 313 247
-0.00793208 0.75400001 -0.0092540924 1.2144217e-38 314 247
-0.0066100666 0.75400001 -0.0092540924 1.1959825e-38 315 247
-0.0052880533 0.75400001 -0.0092540924 1.2052375e-38 316 247
-0.00396604 0.75400001 -0.0092540924 1.2052375e-38 317 247
-0.0026475333 0.755 -0.0092663663 1.2051652e-38 318 247
-0.0013237667 0.755 -0.0092663663 1.186726e-38 319 247
0 0.755 -0.0092663663 1.1774706e-38 320 247
0.0013237667 0.755 -0.0092663663 1.1774706e-38 321 247
0.0026475333 0.755 -0.0092663663 1.1315889e-38 322 247
0.0039818203 0.75700003 -0.0092909131 1.1131137e-38 323 247
0.0053090933 0.75700003 -0.0092909131 1.0579415e-38 324 247
0.0066363667 0.75700003 -0.0092909131 1.0395024e-38 325 247
0.0079636406 0.75700003 -0.0092909131 9.9365668e-39 326 247
0.00931546 0.759 -0.00931546 9.8443711e-39 327 247
0.01064624 0.759 -0.00931546 9.3859111e-39 328 247
0.012008579 0.76099998 -0.0093400059 9.2937155e-39 329 247
0.013342866 0.76099998 -0.0093400059 8.9263735e-39 330 247
0.01469644 0.76200002 -0.0093522798 8.9263735e-39 331 247
0.01603248 0.76200002 -0.0093522798 8.6505097e-39 332 247
0.017414106 0.764 -0.0093768267 8.6505097e-39 333 247
0.018753653 0.764 -0.0093768267 8.5583169e-39 334 247
0.020093199 0.764 -0.0093768267 8.5583169e-39 335 247
0.021488851 0.76599997 -0.0094013726 8.5576078e-39 336 247
0.022861714 0.76700002 -0.0094136465 8.7423578e-39 337 247
0.024269639 0.76899999 -0.0094381925 8.3764634e-39 338 247
0.025617953 0.76899999 -0.0094381925 8.7452445e-39 339 247
0.027106533 0.773 -0.0094872871 9.0222041e-39 340 247
0.028498679 0.77399999 -0.0094995592 1.3171007e-38 341 247
-0.04885488 0.77399999 -0.01085664 1.8256182e-38 284 248
-0.047497798 0.77399999 -0.01085664 1.7426422e-38 285 248
-0.046081103 0.773 -0.010842613 1.73252e-38 286 248
-0.044725779 0.773 -0.010842613 1.2807614e-38 287 248
-0.043258239 0.77100003 -0.01081456 1.4182228e-38 288 248
-0.041797712 0.76899999 -0.010786506 1.3536858e-38 289 248
-0.0404494 0.76899999 -0.010786506 1.41786e-38 290 248
-0.039101087 0.76899999 -0.010786506 1.3901653e-38 291 248
-0.037605491 0.76599997 -0.010744425 1.4267543e-38 292 248
-0.036262438 0.76599997 -0.010744425 1.4267543e-38 293 248
-0.034737039 0.76200002 -0.01068832 1.4267543e-38 294 248
-0.033357166 0.76099998 -0.010674292 1.4175347e-38 295 248
-0.032022879 0.76099998 -0.010674292 1.4357591e-38 296 248
-0.030607941 0.759 -0.01064624 1.4173559e-38 297 248
-0.029277159 0.759 -0.01064624 1.4356874e-38 298 248
-0.027946379 0.759 -0.01064624 1.4264677e-38 299 248
-0.026545467 0.75700003 -0.010618187 1.4264675e-38 300 248
-0.025218192 0.75700003 -0.010618187 1.4172479e-38 301 248
-0.023827799 0.755 -0.010590133 1.4079199e-38 302 248
-0.022504034 0.755 -0.010590133 1.3987003e-38 303 248
-0.021180267 0.755 -0.010590133 1.3802252e-38 304 248
-0.0198565 0.755 -0.010590133 1.3617861e-38 305 248
-0.018532733 0.755 -0.010590133 1.2973583e-38 306 248
-0.017208965 0.755 -0.010590133 1.2236018e-38 307 248
-0.01586416 0.75400001 -0.010576107 1.1405929e-38 308 248
-0.014542146 0.75400001 -0.010576107 1.1129342e-38 309 248
-0.013220133 0.75400001 -0.010576107 1.1130438e-38 310 248
-0.01189812 0.75400001 -0.010576107 1.1222634e-38 311 248
-0.010576107 0.75400001 -0.010576107 1.1407734e-38 312 248
-0.0092540924 0.75400001 -0.010576107 1.1407734e-38 313 248
-0.00793208 0.75400001 -0.010576107 1.1684308e-38 314 248
-0.0066100666 0.75400001 -0.010576107 1.1684308e-38 315 248
-0.0052880533 0.75400001 -0.010576107 1.1776141e-38 316 248
-0.00396604 0.75400001 -0.010576107 1.1776141e-38 317 248
-0.0026475333 0.755 -0.010590133 1.1683943e-38 318 248
-0.0013237667 0.755 -0.010590133 1.1591747e-38 319 248
0 0.755 -0.010590133 1.1499554e-38 320 248
0.0013272733 0.75700003 -0.010618187 1.1407e-38 321 248
0.0026545466 0.75700003 -0.010618187 1.131445e-38 322 248
0.0039818203 0.75700003 -0.010618187 1.1130418e-38 323 248
0.0053090933 0.75700003 -0.010618187 1.0486141e-38 324 248
0.0066363667 0.75700003 -0.010618187 1.0301751e-38 325 248
0.0079636406 0.75700003 -0.010618187 9.6592666e-39 326 248
0.00931546 0.759 -0.01064624 9.6592666e-39 327 248
0.01064624 0.759 -0.01064624 9.0178531e-39 328 248
0.012008579 0.76099998 -0.010674292 9.0178531e-39 329 248
0.013342866 0.76099998 -0.010674292 9.0185733e-39 330 248
0.01469644 0.76200002 -0.01068832 8.9260176e-39 331 248
0.01603248 0.76200002 -0.01068832 8.8338248e-39 332 248
0.017414106 0.764 -0.010716373 8.557598e-39 333 248
0.018753653 0.764 -0.010716373 8.7409103e-39 334 248
0.020093199 0.764 -0.010716373 8.6487146e-39 335 248
0.021488851 0.76599997 -0.010744425 8.4650464e-39 336 248
0.022861714 0.76700002 -0.010758453 8.5572421e-39 337 248
0.024269639 0.76899999 -0.010786506 8.6516083e-39 338 248
0.025617953 0.76899999 -0.010786506 8.6516083e-39 339 248
0.027036399 0.77100003 -0.01081456 9.0222041e-39 340 248
0.028498679 0.77399999 -0.01085664 1.3816377e-38 341 248
-0.04885488 0.77399999 -0.01221372 1.8439497e-38 284 249
-0.047497798 0.77399999 -0.01221372 1.7794128e-38 285 249
-0.046081103 0.773 -0.012197939 1.7234802e-38 286 249
-0.044725779 0.773 -0.012197939 1.2625021e-38 287 249
-0.043258239 0.77100003 -0.01216638 1.3998913e-38 288 249
-0.04190642 0.77100003 -0.01216638 1.3261348e-38 289 249
-0.040554602 0.77100003 -0.01216638 1.381054e-38 290 249
-0.039101087 0.76899999 -0.012134819 1.3533593e-38 291 249
-0.037654586 0.76700002 -0.01210326 1.3899486e-38 292 249
-0.036262438 0.76599997 -0.012087479 1.3899486e-38 293 249
-0.034737039 0.76200002 -0.01202436 1.3898768e-38 294 249
-0.033357166 0.76099998 -0.012008579 1.3898768e-38 295 249
-0.032022879 0.76099998 -0.012008579 1.3989533e-38 296 249
-0.030607941 0.759 -0.01197702 1.3897337e-38 297 249
-0.029277159 0.759 -0.01197702 1.407993e-38 298 249
-0.027946379 0.759 -0.01197702 1.3895899e-38 299 249
-0.026545467 0.75700003 -0.01194546 1.380442e-38 300 249
-0.025218192 0.75700003 -0.01194546 1.3712224e-38 301 249
-0.023827799 0.755 -0.011913899 1.3710782e-38 302 249
-0.022504034 0.755 -0.011913899 1.3618586e-38 303 249
-0.021180267 0.755 -0.011913899 1.3709706e-38 304 249
-0.0198565 0.755 -0.011913899 1.3340925e-38 305 249
-0.018532733 0.755 -0.011913899 1.2789194e-38 306 249
-0.017208965 0.755 -0.011913899 1.2143825e-38 307 249
-0.01586416 0.75400001 -0.01189812 1.1130418e-38 308 249
-0.014542146 0.75400001 -0.01189812 1.0946027e-38 309 249
-0.013220133 0.75400001 -0.01189812 1.0121324e-38 310 249
-0.01189812 0.75400001 -0.01189812 1.0213521e-38 311 249
-0.010548052 0.75199997 -0.011866559 1.0581931e-38 312 249
-0.0092295464 0.75199997 -0.011866559 1.0674485e-38 313 249
-0.00793208 0.75400001 -0.01189812 1.113329e-38 314 249
-0.0066100666 0.75400001 -0.01189812 1.113329e-38 315 249
-0.0052880533 0.75400001 -0.01189812 1.1316602e-38 316 249
-0.00396604 0.75400001 -0.01189812 1.1316602e-38 317 249
-0.0026475333 0.755 -0.011913899 1.1499554e-38 318 249
-0.0013237667 0.755 -0.011913899 1.1407e-38 319 249
0 0.755 -0.011913899 1.1314803e-38 320 249
0.0013272733 0.75700003 -0.01194546 1.1407e-38 321 249
0.0026545466 0.75700003 -0.01194546 1.1038944e-38 322 249
0.0039818203 0.75700003 -0.01194546 1.0946749e-38 323 249
0.0053090933 0.75700003 -0.01194546 1.0302472e-38 324 249
0.0066363667 0.75700003 -0.01194546 1.011808e-38 325 249
0.0079636406 0.75700003 -0.01194546 9.567071e-39 326 249
0.0092909131 0.75700003 -0.01194546 9.567071e-39 327 249
0.01064624 0.759 -0.01197702 9.1089669e-39 328 249
0.012008579 0.76099998 -0.012008579 9.2011625e-39 329 249
0.013342866 0.76099998 -0.012008579 9.2022387e-39 330 249
0.01469644 0.76200002 -0.01202436 9.0178475e-39 331 249
0.01603248 0.76200002 -0.01202436 8.9242197e-39 332 249
0.017414106 0.764 -0.01205592 8.9242197e-39 333 249
0.018753653 0.764 -0.01205592 8.3735669e-39 334 249
0.020093199 0.764 -0.01205592 8.0973387e-39 335 249
0.021488851 0.76599997 -0.012087479 8.0969898e-39 336 249
0.022861714 0.76700002 -0.01210326 8.3732165e-39 337 249
0.024269639 0.76899999 -0.012134819 8.0087598e-39 338 249
0.02568458 0.77100003 -0.01216638 8.3771822e-39 339 249
0.027036399 0.77100003 -0.01216638 8.9314504e-39 340 249
0.028461859 0.773 -0.012197939 1.4186601e-38 341 249
-0.04885488 0.77399999 -0.013570799 1.8163631e-38 284 250
-0.047497798 0.77399999 -0.013570799 1.7979239e-38 285 250
-0.046081103 0.773 -0.013553266 1.7235523e-38 286 250
-0.044725779 0.773 -0.013553266 1.2441349e-38 287 250
-0.043258239 0.77100003 -0.013518199 1.3722323e-38 288 250
-0.04190642 0.77100003 -0.013518199 1.2984758e-38 289 250
-0.040554602 0.77100003 -0.013518199 1.3809454e-38 290 250
-0.039101087 0.76899999 -0.013483133 1.3441032e-38 291 250
-0.037654586 0.76700002 -0.013448066 1.3623258e-38 292 250
-0.036262438 0.76599997 -0.013430533 1.3531063e-38 293 250
-0.034828212 0.764 -0.013395466 1.3438508e-38 294 250
-0.033357166 0.76099998 -0.013342866 1.3531063e-38 295 250
-0.032022879 0.76099998 -0.013342866 1.3621826e-38 296 250
-0.030607941 0.759 -0.0133078 1.3529631e-38 297 250
-0.029277159 0.759 -0.0133078 1.3712221e-38 298 250
-0.027872739 0.75700003 -0.013272733 1.3435993e-38 299 250
-0.026545467 0.75700003 -0.013272733 1.3435993e-38 300 250
-0.025218192 0.75700003 -0.013272733 1.3343797e-38 301 250
-0.023827799 0.755 -0.013237666 1.3434558e-38 302 250
-0.022504034 0.755 -0.013237666 1.3250527e-38 303 250
-0.021180267 0.755 -0.013237666 1.3433842e-38 304 250
-0.0198565 0.755 -0.013237666 1.3065418e-38 305 250
-0.018532733 0.755 -0.013237666 1.2788838e-38 306 250
-0.017208965 0.755 -0.013237666 1.2143469e-38 307 250
-0.01586416 0.75400001 -0.013220133 1.1406633e-38 308 250
-0.014542146 0.75400001 -0.013220133 1.1130046e-38 309 250
-0.013220133 0.75400001 -0.013220133 1.0580838e-38 310 250
-0.01189812 0.75400001 -0.013220133 1.076523e-38 311 250
-0.010548052 0.75199997 -0.013185065 1.0858498e-38 312 250
-0.0092295464 0.75199997 -0.013185065 1.0766302e-38 313 250
-0.00793208 0.75400001 -0.013220133 1.1132208e-38 314 250
-0.0066100666 0.75400001 -0.013220133 1.085598e-38 315 250
-0.0052880533 0.75400001 -0.013220133 1.0947822e-38 316 250
-0.00396604 0.75400001 -0.013220133 1.0855627e-38 317 250
-0.0026475333 0.755 -0.013237666 1.1130418e-38 318 250
-0.0013237667 0.755 -0.013237666 1.131445e-38 319 250
0 0.755 -0.013237666 1.1131493e-38 320 250
0.0013272733 0.75700003 -0.013272733 1.1131493e-38 321 250
0.0026545466 0.75700003 -0.013272733 1.0763434e-38 322 250
0.0039818203 0.75700003 -0.013272733 1.0578684e-38 323 250
0.0053090933 0.75700003 -0.013272733 1.0026962e-38 324 250
0.0066363667 0.75700003 -0.013272733 9.8425691e-39 325 250
0.0079636406 0.75700003 -0.013272733 9.2915603e-39 326 250
0.0092909131 0.75700003 -0.013272733 9.1993647e-39 327 250
0.01064624 0.759 -0.0133078 9.1089697e-39 328 250
0.012008579 0.76099998 -0.013342866 9.2011653e-39 329 250
0.013342866 0.76099998 -0.013342866 9.0178475e-39 330 250
0.01469644 0.76200002 -0.0133604 8.9256518e-39 331 250
0.01603248 0.76200002 -0.0133604 8.9245756e-39 332 250
0.017414106 0.764 -0.013395466 8.5557931e-39 333 250
0.018753653 0.764 -0.013395466 8.0051431e-39 334 250
0.020093199 0.764 -0.013395466 7.9129475e-39 335 250
0.021488851 0.76599997 -0.013430533 7.9125943e-39 336 250
0.022861714 0.76700002 -0.013448066 8.3732137e-39 337 250
0.024269639 0.76899999 -0.013483133 8.0094759e-39 338 250
0.02568458 0.77100003 -0.013518199 8.1938672e-39 339 250
0.027036399 0.77100003 -0.013518199 8.8403352e-39 340 250
0.028461859 0.773 -0.013553266 1.4648658e-38 341 250
-0.04885488 0.77399999 -0.014927879 1.8346946e-38 284 251
-0.047497798 0.77399999 -0.014927879 1.8439141e-38 285 251
-0.046081103 0.773 -0.014908593 1.769758e-38 286 251
-0.044725779 0.773 -0.014908593 1.2073286e-38 287 251
-0.043258239 0.77100003 -0.01487002 1.3171305e-38 288 251
-0.04190642 0.77100003 -0.01487002 1.2618131e-38 289 251
-0.040554602 0.77100003 -0.01487002 1.3625789e-38 290 251
-0.039101087 0.76899999 -0.014831445 1.3165171e-38 291 251
-0.037654586 0.76700002 -0.014792874 1.3438161e-38 292 251
-0.036262438 0.76599997 -0.014773586 1.3345965e-38 293 251
-0.034828212 0.764 -0.014735013 1.3162647e-38 294 251
-0.033357166 0.76099998 -0.014677152 1.3070452e-38 295 251
-0.032022879 0.76099998 -0.014677152 1.325412e-38 296 251
-0.030607941 0.759 -0.014638579 1.3161924e-38 297 251
-0.029277159 0.759 -0.014638579 1.343599e-38 298 251
-0.027872739 0.75700003 -0.014600007 1.3343795e-38 299 251
-0.026545467 0.75700003 -0.014600007 1.3251599e-38 300 251
-0.025218192 0.75700003 -0.014600007 1.3159403e-38 301 251
-0.023827799 0.755 -0.014561433 1.3158687e-38 302 251
-0.022504034 0.755 -0.014561433 1.3158687e-38 303 251
-0.021180267 0.755 -0.014561433 1.288247e-38 304 251
-0.0198565 0.755 -0.014561433 1.2698078e-38 305 251
-0.018532733 0.755 -0.014561433 1.2605526e-38 306 251
-0.017208965 0.755 -0.014561433 1.2237104e-38 307 251
-0.015885198 0.755 -0.014561433 1.1684293e-38 308 251
-0.014542146 0.75400001 -0.014542146 1.1499902e-38 309 251
-0.013220133 0.75400001 -0.014542146 1.0858854e-38 310 251
-0.01189812 0.75400001 -0.014542146 1.0951049e-38 311 251
-0.010576107 0.75400001 -0.014542146 1.0951768e-38 312 251
-0.0092540924 0.75400001 -0.014542146 1.0859573e-38 313 251
-0.00793208 0.75400001 -0.014542146 1.0948178e-38 314 251
-0.0066100666 0.75400001 -0.014542146 1.0763428e-38 315 251
-0.0052880533 0.75400001 -0.014542146 1.0670163e-38 316 251
-0.00396604 0.75400001 -0.014542146 1.0762359e-38 317 251
-0.0026475333 0.755 -0.014561433 1.0946027e-38 318 251
-0.0013237667 0.755 -0.014561433 1.1038223e-38 319 251
0 0.755 -0.014561433 1.0855983e-38 320 251
0.0013237667 0.755 -0.014561433 1.0855983e-38 321 251
0.0026475333 0.755 -0.014561433 1.0487923e-38 322 251
0.0039818203 0.75700003 -0.014600007 1.0303173e-38 323 251
0.0053090933 0.75700003 -0.014600007 9.9347647e-39 324 251
0.0066363667 0.75700003 -0.014600007 9.7503734e-39 325 251
0.0079636406 0.75700003 -0.014600007 9.1986486e-39 326 251
0.0092909131 0.75700003 -0.014600007 9.1986486e-39 327 251
0.01064624 0.759 -0.014638579 9.0167741e-39 328 251
0.012008579 0.76099998 -0.014677152 9.1089697e-39 329 251
0.013342866 0.76099998 -0.014677152 9.0167713e-39 330 251
0.01469644 0.76200002 -0.01469644 8.7405445e-39 331 251
0.01603248 0.76200002 -0.01469644 8.6476398e-39 332 251
0.017414106 0.764 -0.014735013 8.2788559e-39 333 251
0.018753653 0.764 -0.014735013 8.0951905e-39 334 251
0.020093199 0.764 -0.014735013 8.0951905e-39 335 251
0.021488851 0.76599997 -0.014773586 7.729645e-39 336 251
0.022861714 0.76700002 -0.014792874 8.006592e-39 337 251
0.024269639 0.76899999 -0.014831445 8.2849838e-39 338 251
0.025617953 0.76899999 -0.014831445 8.008757e-39 339 251
0.027036399 0.77100003 -0.01487002 8.8410541e-39 340 251
0.028461859 0.773 -0.014908593 1.5110355e-38 341 251
-0.048981119 0.77600002 -0.01632704 1.8346946e-38 284 252
-0.047497798 0.77399999 -0.016284959 1.8531338e-38 285 252
-0.046140719 0.77399999 -0.016284959 1.7792648e-38 286 252
-0.044725779 0.773 -0.016263919 1.2444943e-38 287 252
-0.043258239 0.77100003 -0.016221842 1.3171667e-38 288 252
-0.04190642 0.77100003 -0.016221842 1.2526298e-38 289 252
-0.040554602 0.77100003 -0.016221842 1.3442124e-38 290 252
-0.039101087 0.76899999 -0.016179759 1.3073341e-38 291 252
-0.03775277 0.76899999 -0.016179759 1.3163369e-38 292 252
-0.036309779 0.76700002 -0.01613768 1.3071173e-38 293 252
-0.034919381 0.76599997 -0.016116638 1.2978256e-38 294 252
-0.033357166 0.76099998 -0.016011439 1.2978256e-38 295 252
-0.032022879 0.76099998 -0.016011439 1.2886059e-38 296 252
-0.030607941 0.759 -0.015969358 1.2793863e-38 297 252
-0.029277159 0.759 -0.015969358 1.2885343e-38 298 252
-0.027872739 0.75700003 -0.015927281 1.2700593e-38 299 252
-0.026545467 0.75700003 -0.015927281 1.2699874e-38 300 252
-0.025218192 0.75700003 -0.015927281 1.2699874e-38 301 252
-0.02389092 0.75700003 -0.015927281 1.2883186e-38 302 252
-0.022563647 0.75700003 -0.015927281 1.2790991e-38 303 252
-0.021180267 0.755 -0.015885198 1.2698445e-38 304 252
-0.0198565 0.755 -0.015885198 1.2606248e-38 305 252
-0.018532733 0.755 -0.015885198 1.2330018e-38 306 252
-0.017208965 0.755 -0.015885198 1.2237823e-38 307 252
-0.015885198 0.755 -0.015885198 1.1961229e-38 308 252
-0.014542146 0.75400001 -0.01586416 1.1777198e-38 309 252
-0.013220133 0.75400001 -0.01586416 1.1502771e-38 310 252
-0.01189812 0.75400001 -0.01586416 1.1502771e-38 311 252
-0.010576107 0.75400001 -0.01586416 1.1502055e-38 312 252
-0.0092540924 0.75400001 -0.01586416 1.1317305e-38 313 252
-0.00793208 0.75400001 -0.01586416 1.1315156e-38 314 252
-0.0066100666 0.75400001 -0.01586416 1.1038929e-38 315 252
-0.0052880533 0.75400001 -0.01586416 1.0946027e-38 316 252
-0.0039712996 0.755 -0.015885198 1.0853832e-38 317 252
-0.0026475333 0.755 -0.015885198 1.0487567e-38 318 252
-0.0013237667 0.755 -0.015885198 1.0580122e-38 319 252
0 0.755 -0.015885198 1.0580116e-38 320 252
0.0013237667 0.755 -0.015885198 1.0580116e-38 321 252
0.0026475333 0.755 -0.015885198 1.0303898e-38 322 252
0.0039818203 0.75700003 -0.015927281 1.0027312e-38 323 252
0.0053090933 0.75700003 -0.015927281 9.5667053e-39 324 252
0.0066363667 0.75700003 -0.015927281 9.4745096e-39 325 252
0.0079636406 0.75700003 -0.015927281 8.9238568e-39 326 252
0.0092909131 0.75700003 -0.015927281 9.0160524e-39 327 252
0.010674292 0.76099998 -0.016011439 9.0167713e-39 328 252
0.012008579 0.76099998 -0.016011439 9.1089669e-39 329 252
0.013342866 0.76099998 -0.016011439 9.0160524e-39 330 252
0.01469644 0.76200002 -0.01603248 8.9238568e-39 331 252
0.01603248 0.76200002 -0.01603248 8.5550771e-39 332 252
0.017414106 0.764 -0.016074561 8.4628814e-39 333 252
0.018753653 0.764 -0.016074561 7.5438132e-39 334 252
0.020145798 0.76599997 -0.016116638 7.8203987e-39 335 252
0.021488851 0.76599997 -0.016116638 7.2715549e-39 336 252
0.022861714 0.76700002 -0.01613768 7.6406962e-39 337 252
0.024269639 0.76899999 -0.016179759 7.4602678e-39 338 252
0.025617953 0.76899999 -0.016179759 7.5524634e-39 339 252
0.027106533 0.773 -0.016263919 9.5757478e-39 340 252
0.028461859 0.773 -0.016263919 1.6029442e-38 341 252
-0.048981119 0.77600002 -0.017687626 1.7978889e-38 284 253
-0.047497798 0.77399999 -0.01764204 1.816328e-38 285 253
-0.046140719 0.77399999 -0.01764204 1.8252564e-38 286 253
-0.044610061 0.77100003 -0.01757366 1.4195956e-38 287 253
-0.043258239 0.77100003 -0.01757366 1.3909248e-38 288 253
-0.04190642 0.77100003 -0.01757366 1.2342282e-38 289 253
-0.040554602 0.77100003 -0.01757366 1.3259897e-38 290 253
-0.039101087 0.76899999 -0.017528072 1.2799278e-38 291 253
-0.03775277 0.76899999 -0.017528072 1.2889309e-38 292 253
-0.036309779 0.76700002 -0.017482487 1.2520167e-38 293 253
-0.034919381 0.76599997 -0.017459691 1.2794956e-38 294 253
-0.033488665 0.764 -0.017414106 1.2518368e-38 295 253
-0.032022879 0.76099998 -0.017345725 1.2793157e-38 296 253
-0.030688593 0.76099998 -0.017345725 1.2424735e-38 297 253
-0.029277159 0.759 -0.017300138 1.2790638e-38 298 253
-0.027872739 0.75700003 -0.017254554 1.2698441e-38 299 253
-0.026545467 0.75700003 -0.017254554 1.2698075e-38 300 253
-0.025218192 0.75700003 -0.017254554 1.2698075e-38 301 253
-0.02389092 0.75700003 -0.017254554 1.2698075e-38 302 253
-0.022563647 0.75700003 -0.017254554 1.2698075e-38 303 253
-0.021180267 0.755 -0.017208965 1.2605882e-38 304 253
-0.0198565 0.755 -0.017208965 1.2421132e-38 305 253
-0.018532733 0.755 -0.017208965 1.2237469e-38 306 253
-0.017208965 0.755 -0.017208965 1.2053078e-38 307 253
-0.015885198 0.755 -0.017208965 1.2052005e-38 308 253
-0.014542146 0.75400001 -0.017186172 1.2052005e-38 309 253
-0.013220133 0.75400001 -0.017186172 1.1777933e-38 310 253
-0.01189812 0.75400001 -0.017186172 1.1777933e-38 311 253
-0.010576107 0.75400001 -0.017186172 1.1594265e-38 312 253
-0.0092540924 0.75400001 -0.017186172 1.1502068e-38 313 253
-0.00793208 0.75400001 -0.017186172 1.1133292e-38 314 253
-0.0066100666 0.75400001 -0.017186172 1.0856345e-38 315 253
-0.0052880533 0.75400001 -0.017186172 1.0579766e-38 316 253
-0.0039712996 0.755 -0.017208965 1.048757e-38 317 253
-0.0026475333 0.755 -0.017208965 1.0395374e-38 318 253
-0.0013237667 0.755 -0.017208965 1.0579766e-38 319 253
0 0.755 -0.017208965 1.0488286e-38 320 253
0.0013272733 0.75700003 -0.017254554 1.0303895e-38 321 253
0.0026545466 0.75700003 -0.017254554 1.011951e-38 322 253
0.0039818203 0.75700003 -0.017254554 9.8429222e-39 323 253
0.0053090933 0.75700003 -0.017254554 9.1990017e-39 324 253
0.0066363667 0.75700003 -0.017254554 9.0142503e-39 325 253
0.0079636406 0.75700003 -0.017254554 8.923854e-39 326 253
0.00931546 0.759 -0.017300138 9.0160496e-39 327 253
0.010674292 0.76099998 -0.017345725 9.0167685e-39 328 253
0.012008579 0.76099998 -0.017345725 9.0167685e-39 329 253
0.0133604 0.76200002 -0.01736852 9.107169e-39 330 253
0.01469644 0.76200002 -0.01736852 8.9231379e-39 331 253
0.016074561 0.764 -0.017414106 8.1884553e-39 332 253
0.017414106 0.764 -0.017414106 7.8196742e-39 333 253
0.018753653 0.764 -0.017414106 7.2697431e-39 334 253
0.020145798 0.76599997 -0.017459691 7.4541343e-39 335 253
0.021516906 0.76700002 -0.017482487 7.3641065e-39 336 253
0.022861714 0.76700002 -0.017482487 7.7332477e-39 337 253
0.024269639 0.76899999 -0.017528072 7.185113e-39 338 253
0.025617953 0.76899999 -0.017528072 8.1067092e-39 339 253
0.027141599 0.77399999 -0.01764204 1.0686767e-38 340 253
-0.047497798 0.77399999 -0.018999118 1.7885256e-38 285 254
-0.046081103 0.773 -0.018974574 1.7243457e-38 286 254
-0.044610061 0.77100003 -0.018925481 1.4292837e-38 287 254
-0.043146025 0.76899999 -0.018876385 1.4646819e-38 288 254
-0.041797712 0.76899999 -0.018876385 1.2341929e-38 289 254
-0.040554602 0.77100003 -0.018925481 1.3350647e-38 290 254
-0.039101087 0.76899999 -0.018876385 1.307442e-38 291 254
-0.03775277 0.76899999 -0.018876385 1.2889659e-38 292 254
-0.036309779 0.76700002 -0.018827293 1.2704909e-38 293 254
-0.034919381 0.76599997 -0.018802745 1.2794593e-38 294 254
-0.033488665 0.764 -0.018753653 1.2609842e-38 295 254
-0.032022879 0.76099998 -0.018680012 1.2516577e-38 296 254
-0.030688593 0.76099998 -0.018680012 1.223999e-38 297 254
-0.029277159 0.759 -0.01863092 1.2146721e-38 298 254
-0.027946379 0.759 -0.01863092 1.2054167e-38 299 254
-0.026545467 0.75700003 -0.018581826 1.205452e-38 300 254
-0.025218192 0.75700003 -0.018581826 1.205452e-38 301 254
-0.02389092 0.75700003 -0.018581826 1.2329662e-38 302 254
-0.022563647 0.75700003 -0.018581826 1.2329662e-38 303 254
-0.021236373 0.75700003 -0.018581826 1.2237116e-38 304 254
-0.019909101 0.75700003 -0.018581826 1.2144921e-38 305 254
-0.018532733 0.755 -0.018532733 1.2052369e-38 306 254
-0.017208965 0.755 -0.018532733 1.1960172e-38 307 254
-0.015885198 0.755 -0.018532733 1.1959809e-38 308 254
-0.014561433 0.755 -0.018532733 1.2052005e-38 309 254
-0.013237666 0.755 -0.018532733 1.1960528e-38 310 254
-0.01189812 0.75400001 -0.018508185 1.1960528e-38 311 254
-0.010576107 0.75400001 -0.018508185 1.1593545e-38 312 254
-0.0092540924 0.75400001 -0.018508185 1.1501349e-38 313 254
-0.00793208 0.75400001 -0.018508185 1.1316239e-38 314 254
-0.0066100666 0.75400001 -0.018508185 1.1131488e-38 315 254
-0.0052950666 0.755 -0.018532733 1.0580122e-38 316 254
-0.0039712996 0.755 -0.018532733 1.0395372e-38 317 254
-0.0026475333 0.755 -0.018532733 1.0303542e-38 318 254
-0.0013237667 0.755 -0.018532733 1.0395737e-38 319 254
0 0.75700003 -0.018581826 1.0120232e-38 320 254
0.0013272733 0.75700003 -0.018581826 9.7514496e-39 321 254
0.0026545466 0.75700003 -0.018581826 9.4748754e-39 322 254
0.0039818203 0.75700003 -0.018581826 9.1986486e-39 323 254
0.0053090933 0.75700003 -0.018581826 8.739111e-39 324 254
0.0066363667 0.75700003 -0.018581826 8.739111e-39 325 254
0.0079846792 0.759 -0.01863092 8.372848e-39 326 254
0.00931546 0.759 -0.01863092 8.557598e-39 327 254
0.010674292 0.76099998 -0.018680012 8.7409103e-39 328 254
0.01202436 0.76200002 -0.01870456 8.7409103e-39 329 254
0.0133604 0.76200002 -0.01870456 8.6487118e-39 330 254
0.01469644 0.76200002 -0.01870456 8.5565162e-39 331 254
0.016074561 0.764 -0.018753653 8.0962597e-39 332 254
0.017414106 0.764 -0.018753653 7.9122286e-39 333 254
0.018802745 0.76599997 -0.018802745 7.1782705e-39 334 254
0.020145798 0.76599997 -0.018802745 7.454856e-39 335 254
0.021516906 0.76700002 -0.018827293 7.2733584e-39 336 254
0.022861714 0.76700002 -0.018827293 7.8265322e-39 337 254
0.024269639 0.76899999 -0.018876385 7.6453821e-39 338 254
0.02568458 0.77100003 -0.018925481 9.673686e-39 339 254
0.027141599 0.77399999 -0.018999118 1.1793835e-38 340 254
-0.047497798 0.77399999 -0.020356199 1.7424996e-38 285 255
-0.046081103 0.773 -0.0203299 1.6873967e-38 286 255
-0.044610061 0.77100003 -0.020277301 1.5030055e-38 287 255
-0.043146025 0.76899999 -0.0202247 1.492594e-38 288 255
-0.041797712 0.76899999 -0.0202247 1.2068235e-38 289 255
-0.040554602 0.77100003 -0.020277301 1.3167349e-38 290 255
-0.039101087 0.76899999 -0.0202247 1.2798925e-38 291 255
-0.03775277 0.76899999 -0.0202247 1.2890029e-38 292 255
-0.036309779 0.76700002 -0.020172099 1.2705278e-38 293 255
-0.034919381 0.76599997 -0.020145798 1.2795675e-38 294 255
-0.033576332 0.76599997 -0.020145798 1.2335056e-38 295 255
-0.032022879 0.76099998 -0.020014299 1.2424735e-38 296 255
-0.030688593 0.76099998 -0.020014299 1.2147788e-38 297 255
-0.029277159 0.759 -0.0199617 1.2237832e-38 298 255
-0.027946379 0.759 -0.0199617 1.1961606e-38 299 255
-0.026615599 0.759 -0.0199617 1.1961606e-38 300 255
-0.025218192 0.75700003 -0.019909101 1.186941e-38 301 255
-0.02389092 0.75700003 -0.019909101 1.2053078e-38 302 255
-0.022563647 0.75700003 -0.019909101 1.1960522e-38 303 255
-0.021236373 0.75700003 -0.019909101 1.1960528e-38 304 255
-0.019909101 0.75700003 -0.019909101 1.1776138e-38 305 255
-0.018581826 0.75700003 -0.019909101 1.1683943e-38 306 255
-0.017254554 0.75700003 -0.019909101 1.1776138e-38 307 255
-0.015927281 0.75700003 -0.019909101 1.1684296e-38 308 255
-0.014561433 0.755 -0.0198565 1.1684296e-38 309 255
-0.013237666 0.755 -0.0198565 1.1684298e-38 310 255
-0.01189812 0.75400001 -0.019830201 1.1684298e-38 311 255
-0.010576107 0.75400001 -0.019830201 1.1225488e-38 312 255
-0.0092540924 0.75400001 -0.019830201 1.1225488e-38 313 255
-0.00793208 0.75400001 -0.019830201 1.0949264e-38 314 255
-0.0066188332 0.755 -0.0198565 1.0673036e-38 315 255
-0.0052950666 0.755 -0.0198565 1.0304974e-38 316 255
-0.0039712996 0.755 -0.0198565 1.0120582e-38 317 255
-0.0026475333 0.755 -0.0198565 9.9372702e-39 318 255
-0.0013237667 0.755 -0.0198565 9.8447159e-39 319 255
0 0.75700003 -0.019909101 9.7514524e-39 320 255
0.0013272733 0.75700003 -0.019909101 9.4745068e-39 321 255
0.0026545466 0.75700003 -0.019909101 9.106097e-39 322 255
0.0039818203 0.75700003 -0.019909101 9.0139e-39 323 255
0.0053231199 0.759 -0.0199617 8.6461937e-39 324 255
0.0066538998 0.759 -0.0199617 8.7383893e-39 325 255
0.0080057196 0.76099998 -0.020014299 8.3724837e-39 326 255
0.0093400059 0.76099998 -0.020014299 8.3724837e-39 327 255
0.01068832 0.76200002 -0.0200406 8.6487118e-39 328 255
0.01202436 0.76200002 -0.0200406 8.6487118e-39 329 255
0.0133604 0.76200002 -0.0200406 8.3721277e-39 330 255
0.014735013 0.764 -0.020093199 8.2799321e-39 331 255
0.016074561 0.764 -0.020093199 7.7289261e-39 332 255
0.017414106 0.764 -0.020093199 7.6367305e-39 333 255
0.018802745 0.76599997 -0.020145798 7.1793579e-39 334 255
0.020145798 0.76599997 -0.020145798 7.4563049e-39 335 255
0.021516906 0.76700002 -0.020172099 7.5499495e-39 336 255
0.022861714 0.76700002 -0.020172099 7.9183719e-39 337 255
0.024269639 0.76899999 -0.0202247 8.9314532e-39 338 255
0.025617953 0.76899999 -0.0202247 1.1697324e-38 339 255
-0.046081103 0.773 -0.021685226 1.6872173e-38 286 256
-0.044725779 0.773 -0.021685226 1.5397043e-38 287 256
-0.04190642 0.77100003 -0.021629119 1.1980007e-38 289 256
-0.040554602 0.77100003 -0.021629119 1.3352464e-38 290 256
-0.039101087 0.76899999 -0.021573013 1.2799291e-38 291 256
-0.03775277 0.76899999 -0.021573013 1.2982587e-38 292 256
-0.036309779 0.76700002 -0.021516906 1.2521968e-38 293 256
-0.034919381 0.76599997 -0.021488851 1.261236e-38 294 256
-0.033576332 0.76599997 -0.021488851 1.2151741e-38 295 256
-0.032149121 0.764 -0.021432746 1.2333255e-38 296 256
-0.030688593 0.76099998 -0.021348584 1.1872277e-38 297 256
-0.029277159 0.759 -0.02129248 1.1870129e-38 298 256
-0.027946379 0.759 -0.02129248 1.1593901e-38 299 256
-0.026615599 0.759 -0.02129248 1.1594268e-38 300 256
-0.025218192 0.75700003 -0.021236373 1.1409516e-38 301 256
-0.02389092 0.75700003 -0.021236373 1.1592113e-38 302 256
-0.022563647 0.75700003 -0.021236373 1.1408082e-38 303 256
-0.021236373 0.75700003 -0.021236373 1.1498845e-38 304 256
-0.019909101 0.75700003 -0.021236373 1.1591399e-38 305 256
-0.018581826 0.75700003 -0.021236373 1.1315886e-38 306 256
-0.017254554 0.75700003 -0.021236373 1.1592113e-38 307 256
-0.015927281 0.75700003 -0.021236373 1.1592466e-38 308 256
-0.014561433 0.755 -0.021180267 1.1408435e-38 309 256
-0.013237666 0.755 -0.021180267 1.1224406e-38 310 256
-0.011913899 0.755 -0.021180267 1.1224406e-38 311 256
-0.010590133 0.755 -0.021180267 1.0949261e-38 312 256
-0.0092663663 0.755 -0.021180267 1.0949261e-38 313 256
-0.0079425992 0.755 -0.021180267 1.067268e-38 314 256
-0.0066188332 0.755 -0.021180267 1.0396093e-38 315 256
-0.0052950666 0.755 -0.021180267 1.0120229e-38 316 256
-0.0039712996 0.755 -0.021180267 9.9358381e-39 317 256
-0.0026475333 0.755 -0.021180267 9.752523e-39 318 256
-0.0013272733 0.75700003 -0.021236373 9.660326e-39 319 256
0 0.75700003 -0.021236373 9.2911974e-39 320 256
0.0013272733 0.75700003 -0.021236373 9.1064474e-39 321 256
0.00266156 0.759 -0.02129248 8.7391082e-39 322 256
0.0039923396 0.759 -0.02129248 8.7391082e-39 323 256
0.0053231199 0.759 -0.02129248 8.5550743e-39 324 256
0.0066538998 0.759 -0.02129248 8.4628786e-39 325 256
0.0080057196 0.76099998 -0.021348584 8.280288e-39 326 256
0.0093400059 0.76099998 -0.021348584 8.3724837e-39 327 256
0.01068832 0.76200002 -0.02137664 8.3732039e-39 328 256
0.01202436 0.76200002 -0.02137664 8.2806482e-39 329 256
0.013395466 0.764 -0.021432746 8.0959038e-39 330 256
0.014735013 0.764 -0.021432746 8.0959038e-39 331 256
0.016074561 0.764 -0.021432746 7.3615884e-39 332 256
0.017414106 0.764 -0.021432746 7.453784e-39 333 256
0.018802745 0.76599997 -0.021488851 7.3630345e-39 334 256
0.020172099 0.76700002 -0.021516906 7.8240112e-39 335 256
0.021516906 0.76700002 -0.021516906 7.7350596e-39 336 256
0.022861714 0.76700002 -0.021516906 8.2882334e-39 337 256
0.024269639 0.76899999 -0.021573013 9.3931544e-39 338 256
-0.04190642 0.77100003 -0.02298094 1.2442797e-38 289 257
-0.040554602 0.77100003 -0.02298094 1.3354266e-38 290 257
-0.039101087 0.76899999 -0.022921326 1.2708897e-38 291 257
-0.03775277 0.76899999 -0.022921326 1.3074417e-38 292 257
-0.036309779 0.76700002 -0.022861714 1.2797829e-38 293 257
-0.034919381 0.76599997 -0.022831906 1.2611997e-38 294 257
-0.033576332 0.76599997 -0.022831906 1.233505e-38 295 257
-0.032149121 0.764 -0.022772292 1.2149218e-38 296 257
-0.030688593 0.76099998 -0.022682872 1.1780435e-38 297 257
-0.029354304 0.76099998 -0.022682872 1.177793e-38 298 257
-0.027946379 0.759 -0.02262326 1.1501702e-38 299 257
-0.026615599 0.759 -0.02262326 1.1225485e-38 300 257
-0.025284819 0.759 -0.02262326 1.113329e-38 301 257
-0.023954039 0.759 -0.02262326 1.1223334e-38 302 257
-0.02262326 0.759 -0.02262326 1.1131137e-38 303 257
-0.02129248 0.759 -0.02262326 1.0854923e-38 304 257
-0.019909101 0.75700003 -0.022563647 1.094712e-38 305 257
-0.018581826 0.75700003 -0.022563647 1.0672328e-38 306 257
-0.017254554 0.75700003 -0.022563647 1.0672328e-38 307 257
-0.015927281 0.75700003 -0.022563647 1.067268e-38 308 257
-0.014600007 0.75700003 -0.022563647 1.067268e-38 309 257
-0.013237666 0.755 -0.022504034 1.0397888e-38 310 257
-0.011913899 0.755 -0.022504034 1.0305693e-38 311 257
-0.010590133 0.755 -0.022504034 1.0305693e-38 312 257
-0.0092663663 0.755 -0.022504034 1.0213497e-38 313 257
-0.0079425992 0.755 -0.022504034 1.0396093e-38 314 257
-0.0066188332 0.755 -0.022504034 1.0119508e-38 315 257
-0.0052950666 0.755 -0.022504034 9.9347647e-39 316 257
-0.0039712996 0.755 -0.022504034 9.8425691e-39 317 257
-0.0026475333 0.755 -0.022504034 9.4752257e-39 318 257
-0.0013272733 0.75700003 -0.022563647 9.2911946e-39 319 257
0 0.75700003 -0.022563647 8.9231351e-39 320 257
0.0013272733 0.75700003 -0.022563647 8.9231351e-39 321 257
0.00266156 0.759 -0.02262326 8.3724809e-39 322 257
0.0039923396 0.759 -0.02262326 8.2802852e-39 323 257
0.0053231199 0.759 -0.02262326 8.3714019e-39 324 257
0.0066714329 0.76099998 -0.022682872 8.2792062e-39 325 257
0.0080057196 0.76099998 -0.022682872 8.095894e-39 326 257
0.0093522798 0.76200002 -0.02271268 8.1880896e-39 327 257
0.01068832 0.76200002 -0.02271268 8.280288e-39 328 257
0.01202436 0.76200002 -0.02271268 8.1877337e-39 329 257
0.013395466 0.764 -0.022772292 7.8203987e-39 330 257
0.014735013 0.764 -0.022772292 7.9125943e-39 331 257
0.016116638 0.76599997 -0.022831906 7.178639e-39 332 257
0.017459691 0.76599997 -0.022831906 7.3633904e-39 333 257
0.018827293 0.76700002 -0.022861714 7.5481474e-39 334 257
0.020172099 0.76700002 -0.022861714 8.0091256e-39 335 257
0.021516906 0.76700002 -0.022861714 8.1034862e-39 336 257
0.022861714 0.76700002 -0.022861714 8.7488556e-39 337 257
-0.040554602 0.77100003 -0.02433276 1.3448273e-38 290 258
-0.039101087 0.76899999 -0.024269639 1.2434481e-38 291 258
-0.03775277 0.76899999 -0.024269639 1.3258454e-38 292 258
-0.036309779 0.76700002 -0.024206521 1.2797476e-38 293 258
-0.034964975 0.76700002 -0.024206521 1.2613082e-38 294 258
-0.033576332 0.76599997 -0.024174958 1.2059908e-38 295 258
-0.032149121 0.764 -0.024111839 1.2057038e-38 296 258
-0.030688593 0.76099998 -0.024017159 1.1504223e-38 297 258
-0.029354304 0.76099998 -0.024017159 1.1776863e-38 298 258
-0.027946379 0.759 -0.023954039 1.1408082e-38 299 258
-0.026615599 0.759 -0.023954039 1.1224053e-38 300 258
-0.025284819 0.759 -0.023954039 1.1131858e-38 301 258
-0.023954039 0.759 -0.023954039 1.0855992e-38 302 258
-0.02262326 0.759 -0.023954039 1.048757e-38 303 258
-0.02129248 0.759 -0.023954039 1.0302826e-38 304 258
-0.0199617 0.759 -0.023954039 1.0302826e-38 305 258
-0.01863092 0.759 -0.023954039 1.0302826e-38 306 258
-0.017300138 0.759 -0.023954039 1.0302826e-38 307 258
-0.015969358 0.759 -0.023954039 1.0486135e-38 308 258
-0.014600007 0.75700003 -0.02389092 1.0578689e-38 309 258
-0.013237666 0.755 -0.023827799 9.9365612e-39 310 258
-0.011913899 0.755 -0.023827799 9.8443655e-39 311 258
-0.010590133 0.755 -0.023827799 9.9369171e-39 312 258
-0.0092663663 0.755 -0.023827799 9.8447215e-39 313 258
-0.0079425992 0.755 -0.023827799 1.0028031e-38 314 258
-0.0066188332 0.755 -0.023827799 9.7518028e-39 315 258
-0.0052950666 0.755 -0.023827799 9.5670556e-39 316 258
-0.0039712996 0.755 -0.023827799 9.4748599e-39 317 258
-0.0026475333 0.755 -0.023827799 9.1997178e-39 318 258
-0.0013272733 0.75700003 -0.02389092 9.1075222e-39 319 258
0 0.75700003 -0.02389092 8.7394613e-39 320 258
0.00133078 0.759 -0.023954039 8.7394613e-39 321 258
0.00266156 0.759 -0.023954039 8.2802824e-39 322 258
0.0039923396 0.759 -0.023954039 8.0958912e-39 323 258
0.0053371461 0.76099998 -0.024017159 8.2784874e-39 324 258
0.0066714329 0.76099998 -0.024017159 8.1862917e-39 325 258
0.0080162399 0.76200002 -0.02404872 8.0948192e-39 326 258
0.0093522798 0.76200002 -0.02404872 8.2788503e-39 327 258
0.01068832 0.76200002 -0.02404872 7.9122258e-39 328 258
0.01202436 0.76200002 -0.02404872 7.9122258e-39 329 258
0.013395466 0.764 -0.024111839 7.5452509e-39 330 258
0.014735013 0.764 -0.024111839 7.6374466e-39 331 258
0.016116638 0.76599997 -0.024174958 7.178639e-39 332 258
0.017459691 0.76599997 -0.024174958 7.6396172e-39 333 258
0.018827293 0.76700002 -0.024206521 7.4577469e-39 334 258
0.020172099 0.76700002 -0.024206521 8.1031163e-39 335 258
0.021516906 0.76700002 -0.024206521 8.380785e-39 336 258
0.022861714 0.76700002 -0.024206521 8.9336e-39 337 258
-0.040554602 0.77100003 -0.02568458 1.4095457e-38 290 259
-0.039101087 0.76899999 -0.025617953 1.2712522e-38 291 259
-0.03775277 0.76899999 -0.025617953 1.3259547e-38 292 259
-0.036309779 0.76700002 -0.025551327 1.2706373e-38 293 259
-0.034964975 0.76700002 -0.025551327 1.261236e-38 294 259
-0.033620168 0.76700002 -0.025551327 1.2151741e-38 295 259
-0.032233275 0.76599997 -0.025518013 1.2057024e-38 296 259
-0.030809574 0.764 -0.025451386 1.1687883e-38 297 259
-0.029354304 0.76099998 -0.025351444 1.1502068e-38 298 259
-0.028020019 0.76099998 -0.025351444 1.1041091e-38 299 259
-0.026615599 0.759 -0.025284819 1.0948542e-38 300 259
-0.025284819 0.759 -0.025284819 1.0580119e-38 301 259
-0.023954039 0.759 -0.025284819 1.0487567e-38 302 259
-0.02262326 0.759 -0.025284819 1.0303176e-38 303 259
-0.02129248 0.759 -0.025284819 9.8425691e-39 304 259
-0.0199617 0.759 -0.025284819 9.8425691e-39 305 259
-0.01863092 0.759 -0.025284819 9.4748782e-39 306 259
-0.017300138 0.759 -0.025284819 9.4748782e-39 307 259
-0.015969358 0.759 -0.025284819 9.1078977e-39 308 259
-0.014600007 0.75700003 -0.025218192 9.1078977e-39 309 259
-0.013272733 0.75700003 -0.025218192 9.1079005e-39 310 259
-0.011913899 0.755 -0.025151566 9.1079005e-39 311 259
-0.010590133 0.755 -0.025151566 9.0164181e-39 312 259
-0.0092909131 0.75700003 -0.025218192 9.2008094e-39 313 259
-0.0079425992 0.755 -0.025151566 9.4766578e-39 314 259
-0.0066188332 0.755 -0.025151566 9.3844622e-39 315 259
-0.0052950666 0.755 -0.025151566 9.4759319e-39 316 259
-0.0039712996 0.755 -0.025151566 9.2919008e-39 317 259
-0.0026475333 0.755 -0.025151566 8.9242071e-39 318 259
-0.0013272733 0.75700003 -0.025218192 8.9242071e-39 319 259
0 0.75700003 -0.025218192 8.5568693e-39 320 259
0.00133078 0.759 -0.025284819 8.2802824e-39 321 259
0.00266156 0.759 -0.025284819 7.912223e-39 322 259
0.0039923396 0.759 -0.025284819 7.7278317e-39 323 259
0.0053371461 0.76099998 -0.025351444 7.5427328e-39 324 259
0.0066801999 0.76200002 -0.02538476 7.5427328e-39 325 259
0.0080162399 0.76200002 -0.02538476 7.3594206e-39 326 259
0.0093522798 0.76200002 -0.02538476 7.5438132e-39 327 259
0.01068832 0.76200002 -0.02538476 7.3615729e-39 328 259
0.01205592 0.764 -0.025451386 7.5456041e-39 329 259
0.013395466 0.764 -0.025451386 7.3619415e-39 330 259
0.014773586 0.76599997 -0.025518013 7.4541371e-39 331 259
0.016116638 0.76599997 -0.025518013 7.0882455e-39 332 259
0.017482487 0.76700002 -0.025551327 7.4566679e-39 333 259
0.018827293 0.76700002 -0.025551327 7.7354156e-39 334 259
0.020172099 0.76700002 -0.025551327 8.196035e-39 335 259
0.021516906 0.76700002 -0.025551327 8.2896781e-39 336 259
-0.040554602 0.77100003 -0.027036399 1.4098709e-38 290 260
-0.039101087 0.76899999 -0.026966266 1.3084198e-38 291 260
-0.03775277 0.76899999 -0.026966266 1.335356e-38 292 260
-0.036404461 0.76899999 -0.026966266 1.2708191e-38 293 260
-0.034964975 0.76700002 -0.026896132 1.2248272e-38 294 260
-0.033620168 0.76700002 -0.026896132 1.1602903e-38 295 260
-0.032233275 0.76599997 -0.026861066 1.1600382e-38 296 260
-0.030890226 0.76599997 -0.026861066 1.1139043e-38 297 260
-0.029354304 0.76099998 -0.026685731 1.1043614e-38 298 260
-0.028020019 0.76099998 -0.026685731 1.0674832e-38 299 260
-0.026685731 0.76099998 -0.026685731 1.076415e-38 300 260
-0.025284819 0.759 -0.026615599 1.0580119e-38 301 260
-0.023954039 0.759 -0.026615599 1.0120582e-38 302 260
-0.02262326 0.759 -0.026615599 9.9358311e-39 303 260
-0.02129248 0.759 -0.026615599 9.5677744e-39 304 260
-0.0199617 0.759 -0.026615599 9.1993521e-39 305 260
-0.01863092 0.759 -0.026615599 9.1068005e-39 306 260
-0.017300138 0.759 -0.026615599 9.0146035e-39 307 260
-0.015969358 0.759 -0.026615599 9.0142503e-39 308 260
-0.014600007 0.75700003 -0.026545467 9.0142503e-39 309 260
-0.013272733 0.75700003 -0.026545467 8.9209855e-39 310 260
-0.01194546 0.75700003 -0.026545467 8.9209855e-39 311 260
-0.010618187 0.75700003 -0.026545467 9.0138972e-39 312 260
-0.0092909131 0.75700003 -0.026545467 9.0138972e-39 313 260
-0.0079425992 0.755 -0.026475333 9.5674213e-39 314 260
-0.0066188332 0.755 -0.026475333 9.4752257e-39 315 260
-0.0053090933 0.75700003 -0.026545467 9.475576e-39 316 260
-0.0039818203 0.75700003 -0.026545467 9.2915449e-39 317 260
-0.00266156 0.759 -0.026615599 8.740892e-39 318 260
-0.00133078 0.759 -0.026615599 8.4643038e-39 319 260
0 0.759 -0.026615599 8.4639506e-39 320 260
0.00133078 0.759 -0.026615599 8.371755e-39 321 260
