# .PCD v.7 - Point Cloud Data file format
FIELDS x y z rgb imX imY
SIZE 4 4 4 4 4 4
TYPE F F F F F F
COUNT 1 1 1 1 1 1
WIDTH 823
HEIGHT 1
VIEWPOINT 0 0 0 1 0 0 0
POINTS 823
DATA ascii
0.020775247 0.69700003 -0.00366622 1.2796031e-38 337 243
0.02202888 0.69800001 -0.0036714801 1.2520165e-38 338 243
0.023252707 0.69800001 -0.0036714801 1.2059545e-38 339 243
0.024476532 0.69800001 -0.0036714801 1.0307154e-38 340 243
-0.038373452 0.70599997 -0.0049514128 1.4730307e-38 289 244
-0.037030395 0.704 -0.0049373866 1.5097972e-38 290 244
-0.035796054 0.704 -0.0049373866 1.5097972e-38 291 244
-0.034512613 0.70300001 -0.0049303733 1.5741537e-38 292 244
-0.033137999 0.69999999 -0.0049093333 1.5833731e-38 293 244
-0.031910665 0.69999999 -0.0049093333 1.5558224e-38 294 244
-0.030595668 0.69800001 -0.0048953067 1.5834448e-38 295 244
-0.02932976 0.69700003 -0.0048882933 1.5743689e-38 296 244
-0.028067358 0.69599998 -0.0048812795 1.611283e-38 297 244
-0.026847038 0.69599998 -0.0048812795 1.620755e-38 298 244
-0.025553079 0.69400001 -0.0048672534 1.6575974e-38 299 244
-0.024336265 0.69400001 -0.0048672534 1.6485929e-38 300 244
-0.023019511 0.69099998 -0.0048462129 1.6301178e-38 301 244
-0.021807959 0.69099998 -0.0048462129 1.6299366e-38 302 244
-0.020596405 0.69099998 -0.0048462129 1.6114977e-38 303 244
-0.019384852 0.69099998 -0.0048462129 1.5745842e-38 304 244
-0.0181733 0.69099998 -0.0048462129 1.5745842e-38 305 244
-0.016961746 0.69099998 -0.0048462129 1.5102276e-38 306 244
-0.015750192 0.69099998 -0.0048462129 1.4825693e-38 307 244
-0.014538639 0.69099998 -0.0048462129 1.5099051e-38 308 244
-0.0133078 0.69 -0.0048391996 1.5099051e-38 309 244
-0.012062933 0.68800002 -0.0048251734 1.5099051e-38 310 244
-0.010856641 0.68800002 -0.0048251734 1.5283082e-38 311 244
-0.0096363192 0.68699998 -0.0048181596 1.5099064e-38 312 244
-0.0084317802 0.68699998 -0.0048181596 1.4638444e-38 313 244
-0.0072167199 0.68599999 -0.0048111463 1.4728136e-38 314 244
-0.0060139326 0.68599999 -0.0048111463 1.4728136e-38 315 244
-0.0048111463 0.68599999 -0.0048111463 1.4819258e-38 316 244
-0.0036136196 0.68699998 -0.0048181596 1.4819258e-38 317 244
-0.0024090798 0.68699998 -0.0048181596 1.5001849e-38 318 244
-0.0012045399 0.68699998 -0.0048181596 1.4725622e-38 319 244
0 0.68699998 -0.0048181596 1.4358265e-38 320 244
0.0012045399 0.68699998 -0.0048181596 1.4173876e-38 321 244
0.0024090798 0.68699998 -0.0048181596 1.3806175e-38 322 244
0.0036188802 0.68800002 -0.0048251734 1.3621787e-38 323 244
0.0048251734 0.68800002 -0.0048251734 1.371147e-38 324 244
0.0060489997 0.69 -0.0048391996 1.3618917e-38 325 244
0.0072587994 0.69 -0.0048391996 1.3251575e-38 326 244
0.0084686 0.69 -0.0048391996 1.2974992e-38 327 244
0.0096783992 0.69 -0.0048391996 1.2422903e-38 328 244
0.010888199 0.69 -0.0048391996 1.2238874e-38 329 244
0.012115533 0.69099998 -0.0048462129 1.2238515e-38 330 244
0.013327086 0.69099998 -0.0048462129 1.2514739e-38 331 244
0.014538639 0.69099998 -0.0048462129 1.2699131e-38 332 244
0.015795778 0.69300002 -0.00486024 1.3159751e-38 333 244
0.01701084 0.69300002 -0.00486024 1.2793145e-38 334 244
0.0182522 0.69400001 -0.0048672534 1.3253764e-38 335 244
0.019469013 0.69400001 -0.0048672534 1.2796031e-38 336 244
0.020745439 0.69599998 -0.0048812795 1.2980422e-38 337 244
0.02199732 0.69700003 -0.0048882933 1.2704561e-38 338 244
0.023219392 0.69700003 -0.0048882933 1.2427616e-38 339 244
0.024476532 0.69800001 -0.0048953067 1.1506021e-38 340 244
-0.038373452 0.70599997 -0.0061892662 1.4638458e-38 289 245
-0.037030395 0.704 -0.0061717331 1.482211e-38 290 245
-0.035796054 0.704 -0.0061717331 1.4914307e-38 291 245
-0.034414422 0.70099998 -0.0061454331 1.5373119e-38 292 245
-0.033137999 0.69999999 -0.0061366665 1.5557866e-38 293 245
-0.031819493 0.69800001 -0.006119133 1.5466389e-38 294 245
-0.030551834 0.69700003 -0.0061103669 1.5650777e-38 295 245
-0.02932976 0.69700003 -0.0061103669 1.5653294e-38 296 245
-0.028067358 0.69599998 -0.0061015999 1.6114272e-38 297 245
-0.026847038 0.69599998 -0.0061015999 1.5840575e-38 298 245
-0.025553079 0.69400001 -0.0060840664 1.6209359e-38 299 245
-0.024301201 0.69300002 -0.0060753003 1.5934926e-38 300 245
-0.023019511 0.69099998 -0.0060577663 1.5750174e-38 301 245
-0.021807959 0.69099998 -0.0060577663 1.6023506e-38 302 245
-0.020596405 0.69099998 -0.0060577663 1.5746559e-38 303 245
-0.019384852 0.69099998 -0.0060577663 1.5562171e-38 304 245
-0.018146999 0.69 -0.0060489997 1.5285588e-38 305 245
-0.0169372 0.69 -0.0060489997 1.4732781e-38 306 245
-0.015727401 0.69 -0.0060489997 1.4087422e-38 307 245
-0.014475521 0.68800002 -0.0060314666 1.4729558e-38 308 245
-0.013269227 0.68800002 -0.0060314666 1.4821754e-38 309 245
-0.012045399 0.68699998 -0.0060226996 1.4455146e-38 310 245
-0.010840859 0.68699998 -0.0060226996 1.4455146e-38 311 245
-0.0096363192 0.68699998 -0.0060226996 1.4638814e-38 312 245
-0.0084195063 0.68599999 -0.0060139326 1.454626e-38 313 245
-0.0072167199 0.68599999 -0.0060139326 1.4453347e-38 314 245
-0.0060139326 0.68599999 -0.0060139326 1.4361151e-38 315 245
-0.0048111463 0.68599999 -0.0060139326 1.4451196e-38 316 245
-0.00360836 0.68599999 -0.0060139326 1.4359e-38 317 245
-0.0024055731 0.68599999 -0.0060139326 1.4358277e-38 318 245
-0.0012027866 0.68599999 -0.0060139326 1.4266082e-38 319 245
0 0.68599999 -0.0060139326 1.4357188e-38 320 245
0.0012045399 0.68699998 -0.0060226996 1.4080606e-38 321 245
0.0024090798 0.68699998 -0.0060226996 1.3896576e-38 322 245
0.0036136196 0.68699998 -0.0060226996 1.3804382e-38 323 245
0.0048251734 0.68800002 -0.0060314666 1.3435605e-38 324 245
0.0060314666 0.68800002 -0.0060314666 1.3343411e-38 325 245
0.0072377604 0.68800002 -0.0060314666 1.3250858e-38 326 245
0.0084440531 0.68800002 -0.0060314666 1.3158663e-38 327 245
0.0096783992 0.69 -0.0060489997 1.2791321e-38 328 245
0.010888199 0.69 -0.0060489997 1.2607292e-38 329 245
0.012097999 0.69 -0.0060489997 1.2606933e-38 330 245
0.0133078 0.69 -0.0060489997 1.2790963e-38 331 245
0.014538639 0.69099998 -0.0060577663 1.2607655e-38 332 245
0.015750192 0.69099998 -0.0060577663 1.2884243e-38 333 245
0.01701084 0.69300002 -0.0060753003 1.2517649e-38 334 245
0.0182522 0.69400001 -0.0060840664 1.2794238e-38 335 245
0.019469013 0.69400001 -0.0060840664 1.2612732e-38 336 245
0.020745439 0.69599998 -0.0061015999 1.2704927e-38 337 245
0.021965759 0.69599998 -0.0061015999 1.2429414e-38 338 245
0.023186078 0.69599998 -0.0061015999 1.2060991e-38 339 245
0.024441468 0.69700003 -0.0061103669 1.2151741e-38 340 245
0.028148014 0.69800001 -0.006119133 1.2711806e-38 343 245
0.029371841 0.69800001 -0.006119133 1.5399208e-38 344 245
-0.039667413 0.70700002 -0.0074376399 1.381013e-38 288 246
-0.038373452 0.70599997 -0.0074271196 1.4363304e-38 289 246
-0.037030395 0.704 -0.0074060797 1.4821747e-38 290 246
-0.035745207 0.70300001 -0.0073955595 1.4821747e-38 291 246
-0.034365334 0.69999999 -0.0073639993 1.5281283e-38 292 246
-0.033137999 0.69999999 -0.0073639993 1.5373477e-38 293 246
-0.031819493 0.69800001 -0.0073429602 1.5465672e-38 294 246
-0.030551834 0.69700003 -0.00733244 1.6111033e-38 295 246
-0.029287677 0.69599998 -0.0073219193 1.5747994e-38 296 246
-0.028067358 0.69599998 -0.0073219193 1.5747994e-38 297 246
-0.026769891 0.69400001 -0.0073008798 1.5748358e-38 298 246
-0.02551626 0.69300002 -0.0072903596 1.5840913e-38 299 246
-0.024301201 0.69300002 -0.0072903596 1.5656894e-38 300 246
-0.023019511 0.69099998 -0.0072693196 1.5472503e-38 301 246
-0.021776399 0.69 -0.0072587994 1.5745846e-38 302 246
-0.020566599 0.69 -0.0072587994 1.5745846e-38 303 246
-0.019356798 0.69 -0.0072587994 1.5561812e-38 304 246
-0.018146999 0.69 -0.0072587994 1.5469618e-38 305 246
-0.016888106 0.68800002 -0.0072377604 1.4823182e-38 306 246
-0.015681813 0.68800002 -0.0072377604 1.4454405e-38 307 246
-0.014454478 0.68699998 -0.0072272392 1.4361852e-38 308 246
-0.013249939 0.68699998 -0.0072272392 1.4177105e-38 309 246
-0.012027865 0.68599999 -0.0072167199 1.4361493e-38 310 246
-0.010825079 0.68599999 -0.0072167199 1.4269299e-38 311 246
-0.0096222926 0.68599999 -0.0072167199 1.4451897e-38 312 246
-0.0084195063 0.68599999 -0.0072167199 1.4544451e-38 313 246
-0.0072167199 0.68599999 -0.0072167199 1.4268956e-38 314 246
-0.0060139326 0.68599999 -0.0072167199 1.399237e-38 315 246
-0.0048111463 0.68599999 -0.0072167199 1.4174962e-38 316 246
-0.00360836 0.68599999 -0.0072167199 1.4082767e-38 317 246
-0.0024055731 0.68599999 -0.0072167199 1.4266788e-38 318 246
-0.0012027866 0.68599999 -0.0072167199 1.4174235e-38 319 246
0 0.68599999 -0.0072167199 1.4176029e-38 320 246
0.0012045399 0.68699998 -0.0072272392 1.3807252e-38 321 246
0.0024090798 0.68699998 -0.0072272392 1.3713981e-38 322 246
0.0036136196 0.68699998 -0.0072272392 1.3253369e-38 323 246
0.0048251734 0.68800002 -0.0072377604 1.3251934e-38 324 246
0.0060314666 0.68800002 -0.0072377604 1.3251934e-38 325 246
0.0072377604 0.68800002 -0.0072377604 1.3068263e-38 326 246
0.0084440531 0.68800002 -0.0072377604 1.2976069e-38 327 246
0.0096503468 0.68800002 -0.0072377604 1.2882798e-38 328 246
0.010856641 0.68800002 -0.0072377604 1.2882798e-38 329 246
0.012097999 0.69 -0.0072587994 1.2606933e-38 330 246
0.0133078 0.69 -0.0072587994 1.2606933e-38 331 246
0.014517599 0.69 -0.0072587994 1.2789892e-38 332 246
0.015750192 0.69099998 -0.0072693196 1.2974642e-38 333 246
0.01701084 0.69300002 -0.0072903596 1.2607681e-38 334 246
0.0182522 0.69400001 -0.0073008798 1.2883908e-38 335 246
0.019469013 0.69400001 -0.0073008798 1.2519451e-38 336 246
0.020745439 0.69599998 -0.0073219193 1.2887874e-38 337 246
0.021965759 0.69599998 -0.0073219193 1.2430135e-38 338 246
0.023186078 0.69599998 -0.0073219193 1.2430135e-38 339 246
0.024441468 0.69700003 -0.00733244 1.1969164e-38 340 246
0.025663542 0.69700003 -0.00733244 1.1508186e-38 341 246
0.026924185 0.69800001 -0.0073429602 9.2033303e-39 342 246
0.028148014 0.69800001 -0.0073429602 9.4802774e-39 343 246
0.029455997 0.69999999 -0.0073639993 1.373967e-38 344 246
-0.040849157 0.70599997 -0.0086649731 1.0412278e-38 287 247
-0.039499093 0.704 -0.0086404262 1.3993442e-38 288 247
-0.038210396 0.70300001 -0.0086281532 1.4454419e-38 289 247
-0.036977798 0.70300001 -0.0086281532 1.4821747e-38 290 247
-0.035643511 0.70099998 -0.0086036054 1.4821747e-38 291 247
-0.034365334 0.69999999 -0.0085913334 1.5005777e-38 292 247
-0.033043321 0.69800001 -0.0085667865 1.5190165e-38 293 247
-0.03177391 0.69700003 -0.0085545136 1.5191966e-38 294 247
-0.030507999 0.69599998 -0.0085422397 1.5560748e-38 295 247
-0.029287677 0.69599998 -0.0085422397 1.5563612e-38 296 247
-0.027986705 0.69400001 -0.0085176928 1.5655808e-38 297 247
-0.026769891 0.69400001 -0.0085176928 1.5564698e-38 298 247
-0.02551626 0.69300002 -0.0085054198 1.5472503e-38 299 247
-0.024301201 0.69300002 -0.0085054198 1.5655459e-38 300 247
-0.022986198 0.69 -0.0084686 1.5563262e-38 301 247
-0.021713281 0.68800002 -0.0084440531 1.5471053e-38 302 247
-0.020506985 0.68800002 -0.0084440531 1.5102634e-38 303 247
-0.019300694 0.68800002 -0.0084440531 1.5193394e-38 304 247
-0.0180944 0.68800002 -0.0084440531 1.5101199e-38 305 247
-0.01686356 0.68699998 -0.0084317802 1.4547317e-38 306 247
-0.015659019 0.68699998 -0.0084317802 1.4455122e-38 307 247
-0.014454478 0.68699998 -0.0084317802 1.4177822e-38 308 247
-0.013249939 0.68699998 -0.0084317802 1.3993792e-38 309 247
-0.012027865 0.68599999 -0.0084195063 1.3993075e-38 310 247
-0.010825079 0.68599999 -0.0084195063 1.3900881e-38 311 247
-0.0095942402 0.68400002 -0.0083949603 1.3900173e-38 312 247
-0.0083949603 0.68400002 -0.0083949603 1.3900173e-38 313 247
-0.0072167199 0.68599999 -0.0084195063 1.3992726e-38 314 247
-0.0060139326 0.68599999 -0.0084195063 1.390017e-38 315 247
-0.0048111463 0.68599999 -0.0084195063 1.3991287e-38 316 247
-0.00360836 0.68599999 -0.0084195063 1.3991287e-38 317 247
-0.0024055731 0.68599999 -0.0084195063 1.4083122e-38 318 247
-0.0012027866 0.68599999 -0.0084195063 1.3990927e-38 319 247
0 0.68599999 -0.0084195063 1.3899805e-38 320 247
0.0012027866 0.68599999 -0.0084195063 1.3531028e-38 321 247
0.0024090798 0.68699998 -0.0084317802 1.3253728e-38 322 247
0.0036136196 0.68699998 -0.0084317802 1.3161533e-38 323 247
0.0048181596 0.68699998 -0.0084317802 1.3068263e-38 324 247
0.0060226996 0.68699998 -0.0084317802 1.2976069e-38 325 247
0.0072272392 0.68699998 -0.0084317802 1.3067545e-38 326 247
0.0084440531 0.68800002 -0.0084440531 1.2975351e-38 327 247
0.0096503468 0.68800002 -0.0084440531 1.2882798e-38 328 247
0.010856641 0.68800002 -0.0084440531 1.2882798e-38 329 247
0.012062933 0.68800002 -0.0084440531 1.2606574e-38 330 247
0.013269227 0.68800002 -0.0084440531 1.2606574e-38 331 247
0.014517599 0.69 -0.0084686 1.2607302e-38 332 247
0.015750192 0.69099998 -0.008480873 1.2607302e-38 333 247
0.016961746 0.69099998 -0.008480873 1.233218e-38 334 247
0.018225901 0.69300002 -0.0085054198 1.2700962e-38 335 247
0.01944096 0.69300002 -0.0085054198 1.2151758e-38 336 247
0.020685827 0.69400001 -0.0085176928 1.2428344e-38 337 247
0.021965759 0.69599998 -0.0085422397 1.1970959e-38 338 247
0.023186078 0.69599998 -0.0085422397 1.1970959e-38 339 247
0.024441468 0.69700003 -0.0085545136 1.2153909e-38 340 247
0.025663542 0.69700003 -0.0085545136 1.1600735e-38 341 247
0.026924185 0.69800001 -0.0085667865 9.9394352e-39 342 247
0.028228667 0.69999999 -0.0085913334 7.6341844e-39 343 247
0.029455997 0.69999999 -0.0085913334 1.216369e-38 344 247
-0.040733438 0.704 -0.0098747732 1.0596309e-38 287 248
-0.039499093 0.704 -0.0098747732 1.417711e-38 288 248
-0.038210396 0.70300001 -0.0098607466 1.4545893e-38 289 248
-0.036872596 0.70099998 -0.0098326923 1.4821747e-38 290 248
-0.035592664 0.69999999 -0.0098186666 1.4821747e-38 291 248
-0.034365334 0.69999999 -0.0098186666 1.4729911e-38 292 248
-0.033043321 0.69800001 -0.0097906133 1.509833e-38 293 248
-0.03177391 0.69700003 -0.0097765867 1.5006853e-38 294 248
-0.030507999 0.69599998 -0.0097625591 1.546783e-38 295 248
-0.029287677 0.69599998 -0.0097625591 1.5378505e-38 296 248
-0.027986705 0.69400001 -0.0097345067 1.5747289e-38 297 248
-0.026769891 0.69400001 -0.0097345067 1.5565049e-38 298 248
-0.02551626 0.69300002 -0.0097204801 1.5288102e-38 299 248
-0.024301201 0.69300002 -0.0097204801 1.5471053e-38 300 248
-0.022986198 0.69 -0.0096783992 1.5471053e-38 301 248
-0.021713281 0.68800002 -0.0096503468 1.53785e-38 302 248
-0.020506985 0.68800002 -0.0096503468 1.5101558e-38 303 248
-0.019272638 0.68699998 -0.0096363192 1.5100123e-38 304 248
-0.018068098 0.68699998 -0.0096363192 1.4823541e-38 305 248
-0.01686356 0.68699998 -0.0096363192 1.4180333e-38 306 248
-0.015659019 0.68699998 -0.0096363192 1.3995945e-38 307 248
-0.01443344 0.68599999 -0.0096222926 1.4085269e-38 308 248
-0.013230653 0.68599999 -0.0096222926 1.3992716e-38 309 248
-0.0119928 0.68400002 -0.0095942402 1.3900522e-38 310 248
-0.01079352 0.68400002 -0.0095942402 1.3716492e-38 311 248
-0.0095942402 0.68400002 -0.0095942402 1.3899446e-38 312 248
-0.0083949603 0.68400002 -0.0095942402 1.3991999e-38 313 248
-0.0071956799 0.68400002 -0.0095942402 1.399164e-38 314 248
-0.0059964 0.68400002 -0.0095942402 1.399164e-38 315 248
-0.0047971201 0.68400002 -0.0095942402 1.4082399e-38 316 248
-0.00359784 0.68400002 -0.0095942402 1.389837e-38 317 248
-0.0023985601 0.68400002 -0.0095942402 1.3805817e-38 318 248
-0.00119928 0.68400002 -0.0095942402 1.3805817e-38 319 248
0 0.68599999 -0.0096222926 1.3713622e-38 320 248
0.0012027866 0.68599999 -0.0096222926 1.3529234e-38 321 248
0.0024090798 0.68699998 -0.0096363192 1.3343769e-38 322 248
0.0036136196 0.68699998 -0.0096363192 1.3251575e-38 323 248
0.0048181596 0.68699998 -0.0096363192 1.297571e-38 324 248
0.0060226996 0.68699998 -0.0096363192 1.297571e-38 325 248
0.0072272392 0.68699998 -0.0096363192 1.2974992e-38 326 248
0.0084317802 0.68699998 -0.0096363192 1.2974992e-38 327 248
0.0096363192 0.68699998 -0.0096363192 1.2700203e-38 328 248
0.010840859 0.68699998 -0.0096363192 1.2608009e-38 329 248
0.012045399 0.68699998 -0.0096363192 1.260765e-38 330 248
0.013249939 0.68699998 -0.0096363192 1.2515456e-38 331 248
0.014475521 0.68800002 -0.0096503468 1.2515097e-38 332 248
0.015750192 0.69099998 -0.0096924258 1.2699486e-38 333 248
0.016961746 0.69099998 -0.0096924258 1.2240321e-38 334 248
0.018225901 0.69300002 -0.0097204801 1.2516549e-38 335 248
0.01944096 0.69300002 -0.0097204801 1.2149953e-38 336 248
0.020656019 0.69300002 -0.0097204801 1.24269e-38 337 248
0.021902639 0.69400001 -0.0097345067 1.1970612e-38 338 248
0.023119451 0.69400001 -0.0097345067 1.2155004e-38 339 248
0.024336265 0.69400001 -0.0097345067 1.1970606e-38 340 248
0.025663542 0.69700003 -0.0097765867 1.1601824e-38 341 248
0.026924185 0.69800001 -0.0097906133 1.0768115e-38 342 248
0.028228667 0.69999999 -0.0098186666 8.4635849e-39 343 248
0.029455997 0.69999999 -0.0098186666 1.0690002e-38 344 248
0.030727165 0.70099998 -0.0098326923 1.6037348e-38 345 248
-0.040733438 0.704 -0.011109119 1.1146236e-38 287 249
-0.039499093 0.704 -0.011109119 1.4452252e-38 288 249
-0.038101684 0.70099998 -0.011061779 1.4729195e-38 289 249
-0.036819998 0.69999999 -0.011045999 1.4637358e-38 290 249
-0.035592664 0.69999999 -0.011045999 1.4729911e-38 291 249
-0.034267146 0.69800001 -0.01101444 1.4730629e-38 292 249
-0.03299598 0.69700003 -0.01099866 1.4822823e-38 293 249
-0.03177391 0.69700003 -0.01099866 1.4915379e-38 294 249
-0.030507999 0.69599998 -0.010982879 1.5191966e-38 295 249
-0.029287677 0.69599998 -0.010982879 1.5102285e-38 296 249
-0.027986705 0.69400001 -0.01095132 1.519484e-38 297 249
-0.026769891 0.69400001 -0.01095132 1.5379234e-38 298 249
-0.02551626 0.69300002 -0.010935539 1.5102288e-38 299 249
-0.024301201 0.69300002 -0.010935539 1.4919326e-38 300 249
-0.022986198 0.69 -0.010888199 1.4827131e-38 301 249
-0.021713281 0.68800002 -0.010856641 1.4918246e-38 302 249
-0.020506985 0.68800002 -0.010856641 1.4641304e-38 303 249
-0.019272638 0.68699998 -0.010840859 1.4457275e-38 304 249
-0.018068098 0.68699998 -0.010840859 1.4180333e-38 305 249
-0.016839013 0.68599999 -0.010825079 1.4087063e-38 306 249
-0.015636226 0.68599999 -0.010825079 1.3902674e-38 307 249
-0.01443344 0.68599999 -0.010825079 1.3809404e-38 308 249
-0.013230653 0.68599999 -0.010825079 1.3809404e-38 309 249
-0.0119928 0.68400002 -0.01079352 1.3716851e-38 310 249
-0.01079352 0.68400002 -0.01079352 1.3716851e-38 311 249
-0.0095942402 0.68400002 -0.01079352 1.3716134e-38 312 249
-0.0083949603 0.68400002 -0.01079352 1.3623939e-38 313 249
-0.0071956799 0.68400002 -0.01079352 1.3806534e-38 314 249
-0.0059876335 0.68300003 -0.01077774 1.353031e-38 315 249
-0.0047901068 0.68300003 -0.01077774 1.3713264e-38 316 249
-0.0035925799 0.68300003 -0.01077774 1.3621069e-38 317 249
-0.0023950534 0.68300003 -0.01077774 1.3621069e-38 318 249
-0.00119928 0.68400002 -0.01079352 1.3528875e-38 319 249
0 0.68400002 -0.01079352 1.3436681e-38 320 249
0.0012027866 0.68599999 -0.010825079 1.3252293e-38 321 249
0.0024055731 0.68599999 -0.010825079 1.3251575e-38 322 249
0.0036136196 0.68699998 -0.010840859 1.3251575e-38 323 249
0.0048181596 0.68699998 -0.010840859 1.3067187e-38 324 249
0.0060226996 0.68699998 -0.010840859 1.3067187e-38 325 249
0.0072272392 0.68699998 -0.010840859 1.2974992e-38 326 249
0.0084317802 0.68699998 -0.010840859 1.2974992e-38 327 249
0.0096363192 0.68699998 -0.010840859 1.2608009e-38 328 249
0.010840859 0.68699998 -0.010840859 1.2608009e-38 329 249
0.012045399 0.68699998 -0.010840859 1.2515456e-38 330 249
0.013249939 0.68699998 -0.010840859 1.2515456e-38 331 249
0.014475521 0.68800002 -0.010856641 1.2331426e-38 332 249
0.015727401 0.69 -0.010888199 1.2423979e-38 333 249
0.016961746 0.69099998 -0.01090398 1.2147772e-38 334 249
0.0181733 0.69099998 -0.01090398 1.2239968e-38 335 249
0.019384852 0.69099998 -0.01090398 1.1505682e-38 336 249
0.020656019 0.69300002 -0.010935539 1.1690432e-38 337 249
0.021902639 0.69400001 -0.01095132 1.169296e-38 338 249
0.02308614 0.69300002 -0.010935539 1.1969905e-38 339 249
0.024301201 0.69300002 -0.010935539 1.1788369e-38 340 249
0.025663542 0.69700003 -0.01099866 1.1235196e-38 341 249
0.026924185 0.69800001 -0.01101444 1.0860313e-38 342 249
0.028228667 0.69999999 -0.011045999 8.8320087e-39 343 249
0.029455997 0.69999999 -0.011045999 9.9495624e-39 344 249
0.030727165 0.70099998 -0.011061779 1.4744094e-38 345 249
0.031956252 0.70099998 -0.011061779 1.7058009e-38 346 249
-0.039330769 0.70099998 -0.012290866 1.4269658e-38 288 250
-0.038101684 0.70099998 -0.012290866 1.4361852e-38 289 250
-0.036819998 0.69999999 -0.012273333 1.4361493e-38 290 250
-0.035490975 0.69800001 -0.012238266 1.4453687e-38 291 250
-0.034267146 0.69800001 -0.012238266 1.4454046e-38 292 250
-0.03299598 0.69700003 -0.012220734 1.4730629e-38 293 250
-0.031728316 0.69599998 -0.0122032 1.4639152e-38 294 250
-0.030420333 0.69400001 -0.012168133 1.4915376e-38 295 250
-0.029203519 0.69400001 -0.012168133 1.4824981e-38 296 250
-0.027986705 0.69400001 -0.012168133 1.4917177e-38 297 250
-0.02673132 0.69300002 -0.012150601 1.4733864e-38 298 250
-0.02551626 0.69300002 -0.012150601 1.464131e-38 299 250
-0.024301201 0.69300002 -0.012150601 1.4642022e-38 300 250
-0.022919573 0.68800002 -0.012062933 1.4549469e-38 301 250
-0.021681719 0.68699998 -0.012045399 1.4641304e-38 302 250
-0.020477179 0.68699998 -0.012045399 1.4364722e-38 303 250
-0.019272638 0.68699998 -0.012045399 1.4180333e-38 304 250
-0.018068098 0.68699998 -0.012045399 1.3995586e-38 305 250
-0.016839013 0.68599999 -0.012027865 1.3902316e-38 306 250
-0.015636226 0.68599999 -0.012027865 1.3626092e-38 307 250
-0.01443344 0.68599999 -0.012027865 1.3533539e-38 308 250
-0.013230653 0.68599999 -0.012027865 1.3441345e-38 309 250
-0.0119928 0.68400002 -0.0119928 1.3624657e-38 310 250
-0.01079352 0.68400002 -0.0119928 1.3624657e-38 311 250
-0.0095942402 0.68400002 -0.0119928 1.3807252e-38 312 250
-0.0083826864 0.68300003 -0.011975267 1.3531028e-38 313 250
-0.0071851597 0.68300003 -0.011975267 1.3529234e-38 314 250
-0.0059876335 0.68300003 -0.011975267 1.3529234e-38 315 250
-0.0047901068 0.68300003 -0.011975267 1.3529234e-38 316 250
-0.0035925799 0.68300003 -0.011975267 1.343704e-38 317 250
-0.0023950534 0.68300003 -0.011975267 1.3528517e-38 318 250
-0.0011975267 0.68300003 -0.011975267 1.3436322e-38 319 250
0 0.68400002 -0.0119928 1.325301e-38 320 250
0.0012027866 0.68599999 -0.012027865 1.325301e-38 321 250
0.0024055731 0.68599999 -0.012027865 1.3068263e-38 322 250
0.0036136196 0.68699998 -0.012045399 1.3068263e-38 323 250
0.0048181596 0.68699998 -0.012045399 1.297571e-38 324 250
0.0060226996 0.68699998 -0.012045399 1.2883157e-38 325 250
0.0072272392 0.68699998 -0.012045399 1.2882798e-38 326 250
0.0084317802 0.68699998 -0.012045399 1.2882798e-38 327 250
0.0096363192 0.68699998 -0.012045399 1.2607292e-38 328 250
0.010840859 0.68699998 -0.012045399 1.2515097e-38 329 250
0.012045399 0.68699998 -0.012045399 1.2239232e-38 330 250
0.013249939 0.68699998 -0.012045399 1.2239232e-38 331 250
0.014454478 0.68699998 -0.012045399 1.1963367e-38 332 250
0.015681813 0.68800002 -0.012062933 1.2055561e-38 333 250
0.0169372 0.69 -0.012097999 1.1779363e-38 334 250
0.018146999 0.69 -0.012097999 1.1871558e-38 335 250
0.019384852 0.69099998 -0.012115533 1.1137271e-38 336 250
0.020596405 0.69099998 -0.012115533 1.1229468e-38 337 250
0.021807959 0.69099998 -0.012115533 1.0588786e-38 338 250
0.02308614 0.69300002 -0.012150601 1.1326351e-38 339 250
0.024301201 0.69300002 -0.012150601 1.2247919e-38 340 250
0.02551626 0.69300002 -0.012150601 1.1418158e-38 341 250
0.026924185 0.69800001 -0.012238266 1.0952861e-38 342 250
0.028228667 0.69999999 -0.012273333 9.2015031e-39 343 250
0.029455997 0.69999999 -0.012273333 8.8421232e-39 344 250
0.030727165 0.70099998 -0.012290866 1.35441e-38 345 250
0.031956252 0.70099998 -0.012290866 1.6965088e-38 346 250
-0.039330769 0.70099998 -0.013519952 1.381048e-38 288 251
-0.038047329 0.69999999 -0.013500666 1.4086707e-38 289 251
-0.036819998 0.69999999 -0.013500666 1.4361493e-38 290 251
-0.035490975 0.69800001 -0.013462093 1.4361493e-38 291 251
-0.034267146 0.69800001 -0.013462093 1.4545164e-38 292 251
-0.032948639 0.69599998 -0.013423519 1.4729911e-38 293 251
-0.031728316 0.69599998 -0.013423519 1.4455122e-38 294 251
-0.030420333 0.69400001 -0.013384946 1.4639511e-38 295 251
-0.029203519 0.69400001 -0.013384946 1.4640228e-38 296 251
-0.027946379 0.69300002 -0.01336566 1.4732422e-38 297 251
-0.02673132 0.69300002 -0.01336566 1.4457633e-38 298 251
-0.025442619 0.69099998 -0.013327086 1.4457633e-38 299 251
-0.024231065 0.69099998 -0.013327086 1.4640228e-38 300 251
-0.022886258 0.68699998 -0.013249939 1.4548034e-38 301 251
-0.021681719 0.68699998 -0.013249939 1.445584e-38 302 251
-0.020477179 0.68699998 -0.013249939 1.427181e-38 303 251
-0.019244585 0.68599999 -0.013230653 1.3995586e-38 304 251
-0.018041799 0.68599999 -0.013230653 1.3719362e-38 305 251
-0.016839013 0.68599999 -0.013230653 1.3626092e-38 306 251
-0.015636226 0.68599999 -0.013230653 1.3533539e-38 307 251
-0.01443344 0.68599999 -0.013230653 1.3348792e-38 308 251
-0.01319208 0.68400002 -0.01319208 1.3256597e-38 309 251
-0.0119928 0.68400002 -0.01319208 1.3623581e-38 310 251
-0.01079352 0.68400002 -0.01319208 1.3531386e-38 311 251
-0.0095802136 0.68300003 -0.013172794 1.3530669e-38 312 251
-0.0083826864 0.68300003 -0.013172794 1.3438475e-38 313 251
-0.0071851597 0.68300003 -0.013172794 1.343704e-38 314 251
-0.005978866 0.68199998 -0.013153506 1.343704e-38 315 251
-0.004783093 0.68199998 -0.013153506 1.3253728e-38 316 251
-0.0035925799 0.68300003 -0.013172794 1.3253728e-38 317 251
-0.0023950534 0.68300003 -0.013172794 1.325301e-38 318 251
-0.0011975267 0.68300003 -0.013172794 1.343704e-38 319 251
0 0.68400002 -0.01319208 1.3161533e-38 320 251
0.0012027866 0.68599999 -0.013230653 1.3069339e-38 321 251
0.0024055731 0.68599999 -0.013230653 1.2884951e-38 322 251
0.00360836 0.68599999 -0.013230653 1.2792398e-38 323 251
0.0048111463 0.68599999 -0.013230653 1.2974992e-38 324 251
0.0060139326 0.68599999 -0.013230653 1.2882439e-38 325 251
0.0072167199 0.68599999 -0.013230653 1.2789887e-38 326 251
0.0084317802 0.68699998 -0.013249939 1.2789887e-38 327 251
0.0096363192 0.68699998 -0.013249939 1.2514021e-38 328 251
0.010840859 0.68699998 -0.013249939 1.2421827e-38 329 251
0.012045399 0.68699998 -0.013249939 1.2145962e-38 330 251
0.013249939 0.68699998 -0.013249939 1.2145962e-38 331 251
0.014454478 0.68699998 -0.013249939 1.1870465e-38 332 251
0.015681813 0.68800002 -0.013269227 1.177827e-38 333 251
0.016888106 0.68800002 -0.013269227 1.1501349e-38 334 251
0.018146999 0.69 -0.0133078 1.1593545e-38 335 251
0.019384852 0.69099998 -0.013327086 1.0859609e-38 336 251
0.020596405 0.69099998 -0.013327086 1.0951805e-38 337 251
0.021807959 0.69099998 -0.013327086 1.0494072e-38 338 251
0.02308614 0.69300002 -0.01336566 1.1323833e-38 339 251
0.024301201 0.69300002 -0.01336566 1.1878426e-38 340 251
0.02551626 0.69300002 -0.01336566 1.1233057e-38 341 251
0.026924185 0.69800001 -0.013462093 1.1045779e-38 342 251
0.028228667 0.69999999 -0.013500666 9.5706485e-39 343 251
0.029455997 0.69999999 -0.013500666 8.4711771e-39 344 251
0.030727165 0.70099998 -0.013519952 1.280437e-38 345 251
0.031956252 0.70099998 -0.013519952 1.6872529e-38 346 251
-0.041967787 0.704 -0.014812159 1.4555674e-38 286 252
-0.040675577 0.70300001 -0.014791119 1.0960404e-38 287 252
-0.039330769 0.70099998 -0.014749039 1.3625018e-38 288 252
-0.038047329 0.69999999 -0.014727999 1.4085638e-38 289 252
-0.036819998 0.69999999 -0.014727999 1.3993792e-38 290 252
-0.035490975 0.69800001 -0.01468592 1.3993792e-38 291 252
-0.034267146 0.69800001 -0.01468592 1.4361852e-38 292 252
-0.032948639 0.69599998 -0.014643839 1.4361852e-38 293 252
-0.031728316 0.69599998 -0.014643839 1.4362569e-38 294 252
-0.030420333 0.69400001 -0.01460176 1.4547317e-38 295 252
-0.029161438 0.69300002 -0.014580719 1.445584e-38 296 252
-0.027946379 0.69300002 -0.014580719 1.445584e-38 297 252
-0.02673132 0.69300002 -0.014580719 1.4272886e-38 298 252
-0.025442619 0.69099998 -0.014538639 1.4088857e-38 299 252
-0.024231065 0.69099998 -0.014538639 1.4272169e-38 300 252
-0.022886258 0.68699998 -0.014454478 1.408778e-38 301 252
-0.021681719 0.68699998 -0.014454478 1.4179257e-38 302 252
-0.020447372 0.68599999 -0.01443344 1.4087063e-38 303 252
-0.019244585 0.68599999 -0.01443344 1.3719003e-38 304 252
-0.018041799 0.68599999 -0.01443344 1.3626809e-38 305 252
-0.016839013 0.68599999 -0.01443344 1.3166556e-38 306 252
-0.015636226 0.68599999 -0.01443344 1.3074003e-38 307 252
-0.01439136 0.68400002 -0.01439136 1.3255521e-38 308 252
-0.01319208 0.68400002 -0.01439136 1.3255521e-38 309 252
-0.0119928 0.68400002 -0.01439136 1.3072568e-38 310 252
-0.01077774 0.68300003 -0.014370319 1.2980373e-38 311 252
-0.0095802136 0.68300003 -0.014370319 1.3346639e-38 312 252
-0.0083826864 0.68300003 -0.014370319 1.3254445e-38 313 252
-0.00717464 0.68199998 -0.01434928 1.3345922e-38 314 252
-0.005978866 0.68199998 -0.01434928 1.3253728e-38 315 252
-0.004783093 0.68199998 -0.01434928 1.3253728e-38 316 252
-0.00358732 0.68199998 -0.01434928 1.3161533e-38 317 252
-0.0023915465 0.68199998 -0.01434928 1.2978221e-38 318 252
-0.0011957732 0.68199998 -0.01434928 1.2978221e-38 319 252
0 0.68400002 -0.01439136 1.2886386e-38 320 252
0.0012027866 0.68599999 -0.01443344 1.2702356e-38 321 252
0.0024055731 0.68599999 -0.01443344 1.2609803e-38 322 252
0.00360836 0.68599999 -0.01443344 1.2425414e-38 323 252
0.0048111463 0.68599999 -0.01443344 1.2515097e-38 324 252
0.0060139326 0.68599999 -0.01443344 1.2238515e-38 325 252
0.0072167199 0.68599999 -0.01443344 1.2422186e-38 326 252
0.0084195063 0.68599999 -0.01443344 1.2238156e-38 327 252
0.0096363192 0.68699998 -0.014454478 1.2328917e-38 328 252
0.010840859 0.68699998 -0.014454478 1.2236721e-38 329 252
0.012045399 0.68699998 -0.014454478 1.1961582e-38 330 252
0.013249939 0.68699998 -0.014454478 1.1777551e-38 331 252
0.014454478 0.68699998 -0.014454478 1.1226189e-38 332 252
0.015681813 0.68800002 -0.014475521 1.1226189e-38 333 252
0.016888106 0.68800002 -0.014475521 1.0765599e-38 334 252
0.018146999 0.69 -0.014517599 1.0857794e-38 335 252
0.019384852 0.69099998 -0.014538639 1.0123494e-38 336 252
0.020596405 0.69099998 -0.014538639 1.0307886e-38 337 252
0.021807959 0.69099998 -0.014538639 9.8508704e-39 338 252
0.02308614 0.69300002 -0.014580719 1.0588435e-38 339 252
0.024301201 0.69300002 -0.014580719 1.1325608e-38 340 252
0.02551626 0.69300002 -0.014580719 1.1325608e-38 341 252
0.026885614 0.69700003 -0.01466488 1.1321274e-38 342 252
0.028148014 0.69800001 -0.01468592 1.0122731e-38 343 252
0.029371841 0.69800001 -0.01468592 8.9292672e-39 344 252
0.030727165 0.70099998 -0.014749039 1.2340147e-38 345 252
-0.041967787 0.704 -0.016046507 1.4464554e-38 286 253
-0.040675577 0.70300001 -0.016023712 1.0684892e-38 287 253
-0.039330769 0.70099998 -0.015978126 1.3625016e-38 288 253
-0.038101684 0.70099998 -0.015978126 1.3993795e-38 289 253
-0.036819998 0.69999999 -0.015955333 1.4084552e-38 290 253
-0.035490975 0.69800001 -0.015909746 1.4176746e-38 291 253
-0.034218054 0.69700003 -0.015886955 1.4269658e-38 292 253
-0.032948639 0.69599998 -0.015864158 1.4454046e-38 293 253
-0.031637147 0.69400001 -0.015818574 1.4362928e-38 294 253
-0.0303765 0.69300002 -0.015795778 1.4362928e-38 295 253
-0.029161438 0.69300002 -0.015795778 1.4454405e-38 296 253
-0.027946379 0.69300002 -0.015795778 1.4454405e-38 297 253
-0.026615599 0.69 -0.015727401 1.4179257e-38 298 253
-0.02533216 0.68800002 -0.015681813 1.4087063e-38 299 253
-0.024125867 0.68800002 -0.015681813 1.4087063e-38 300 253
-0.022886258 0.68699998 -0.015659019 1.4179257e-38 301 253
-0.021650158 0.68599999 -0.015636226 1.3994869e-38 302 253
-0.020447372 0.68599999 -0.015636226 1.3902674e-38 303 253
-0.019244585 0.68599999 -0.015636226 1.3626092e-38 304 253
-0.018041799 0.68599999 -0.015636226 1.3441345e-38 305 253
-0.016789921 0.68400002 -0.01559064 1.3349509e-38 306 253
-0.01559064 0.68400002 -0.01559064 1.2981091e-38 307 253
-0.01439136 0.68400002 -0.01559064 1.3071133e-38 308 253
-0.01319208 0.68400002 -0.01559064 1.2978938e-38 309 253
-0.011975267 0.68300003 -0.015567848 1.3163327e-38 310 253
-0.01077774 0.68300003 -0.015567848 1.3163327e-38 311 253
-0.009566186 0.68199998 -0.015545053 1.3254804e-38 312 253
-0.0083704125 0.68199998 -0.015545053 1.3254804e-38 313 253
-0.00717464 0.68199998 -0.015545053 1.3070415e-38 314 253
-0.005978866 0.68199998 -0.015545053 1.3070415e-38 315 253
-0.004783093 0.68199998 -0.015545053 1.3070415e-38 316 253
-0.00358732 0.68199998 -0.015545053 1.2885668e-38 317 253
-0.0023915465 0.68199998 -0.015545053 1.2884951e-38 318 253
-0.0011957732 0.68199998 -0.015545053 1.2884951e-38 319 253
0 0.68300003 -0.015567848 1.2792756e-38 320 253
0.00119928 0.68400002 -0.01559064 1.2884951e-38 321 253
0.0023985601 0.68400002 -0.01559064 1.2608368e-38 322 253
0.00359784 0.68400002 -0.01559064 1.2332144e-38 323 253
0.0048111463 0.68599999 -0.015636226 1.2238515e-38 324 253
0.0060139326 0.68599999 -0.015636226 1.2146321e-38 325 253
0.0072167199 0.68599999 -0.015636226 1.2145962e-38 326 253
0.0084195063 0.68599999 -0.015636226 1.2053768e-38 327 253
0.0096222926 0.68599999 -0.015636226 1.2054128e-38 328 253
0.010825079 0.68599999 -0.015636226 1.2054128e-38 329 253
0.012045399 0.68699998 -0.015659019 1.1410573e-38 330 253
0.013249939 0.68699998 -0.015659019 1.1226542e-38 331 253
0.014454478 0.68699998 -0.015659019 1.104216e-38 332 253
0.015681813 0.68800002 -0.015681813 1.0949965e-38 333 253
0.016888106 0.68800002 -0.015681813 1.0673756e-38 334 253
0.018146999 0.69 -0.015727401 1.0581201e-38 335 253
0.019356798 0.69 -0.015727401 1.0214596e-38 336 253
0.020596405 0.69099998 -0.015750192 1.0306791e-38 337 253
0.021807959 0.69099998 -0.015750192 1.0309307e-38 338 253
0.02308614 0.69300002 -0.015795778 1.0586252e-38 339 253
0.024301201 0.69300002 -0.015795778 1.1601103e-38 340 253
0.02551626 0.69300002 -0.015795778 1.1508908e-38 341 253
0.026885614 0.69700003 -0.015886955 1.1506032e-38 342 253
0.028148014 0.69800001 -0.015909746 1.0768466e-38 343 253
0.029371841 0.69800001 -0.015909746 9.3884447e-39 344 253
0.030595668 0.69800001 -0.015909746 1.1601499e-38 345 253
-0.043324865 0.70599997 -0.017329946 1.5488863e-38 285 254
-0.042087011 0.70599997 -0.017329946 1.4373434e-38 286 254
-0.040675577 0.70300001 -0.017256306 1.0870001e-38 287 254
-0.039330769 0.70099998 -0.017207211 1.3900881e-38 288 254
-0.038101684 0.70099998 -0.017207211 1.3993075e-38 289 254
-0.036819998 0.69999999 -0.017182667 1.3993075e-38 290 254
-0.035490975 0.69800001 -0.017133573 1.3993075e-38 291 254
-0.034218054 0.69700003 -0.017109027 1.4177822e-38 292 254
-0.032948639 0.69599998 -0.017084479 1.4177822e-38 293 254
-0.031637147 0.69400001 -0.017035386 1.4086704e-38 294 254
-0.0303765 0.69300002 -0.01701084 1.4178898e-38 295 254
-0.029161438 0.69300002 -0.01701084 1.4270016e-38 296 254
-0.027865725 0.69099998 -0.016961746 1.4270016e-38 297 254
-0.026615599 0.69 -0.0169372 1.3811915e-38 298 254
-0.02533216 0.68800002 -0.016888106 1.3719362e-38 299 254
-0.024125867 0.68800002 -0.016888106 1.3811915e-38 300 254
-0.022886258 0.68699998 -0.01686356 1.3719721e-38 301 254
-0.021650158 0.68599999 -0.016839013 1.3626809e-38 302 254
-0.020447372 0.68599999 -0.016839013 1.3534615e-38 303 254
-0.019244585 0.68599999 -0.016839013 1.3441703e-38 304 254
-0.018041799 0.68599999 -0.016839013 1.3349509e-38 305 254
-0.016789921 0.68400002 -0.016789921 1.2797779e-38 306 254
-0.01559064 0.68400002 -0.016789921 1.2613031e-38 307 254
-0.01439136 0.68400002 -0.016789921 1.2795985e-38 308 254
-0.01319208 0.68400002 -0.016789921 1.2795985e-38 309 254
-0.011975267 0.68300003 -0.016765373 1.2888179e-38 310 254
-0.01077774 0.68300003 -0.016765373 1.2888179e-38 311 254
-0.009566186 0.68199998 -0.016740825 1.2887462e-38 312 254
-0.0083704125 0.68199998 -0.016740825 1.2795267e-38 313 254
-0.00717464 0.68199998 -0.016740825 1.2978938e-38 314 254
-0.005978866 0.68199998 -0.016740825 1.2978938e-38 315 254
-0.004783093 0.68199998 -0.016740825 1.2885309e-38 316 254
-0.00358732 0.68199998 -0.016740825 1.2793115e-38 317 254
-0.0023915465 0.68199998 -0.016740825 1.2425414e-38 318 254
-0.0011957732 0.68199998 -0.016740825 1.2425414e-38 319 254
0 0.68199998 -0.016740825 1.2242102e-38 320 254
0.0011975267 0.68300003 -0.016765373 1.2242102e-38 321 254
0.0023950534 0.68300003 -0.016765373 1.2148832e-38 322 254
0.00359784 0.68400002 -0.016789921 1.2056637e-38 323 254
0.0047971201 0.68400002 -0.016789921 1.2146681e-38 324 254
0.0059964 0.68400002 -0.016789921 1.2054126e-38 325 254
0.0071956799 0.68400002 -0.016789921 1.1871533e-38 326 254
0.0084195063 0.68599999 -0.016839013 1.1871533e-38 327 254
0.0096222926 0.68599999 -0.016839013 1.1870814e-38 328 254
0.010825079 0.68599999 -0.016839013 1.1870814e-38 329 254
0.012045399 0.68699998 -0.01686356 1.1503478e-38 330 254
0.013249939 0.68699998 -0.01686356 1.1226892e-38 331 254
0.014454478 0.68699998 -0.01686356 1.0859201e-38 332 254
0.015681813 0.68800002 -0.016888106 1.0767006e-38 333 254
0.016888106 0.68800002 -0.016888106 1.0398244e-38 334 254
0.018146999 0.69 -0.0169372 1.0398244e-38 335 254
0.019356798 0.69 -0.0169372 9.9398038e-39 336 254
0.020596405 0.69099998 -0.016961746 1.0124195e-38 337 254
0.021807959 0.69099998 -0.016961746 1.0033797e-38 338 254
0.02308614 0.69300002 -0.01701084 1.0586971e-38 339 254
0.024301201 0.69300002 -0.01701084 1.0956454e-38 340 254
0.02551626 0.69300002 -0.01701084 1.0956454e-38 341 254
0.026885614 0.69700003 -0.017109027 1.1321271e-38 342 254
0.028148014 0.69800001 -0.017133573 1.0768097e-38 343 254
0.029371841 0.69800001 -0.017133573 9.3884307e-39 344 254
0.030595668 0.69800001 -0.017133573 1.1047593e-38 345 254
-0.043324865 0.70599997 -0.018567799 1.5672538e-38 285 255
-0.041967787 0.704 -0.018515198 1.4373081e-38 286 255
-0.040675577 0.70300001 -0.018488899 1.1146233e-38 287 255
-0.039330769 0.70099998 -0.018436298 1.3992726e-38 288 255
-0.038101684 0.70099998 -0.018436298 1.4176757e-38 289 255
-0.036819998 0.69999999 -0.018409999 1.3900881e-38 290 255
-0.035440128 0.69700003 -0.018331099 1.3900881e-38 291 255
-0.034218054 0.69700003 -0.018331099 1.408491e-38 292 255
-0.032948639 0.69599998 -0.018304799 1.4269299e-38 293 255
-0.031637147 0.69400001 -0.0182522 1.4178181e-38 294 255
-0.0303765 0.69300002 -0.018225901 1.4178181e-38 295 255
-0.029077278 0.69099998 -0.0181733 1.4177822e-38 296 255
-0.027865725 0.69099998 -0.0181733 1.3993792e-38 297 255
-0.026615599 0.69 -0.018146999 1.3901957e-38 298 255
-0.02533216 0.68800002 -0.0180944 1.3901957e-38 299 255
-0.024125867 0.68800002 -0.0180944 1.3718645e-38 300 255
-0.022886258 0.68699998 -0.018068098 1.362645e-38 301 255
-0.021650158 0.68599999 -0.018041799 1.3533539e-38 302 255
-0.020447372 0.68599999 -0.018041799 1.3533539e-38 303 255
-0.019244585 0.68599999 -0.018041799 1.3165479e-38 304 255
-0.018041799 0.68599999 -0.018041799 1.2981091e-38 305 255
-0.016789921 0.68400002 -0.0179892 1.2705226e-38 306 255
-0.01559064 0.68400002 -0.0179892 1.2336449e-38 307 255
-0.01439136 0.68400002 -0.0179892 1.2794909e-38 308 255
-0.01319208 0.68400002 -0.0179892 1.2702715e-38 309 255
-0.0119928 0.68400002 -0.0179892 1.2703073e-38 310 255
-0.01077774 0.68300003 -0.017962901 1.2703073e-38 311 255
-0.009566186 0.68199998 -0.017936599 1.279455e-38 312 255
-0.0083704125 0.68199998 -0.017936599 1.279455e-38 313 255
-0.00717464 0.68199998 -0.017936599 1.2886027e-38 314 255
-0.005978866 0.68199998 -0.017936599 1.2701997e-38 315 255
-0.004783093 0.68199998 -0.017936599 1.2609803e-38 316 255
-0.00358732 0.68199998 -0.017936599 1.251725e-38 317 255
-0.0023915465 0.68199998 -0.017936599 1.2241026e-38 318 255
-0.0011957732 0.68199998 -0.017936599 1.2241026e-38 319 255
0 0.68199998 -0.017936599 1.2425056e-38 320 255
0.0011975267 0.68300003 -0.017962901 1.2241026e-38 321 255
0.0023950534 0.68300003 -0.017962901 1.2056637e-38 322 255
0.00359784 0.68400002 -0.0179892 1.1964443e-38 323 255
0.0047971201 0.68400002 -0.0179892 1.187189e-38 324 255
0.0059964 0.68400002 -0.0179892 1.187189e-38 325 255
0.0071956799 0.68400002 -0.0179892 1.1870815e-38 326 255
0.0084195063 0.68599999 -0.018041799 1.1870815e-38 327 255
0.0096222926 0.68599999 -0.018041799 1.1595317e-38 328 255
0.010825079 0.68599999 -0.018041799 1.1687514e-38 329 255
0.012027865 0.68599999 -0.018041799 1.1320531e-38 330 255
0.013230653 0.68599999 -0.018041799 1.1227977e-38 331 255
0.014454478 0.68699998 -0.018068098 1.0859923e-38 332 255
0.015659019 0.68699998 -0.018068098 1.0491142e-38 333 255
0.016888106 0.68800002 -0.0180944 1.0214573e-38 334 255
0.0180944 0.68800002 -0.0180944 1.0214573e-38 335 255
0.019356798 0.69 -0.018146999 9.9401569e-39 336 255
0.020596405 0.69099998 -0.0181733 1.0124548e-38 337 255
0.021807959 0.69099998 -0.0181733 1.0309295e-38 338 255
0.02308614 0.69300002 -0.018225901 1.0585524e-38 339 255
0.024301201 0.69300002 -0.018225901 1.0955015e-38 340 255
0.02551626 0.69300002 -0.018225901 1.0862819e-38 341 255
0.026885614 0.69700003 -0.018331099 1.104541e-38 342 255
0.028107686 0.69700003 -0.018331099 1.0768822e-38 343 255
0.029371841 0.69800001 -0.0183574 9.6646616e-39 344 255
0.030595668 0.69800001 -0.0183574 1.1231987e-38 345 255
-0.044436477 0.704 -0.019749546 1.8714993e-38 284 256
-0.043202132 0.704 -0.019749546 1.5948765e-38 285 256
-0.041967787 0.704 -0.019749546 1.4832631e-38 286 256
-0.040675577 0.70300001 -0.019721493 1.1513588e-38 287 256
-0.039330769 0.70099998 -0.019665385 1.3900893e-38 288 256
-0.038101684 0.70099998 -0.019665385 1.3900893e-38 289 256
-0.036819998 0.69999999 -0.019637333 1.3809045e-38 290 256
-0.035440128 0.69700003 -0.019553173 1.3809045e-38 291 256
-0.034168959 0.69599998 -0.019525118 1.3900881e-38 292 256
-0.032853961 0.69400001 -0.019469013 1.3900881e-38 293 256
-0.031591557 0.69300002 -0.01944096 1.3902316e-38 294 256
-0.030288832 0.69099998 -0.019384852 1.399451e-38 295 256
-0.029077278 0.69099998 -0.019384852 1.3902316e-38 296 256
-0.027865725 0.69099998 -0.019384852 1.3809763e-38 297 256
-0.026538454 0.68800002 -0.019300694 1.3718286e-38 298 256
-0.02533216 0.68800002 -0.019300694 1.3626092e-38 299 256
-0.024125867 0.68800002 -0.019300694 1.3625374e-38 300 256
-0.022886258 0.68699998 -0.019272638 1.353318e-38 301 256
-0.021650158 0.68599999 -0.019244585 1.3441345e-38 302 256
-0.020447372 0.68599999 -0.019244585 1.334915e-38 303 256
-0.01918848 0.68400002 -0.01918848 1.2889618e-38 304 256
-0.0179892 0.68400002 -0.01918848 1.2797423e-38 305 256
-0.016789921 0.68400002 -0.01918848 1.233681e-38 306 256
-0.01559064 0.68400002 -0.01918848 1.2244615e-38 307 256
-0.01439136 0.68400002 -0.01918848 1.2427211e-38 308 256
-0.01319208 0.68400002 -0.01918848 1.2427211e-38 309 256
-0.011975267 0.68300003 -0.019160427 1.2335738e-38 310 256
-0.010761959 0.68199998 -0.019132372 1.2335738e-38 311 256
-0.009566186 0.68199998 -0.019132372 1.2519051e-38 312 256
-0.0083704125 0.68199998 -0.019132372 1.2426855e-38 313 256
-0.00717464 0.68199998 -0.019132372 1.2519044e-38 314 256
-0.005978866 0.68199998 -0.019132372 1.2426849e-38 315 256
-0.004783093 0.68199998 -0.019132372 1.2610162e-38 316 256
-0.00358732 0.68199998 -0.019132372 1.2425773e-38 317 256
-0.0023915465 0.68199998 -0.019132372 1.2241743e-38 318 256
-0.0011975267 0.68300003 -0.019160427 1.2149549e-38 319 256
0 0.68300003 -0.019160427 1.2149549e-38 320 256
0.0011975267 0.68300003 -0.019160427 1.2057355e-38 321 256
0.0023950534 0.68300003 -0.019160427 1.2057355e-38 322 256
0.0035925799 0.68300003 -0.019160427 1.1873325e-38 323 256
0.0047971201 0.68400002 -0.01918848 1.187189e-38 324 256
0.0059964 0.68400002 -0.01918848 1.187189e-38 325 256
0.0071956799 0.68400002 -0.01918848 1.1595317e-38 326 256
0.0083949603 0.68400002 -0.01918848 1.1503122e-38 327 256
0.0096222926 0.68599999 -0.019244585 1.1502769e-38 328 256
0.010825079 0.68599999 -0.019244585 1.1502769e-38 329 256
0.012027865 0.68599999 -0.019244585 1.1319456e-38 330 256
0.013230653 0.68599999 -0.019244585 1.1227261e-38 331 256
0.014454478 0.68699998 -0.019272638 1.0859567e-38 332 256
0.015659019 0.68699998 -0.019272638 1.0491145e-38 333 256
0.01686356 0.68699998 -0.019272638 1.0030904e-38 334 256
0.0180944 0.68800002 -0.019300694 1.0215296e-38 335 256
0.019356798 0.69 -0.019356798 1.0032353e-38 336 256
0.020596405 0.69099998 -0.019384852 1.0124548e-38 337 256
0.021807959 0.69099998 -0.019384852 1.0216744e-38 338 256
0.02308614 0.69300002 -0.01944096 1.0585526e-38 339 256
0.024301201 0.69300002 -0.01944096 1.0586956e-38 340 256
0.02551626 0.69300002 -0.01944096 1.0770987e-38 341 256
0.026885614 0.69700003 -0.019553173 1.104541e-38 342 256
0.028107686 0.69700003 -0.019553173 1.0768822e-38 343 256
0.02932976 0.69700003 -0.019553173 9.6657406e-39 344 256
0.030551834 0.69700003 -0.019553173 1.1232706e-38 345 256
-0.04580057 0.70599997 -0.021043506 1.8163633e-38 283 257
-0.044562716 0.70599997 -0.021043506 1.880719e-38 284 257
-0.043202132 0.704 -0.020983893 1.6225712e-38 285 257
-0.041967787 0.704 -0.020983893 1.5294338e-38 286 257
-0.040675577 0.70300001 -0.020954086 1.1606512e-38 287 257
-0.039330769 0.70099998 -0.020894472 1.3809426e-38 288 257
-0.038101684 0.70099998 -0.020894472 1.3809426e-38 289 257
-0.036819998 0.69999999 -0.020864666 1.3808687e-38 290 257
-0.035440128 0.69700003 -0.020775247 1.3808687e-38 291 257
-0.034168959 0.69599998 -0.020745439 1.3809045e-38 292 257
-0.032853961 0.69400001 -0.020685827 1.3809045e-38 293 257
-0.031591557 0.69300002 -0.020656019 1.3810121e-38 294 257
-0.030288832 0.69099998 -0.020596405 1.3810121e-38 295 257
-0.029077278 0.69099998 -0.020596405 1.3719003e-38 296 257
-0.027825398 0.69 -0.020566599 1.3534256e-38 297 257
-0.026538454 0.68800002 -0.020506985 1.3533539e-38 298 257
-0.02533216 0.68800002 -0.020506985 1.3533539e-38 299 257
-0.024125867 0.68800002 -0.020506985 1.3533539e-38 300 257
-0.022852944 0.68599999 -0.020447372 1.3441345e-38 301 257
-0.021650158 0.68599999 -0.020447372 1.3257675e-38 302 257
-0.020447372 0.68599999 -0.020447372 1.3165479e-38 303 257
-0.01918848 0.68400002 -0.020387759 1.2521922e-38 304 257
-0.0179892 0.68400002 -0.020387759 1.2429725e-38 305 257
-0.016789921 0.68400002 -0.020387759 1.2244259e-38 306 257
-0.01559064 0.68400002 -0.020387759 1.2152063e-38 307 257
-0.01439136 0.68400002 -0.020387759 1.2426858e-38 308 257
-0.01319208 0.68400002 -0.020387759 1.2426858e-38 309 257
-0.011975267 0.68300003 -0.020357953 1.2335388e-38 310 257
-0.010761959 0.68199998 -0.020328145 1.2335388e-38 311 257
-0.009566186 0.68199998 -0.020328145 1.2335744e-38 312 257
-0.0083704125 0.68199998 -0.020328145 1.2335744e-38 313 257
-0.00717464 0.68199998 -0.020328145 1.2519404e-38 314 257
-0.005978866 0.68199998 -0.020328145 1.2335014e-38 315 257
-0.004783093 0.68199998 -0.020328145 1.2150984e-38 316 257
-0.00358732 0.68199998 -0.020328145 1.2150984e-38 317 257
-0.0023915465 0.68199998 -0.020328145 1.2425414e-38 318 257
-0.0011975267 0.68300003 -0.020357953 1.2241026e-38 319 257
0 0.68300003 -0.020357953 1.2058431e-38 320 257
0.0011975267 0.68300003 -0.020357953 1.1966237e-38 321 257
0.0023950534 0.68300003 -0.020357953 1.2057355e-38 322 257
0.0035925799 0.68300003 -0.020357953 1.1873325e-38 323 257
0.0047971201 0.68400002 -0.020387759 1.1871533e-38 324 257
0.0059964 0.68400002 -0.020387759 1.1595308e-38 325 257
0.0071956799 0.68400002 -0.020387759 1.1502406e-38 326 257
0.0083949603 0.68400002 -0.020387759 1.141021e-38 327 257
0.0095942402 0.68400002 -0.020387759 1.1226908e-38 328 257
0.010825079 0.68599999 -0.020447372 1.1226908e-38 329 257
0.012027865 0.68599999 -0.020447372 1.1319103e-38 330 257
0.013230653 0.68599999 -0.020447372 1.1226908e-38 331 257
0.014454478 0.68699998 -0.020477179 1.0859567e-38 332 257
0.015659019 0.68699998 -0.020477179 1.058334e-38 333 257
0.01686356 0.68699998 -0.020477179 1.0123452e-38 334 257
0.0180944 0.68800002 -0.020506985 1.0215649e-38 335 257
0.019356798 0.69 -0.020566599 1.0032347e-38 336 257
0.020596405 0.69099998 -0.020596405 1.0124901e-38 337 257
0.021807959 0.69099998 -0.020596405 1.0125264e-38 338 257
0.02308614 0.69300002 -0.020656019 1.0310014e-38 339 257
