# .PCD v.7 - Point Cloud Data file format
FIELDS x y z rgb imX imY
SIZE 4 4 4 4 4 4
TYPE F F F F F F
COUNT 1 1 1 1 1 1
WIDTH 828
HEIGHT 1
VIEWPOINT 0 0 0 1 0 0 0
POINTS 828
DATA ascii
-0.009566186 0.68199998 -0.004783093 1.3434938e-38 312 244
-0.0083458666 0.68000001 -0.0047690663 1.463348e-38 313 244
-0.0071535995 0.68000001 -0.0047690663 1.482252e-38 314 244
-0.0059613334 0.68000001 -0.0047690663 1.4453739e-38 315 244
-0.004783093 0.68199998 -0.004783093 1.4913619e-38 316 244
-0.00358732 0.68199998 -0.004783093 1.4821423e-38 317 244
-0.0023915465 0.68199998 -0.004783093 1.4636306e-38 318 244
-0.0011957732 0.68199998 -0.004783093 1.4175688e-38 319 244
0 0.68199998 -0.004783093 1.4541227e-38 320 244
0.0011975267 0.68300003 -0.0047901068 1.408025e-38 321 244
0.0023950534 0.68300003 -0.0047901068 1.42632e-38 322 244
0.00359784 0.68400002 -0.0047971201 1.42632e-38 323 244
0.0047971201 0.68400002 -0.0047971201 1.3712546e-38 324 244
0.0060139326 0.68599999 -0.0048111463 1.3712546e-38 325 244
0.0072167199 0.68599999 -0.0048111463 1.3713264e-38 326 244
0.0084195063 0.68599999 -0.0048111463 1.3620711e-38 327 244
0.0096363192 0.68699998 -0.0048181596 1.3713981e-38 328 244
0.010840859 0.68699998 -0.0048181596 1.3898728e-38 329 244
0.012045399 0.68699998 -0.0048181596 1.4083841e-38 330 244
0.013249939 0.68699998 -0.0048181596 1.4268234e-38 331 244
0.014475521 0.68800002 -0.0048251734 1.4086009e-38 332 244
0.015727401 0.69 -0.0048391996 1.42704e-38 333 244
0.016961746 0.69099998 -0.0048462129 1.3994183e-38 334 244
0.0181733 0.69099998 -0.0048462129 1.3994183e-38 335 244
0.019384852 0.69099998 -0.0048462129 1.3902344e-38 336 244
0.020596405 0.69099998 -0.0048462129 1.2611605e-38 337 244
-0.041610107 0.69800001 -0.006119133 1.2052725e-38 286 245
-0.040328421 0.69700003 -0.0061103669 1.426542e-38 287 245
-0.039050236 0.69599998 -0.0061015999 1.3624342e-38 288 245
-0.037721213 0.69400001 -0.0060840664 1.3624342e-38 289 245
-0.036504399 0.69400001 -0.0060840664 1.3717246e-38 290 245
-0.035236739 0.69300002 -0.0060753003 1.3809442e-38 291 245
-0.034021679 0.69300002 -0.0060753003 1.3991682e-38 292 245
-0.03280662 0.69300002 -0.0060753003 1.3991682e-38 293 245
-0.031500384 0.69099998 -0.0060577663 1.3716174e-38 294 245
-0.030244999 0.69 -0.0060489997 1.3623979e-38 295 245
-0.029035198 0.69 -0.0060489997 1.3531776e-38 296 245
-0.027744746 0.68800002 -0.0060314666 1.3347385e-38 297 245
-0.026538454 0.68800002 -0.0060314666 1.3529628e-38 298 245
-0.02533216 0.68800002 -0.0060314666 1.3345597e-38 299 245
-0.024090799 0.68699998 -0.0060226996 1.3345965e-38 300 245
-0.022886258 0.68699998 -0.0060226996 1.3345965e-38 301 245
-0.021681719 0.68699998 -0.0060226996 1.2978622e-38 302 245
-0.020477179 0.68699998 -0.0060226996 1.2794591e-38 303 245
-0.01918848 0.68400002 -0.0059964 1.2975751e-38 304 245
-0.017962901 0.68300003 -0.0059876335 1.2883555e-38 305 245
-0.016765373 0.68300003 -0.0059876335 1.2883207e-38 306 245
-0.015567848 0.68300003 -0.0059876335 1.2698818e-38 307 245
-0.01434928 0.68199998 -0.005978866 1.2698818e-38 308 245
-0.013153506 0.68199998 -0.005978866 1.2883207e-38 309 245
-0.011922667 0.68000001 -0.0059613334 1.2792807e-38 310 245
-0.0107304 0.68000001 -0.0059613334 1.2885004e-38 311 245
-0.0095381327 0.68000001 -0.0059613334 1.3162312e-38 312 245
-0.0083458666 0.68000001 -0.0059613334 1.3807682e-38 313 245
-0.0071535995 0.68000001 -0.0059613334 1.3718711e-38 314 245
-0.0059613334 0.68000001 -0.0059613334 1.3903102e-38 315 245
-0.0047690663 0.68000001 -0.0059613334 1.4454808e-38 316 245
-0.0035767998 0.68000001 -0.0059613334 1.4270417e-38 317 245
-0.0023845332 0.68000001 -0.0059613334 1.4358277e-38 318 245
-0.0011922666 0.68000001 -0.0059613334 1.3805105e-38 319 245
0 0.68000001 -0.0059613334 1.4171365e-38 320 245
0.0011957732 0.68199998 -0.005978866 1.4079171e-38 321 245
0.0023915465 0.68199998 -0.005978866 1.3986977e-38 322 245
0.00358732 0.68199998 -0.005978866 1.3986977e-38 323 245
0.0047901068 0.68300003 -0.0059876335 1.3620352e-38 324 245
0.0059964 0.68400002 -0.0059964 1.3620352e-38 325 245
0.0071956799 0.68400002 -0.0059964 1.3437398e-38 326 245
0.0084195063 0.68599999 -0.0060139326 1.3345204e-38 327 245
0.0096222926 0.68599999 -0.0060139326 1.3713981e-38 328 245
0.010825079 0.68599999 -0.0060139326 1.3898372e-38 329 245
0.012045399 0.68699998 -0.0060226996 1.3808343e-38 330 245
0.013249939 0.68699998 -0.0060226996 1.3992736e-38 331 245
0.014454478 0.68699998 -0.0060226996 1.3902709e-38 332 245
0.015727401 0.69 -0.0060489997 1.4087102e-38 333 245
0.0169372 0.69 -0.0060489997 1.3811957e-38 334 245
0.0181733 0.69099998 -0.0060577663 1.3535729e-38 335 245
0.019384852 0.69099998 -0.0060577663 1.3810158e-38 336 245
0.020596405 0.69099998 -0.0060577663 1.2796366e-38 337 245
0.021807959 0.69099998 -0.0060577663 1.2058138e-38 338 245
-0.041490879 0.69599998 -0.0073219193 1.3344166e-38 286 246
-0.040154841 0.69400001 -0.0073008798 1.3989535e-38 287 246
-0.038938027 0.69400001 -0.0073008798 1.3623625e-38 288 246
-0.037666857 0.69300002 -0.0072903596 1.3623625e-38 289 246
-0.036451802 0.69300002 -0.0072903596 1.3624695e-38 290 246
-0.035135046 0.69099998 -0.0072693196 1.371689e-38 291 246
-0.033923492 0.69099998 -0.0072693196 1.3992035e-38 292 246
-0.032664597 0.69 -0.0072587994 1.3807644e-38 293 246
-0.031454802 0.69 -0.0072587994 1.3807291e-38 294 246
-0.030244999 0.69 -0.0072587994 1.3531063e-38 295 246
-0.028951041 0.68800002 -0.0072377604 1.3621107e-38 296 246
-0.027744746 0.68800002 -0.0072377604 1.334416e-38 297 246
-0.026538454 0.68800002 -0.0072377604 1.3435643e-38 298 246
-0.025295338 0.68699998 -0.0072272392 1.3343447e-38 299 246
-0.024055731 0.68599999 -0.0072167199 1.2977903e-38 300 246
-0.022786319 0.68400002 -0.0071956799 1.3070099e-38 301 246
-0.02158704 0.68400002 -0.0071956799 1.2978978e-38 302 246
-0.020387759 0.68400002 -0.0071956799 1.2610195e-38 303 246
-0.019160427 0.68300003 -0.0071851597 1.2699521e-38 304 246
-0.017936599 0.68199998 -0.00717464 1.2607325e-38 305 246
-0.016740825 0.68199998 -0.00717464 1.279064e-38 306 246
-0.015499466 0.68000001 -0.0071535995 1.279064e-38 307 246
-0.014307199 0.68000001 -0.0071535995 1.2699877e-38 308 246
-0.013114933 0.68000001 -0.0071535995 1.2976104e-38 309 246
-0.011905133 0.67900002 -0.0071430802 1.2978256e-38 310 246
-0.010714619 0.67900002 -0.0071430802 1.2978256e-38 311 246
-0.009524107 0.67900002 -0.0071430802 1.334381e-38 312 246
-0.0083335936 0.67900002 -0.0071430802 1.3989179e-38 313 246
-0.0071430802 0.67900002 -0.0071430802 1.3805864e-38 314 246
-0.0059525664 0.67900002 -0.0071430802 1.4266842e-38 315 246
-0.0047690663 0.68000001 -0.0071535995 1.4452646e-38 316 246
-0.0035767998 0.68000001 -0.0071535995 1.3991669e-38 317 246
-0.0023845332 0.68000001 -0.0071535995 1.3896226e-38 318 246
-0.0011922666 0.68000001 -0.0071535995 1.3527445e-38 319 246
0 0.68000001 -0.0071535995 1.3985542e-38 320 246
0.0011957732 0.68199998 -0.00717464 1.3985542e-38 321 246
0.0023915465 0.68199998 -0.00717464 1.3894424e-38 322 246
0.00358732 0.68199998 -0.00717464 1.3894424e-38 323 246
0.0047901068 0.68300003 -0.0071851597 1.3435964e-38 324 246
0.0059876335 0.68300003 -0.0071851597 1.3435964e-38 325 246
0.0071851597 0.68300003 -0.0071851597 1.3435605e-38 326 246
0.0083949603 0.68400002 -0.0071956799 1.3527799e-38 327 246
0.0096222926 0.68599999 -0.0072167199 1.3529951e-38 328 246
0.010825079 0.68599999 -0.0072167199 1.3806177e-38 329 246
0.012027865 0.68599999 -0.0072167199 1.380798e-38 330 246
0.013249939 0.68699998 -0.0072272392 1.4176404e-38 331 246
0.014454478 0.68699998 -0.0072272392 1.3901635e-38 332 246
0.015681813 0.68800002 -0.0072377604 1.4362613e-38 333 246
0.0169372 0.69 -0.0072587994 1.3811254e-38 334 246
0.0181733 0.69099998 -0.0072693196 1.3719058e-38 335 246
0.019384852 0.69099998 -0.0072693196 1.3626142e-38 336 246
0.020596405 0.69099998 -0.0072693196 1.3165165e-38 337 246
0.021871079 0.69300002 -0.0072903596 1.2977215e-38 338 246
0.023186078 0.69599998 -0.0073219193 1.5650888e-38 339 246
-0.043931518 0.69599998 -0.0085422397 1.0954665e-38 284 247
-0.042711195 0.69599998 -0.0085422397 1.0769915e-38 285 247
-0.041371655 0.69400001 -0.0085176928 1.3163356e-38 286 247
-0.040154841 0.69400001 -0.0085176928 1.3439583e-38 287 247
-0.03888192 0.69300002 -0.0085054198 1.3256637e-38 288 247
-0.03755815 0.69099998 -0.008480873 1.3348834e-38 289 247
-0.036346599 0.69099998 -0.008480873 1.3624697e-38 290 247
-0.035084199 0.69 -0.0084686 1.3624697e-38 291 247
-0.0338744 0.69 -0.0084686 1.3531428e-38 292 247
-0.032664597 0.69 -0.0084686 1.3531428e-38 293 247
-0.031363625 0.68800002 -0.0084440531 1.31623e-38 294 247
-0.030157333 0.68800002 -0.0084440531 1.2885353e-38 295 247
-0.028951041 0.68800002 -0.0084440531 1.2976481e-38 296 247
-0.027704418 0.68699998 -0.0084317802 1.2792088e-38 297 247
-0.026499879 0.68699998 -0.0084317802 1.2792804e-38 298 247
-0.025295338 0.68699998 -0.0084317802 1.288536e-38 299 247
-0.0239856 0.68400002 -0.0083949603 1.2794593e-38 300 247
-0.022753006 0.68300003 -0.0083826864 1.2978625e-38 301 247
-0.02155548 0.68300003 -0.0083826864 1.2427605e-38 302 247
-0.020357953 0.68300003 -0.0083826864 1.2242855e-38 303 247
-0.019132372 0.68199998 -0.0083704125 1.2424729e-38 304 247
-0.017936599 0.68199998 -0.0083704125 1.2332534e-38 305 247
-0.016691733 0.68000001 -0.0083458666 1.1965196e-38 306 247
-0.015499466 0.68000001 -0.0083458666 1.1965196e-38 307 247
-0.01428616 0.67900002 -0.0083335936 1.2148868e-38 308 247
-0.013095647 0.67900002 -0.0083335936 1.2517649e-38 309 247
-0.011887599 0.67799997 -0.0083213197 1.2977553e-38 310 247
-0.010698839 0.67799997 -0.0083213197 1.2700964e-38 311 247
-0.0095100794 0.67799997 -0.0083213197 1.2515498e-38 312 247
-0.0083213197 0.67799997 -0.0083213197 1.2515498e-38 313 247
-0.0071325595 0.67799997 -0.0083213197 1.3252342e-38 314 247
-0.0059437994 0.67799997 -0.0083213197 1.4174297e-38 315 247
-0.0047620535 0.67900002 -0.0083335936 1.3990981e-38 316 247
-0.0035715401 0.67900002 -0.0083335936 1.3253416e-38 317 247
-0.0023810267 0.67900002 -0.0083335936 1.3526391e-38 318 247
-0.0011905134 0.67900002 -0.0083335936 1.3526391e-38 319 247
0 0.67900002 -0.0083335936 1.3618561e-38 320 247
0.0011922666 0.68000001 -0.0083458666 1.3618561e-38 321 247
0.0023915465 0.68199998 -0.0083704125 1.3343411e-38 322 247
0.00358732 0.68199998 -0.0083704125 1.3435964e-38 323 247
0.004783093 0.68199998 -0.0083704125 1.316046e-38 324 247
0.005978866 0.68199998 -0.0083704125 1.316046e-38 325 247
0.0071851597 0.68300003 -0.0083826864 1.3251586e-38 326 247
0.0083826864 0.68300003 -0.0083826864 1.3527813e-38 327 247
0.0095942402 0.68400002 -0.0083949603 1.3346297e-38 328 247
0.01079352 0.68400002 -0.0083949603 1.3622883e-38 329 247
0.0119928 0.68400002 -0.0083949603 1.3624329e-38 330 247
0.013230653 0.68599999 -0.0084195063 1.380872e-38 331 247
0.014454478 0.68699998 -0.0084317802 1.3718338e-38 332 247
0.015681813 0.68800002 -0.0084440531 1.3903089e-38 333 247
0.0169372 0.69 -0.0084686 1.3627588e-38 334 247
0.0181733 0.69099998 -0.008480873 1.3443196e-38 335 247
0.019384852 0.69099998 -0.008480873 1.3625792e-38 336 247
0.020596405 0.69099998 -0.008480873 1.3625792e-38 337 247
0.021871079 0.69300002 -0.0085054198 1.3164112e-38 338 247
0.023119451 0.69400001 -0.0085176928 1.2979719e-38 339 247
0.024336265 0.69400001 -0.0085176928 1.3733168e-38 340 247
-0.045281585 0.69800001 -0.0097906133 1.0511727e-38 283 248
-0.043931518 0.69599998 -0.0097625591 1.1504589e-38 284 248
-0.042711195 0.69599998 -0.0097625591 1.2149958e-38 285 248
-0.041371655 0.69400001 -0.0097345067 1.3254117e-38 286 248
-0.04009698 0.69300002 -0.0097204801 1.3438508e-38 287 248
-0.038769703 0.69099998 -0.0096924258 1.3623979e-38 288 248
-0.03755815 0.69099998 -0.0096924258 1.3439227e-38 289 248
-0.036346599 0.69099998 -0.0096924258 1.353106e-38 290 248
-0.035084199 0.69 -0.0096783992 1.353106e-38 291 248
-0.033776212 0.68800002 -0.0096503468 1.3345244e-38 292 248
-0.032569919 0.68800002 -0.0096503468 1.3253048e-38 293 248
-0.031363625 0.68800002 -0.0096503468 1.288464e-38 294 248
-0.030157333 0.68800002 -0.0096503468 1.2792085e-38 295 248
-0.028908957 0.68699998 -0.0096363192 1.2883205e-38 296 248
-0.027704418 0.68699998 -0.0096363192 1.2699173e-38 297 248
-0.026499879 0.68699998 -0.0096363192 1.2424745e-38 298 248
-0.025295338 0.68699998 -0.0096363192 1.2517299e-38 299 248
-0.0239856 0.68400002 -0.0095942402 1.2335423e-38 300 248
-0.022753006 0.68300003 -0.0095802136 1.2427619e-38 301 248
-0.02155548 0.68300003 -0.0095802136 1.233542e-38 302 248
-0.020357953 0.68300003 -0.0095802136 1.2059192e-38 303 248
-0.019076265 0.68000001 -0.0095381327 1.214959e-38 304 248
-0.017883999 0.68000001 -0.0095381327 1.1965199e-38 305 248
-0.016667187 0.67900002 -0.009524107 1.1964122e-38 306 248
-0.015453878 0.67799997 -0.0095100794 1.1687535e-38 307 248
-0.014265119 0.67799997 -0.0095100794 1.2329665e-38 308 248
-0.013076359 0.67799997 -0.0095100794 1.2329665e-38 309 248
-0.011887599 0.67799997 -0.0095100794 1.2698445e-38 310 248
-0.01066728 0.676 -0.0094820261 1.2606248e-38 311 248
-0.0094820261 0.676 -0.0094820261 1.2603375e-38 312 248
-0.0082967728 0.676 -0.0094820261 1.2142756e-38 313 248
-0.0071115191 0.676 -0.0094820261 1.2423303e-38 314 248
-0.0059262668 0.676 -0.0094820261 1.3160868e-38 315 248
-0.0047550397 0.67799997 -0.0095100794 1.3433489e-38 316 248
-0.0035662798 0.67799997 -0.0095100794 1.3065065e-38 317 248
-0.0023775198 0.67799997 -0.0095100794 1.3524226e-38 318 248
-0.0011887599 0.67799997 -0.0095100794 1.389265e-38 319 248
0 0.67799997 -0.0095100794 1.3527799e-38 320 248
0.0011905134 0.67900002 -0.009524107 1.3250858e-38 321 248
0.0023915465 0.68199998 -0.009566186 1.3251575e-38 322 248
0.00358732 0.68199998 -0.009566186 1.3067187e-38 323 248
0.004783093 0.68199998 -0.009566186 1.3250858e-38 324 248
0.005978866 0.68199998 -0.009566186 1.3343052e-38 325 248
0.00717464 0.68199998 -0.009566186 1.3251584e-38 326 248
0.0083704125 0.68199998 -0.009566186 1.3251584e-38 327 248
0.0095802136 0.68300003 -0.0095802136 1.3345573e-38 328 248
0.01077774 0.68300003 -0.0095802136 1.3529965e-38 329 248
0.011975267 0.68300003 -0.0095802136 1.3714725e-38 330 248
0.01319208 0.68400002 -0.0095942402 1.3991672e-38 331 248
0.014475521 0.68800002 -0.0096503468 1.3809457e-38 332 248
0.015681813 0.68800002 -0.0096503468 1.4086046e-38 333 248
0.0169372 0.69 -0.0096783992 1.3627588e-38 334 248
0.0181733 0.69099998 -0.0096924258 1.3535393e-38 335 248
0.019384852 0.69099998 -0.0096924258 1.3442827e-38 336 248
0.020596405 0.69099998 -0.0096924258 1.3350631e-38 337 248
0.021871079 0.69300002 -0.0097204801 1.35343e-38 338 248
0.023119451 0.69400001 -0.0097345067 1.1321606e-38 339 248
0.024336265 0.69400001 -0.0097345067 1.2438809e-38 340 248
-0.046638668 0.69999999 -0.011045999 1.2723328e-38 282 249
-0.045281585 0.69800001 -0.01101444 9.1276995e-39 283 249
-0.043994639 0.69700003 -0.01099866 1.1965199e-38 284 249
-0.042711195 0.69599998 -0.010982879 1.2610568e-38 285 249
-0.041371655 0.69400001 -0.01095132 1.2977903e-38 286 249
-0.04009698 0.69300002 -0.010935539 1.279351e-38 287 249
-0.038769703 0.69099998 -0.01090398 1.2517649e-38 288 249
-0.03755815 0.69099998 -0.01090398 1.2702041e-38 289 249
-0.036293998 0.69 -0.010888199 1.2977906e-38 290 249
-0.03498251 0.68800002 -0.010856641 1.2977906e-38 291 249
-0.033776212 0.68800002 -0.010856641 1.2609492e-38 292 249
-0.032569919 0.68800002 -0.010856641 1.2517296e-38 293 249
-0.031363625 0.68800002 -0.010856641 1.2241435e-38 294 249
-0.030113498 0.68699998 -0.010840859 1.2149239e-38 295 249
-0.02886688 0.68599999 -0.010825079 1.2148521e-38 296 249
-0.027664091 0.68599999 -0.010825079 1.2148521e-38 297 249
-0.026461305 0.68599999 -0.010825079 1.1781543e-38 298 249
-0.025184879 0.68400002 -0.01079352 1.1781543e-38 299 249
-0.0239856 0.68400002 -0.01079352 1.1782981e-38 300 249
-0.022753006 0.68300003 -0.01077774 1.2059207e-38 301 249
-0.02155548 0.68300003 -0.01077774 1.2059555e-38 302 249
-0.020328145 0.68199998 -0.010761959 1.1783328e-38 303 249
-0.019076265 0.68000001 -0.0107304 1.1964843e-38 304 249
-0.017883999 0.68000001 -0.0107304 1.1596419e-38 305 249
-0.016667187 0.67900002 -0.010714619 1.1870132e-38 306 249
-0.015453878 0.67799997 -0.010698839 1.1777577e-38 307 249
-0.014265119 0.67799997 -0.010698839 1.1593548e-38 308 249
-0.013076359 0.67799997 -0.010698839 1.1501352e-38 309 249
-0.011852534 0.676 -0.01066728 1.1960172e-38 310 249
-0.01066728 0.676 -0.01066728 1.1960172e-38 311 249
-0.0094820261 0.676 -0.01066728 1.177758e-38 312 249
-0.0082967728 0.676 -0.01066728 1.1961971e-38 313 249
-0.0071115191 0.676 -0.01066728 1.2236395e-38 314 249
-0.0059262668 0.676 -0.01066728 1.251298e-38 315 249
-0.0047410131 0.676 -0.01066728 1.2880671e-38 316 249
-0.0035557596 0.676 -0.01066728 1.3065062e-38 317 249
-0.0023775198 0.67799997 -0.010698839 1.3159756e-38 318 249
-0.0011887599 0.67799997 -0.010698839 1.3251952e-38 319 249
0 0.67799997 -0.010698839 1.3251216e-38 320 249
0.0011887599 0.67799997 -0.010698839 1.2974992e-38 321 249
0.0023845332 0.68000001 -0.0107304 1.3158305e-38 322 249
0.0035767998 0.68000001 -0.0107304 1.3250499e-38 323 249
0.0047690663 0.68000001 -0.0107304 1.32505e-38 324 249
0.0059613334 0.68000001 -0.0107304 1.32505e-38 325 249
0.00717464 0.68199998 -0.010761959 1.3251586e-38 326 249
0.0083704125 0.68199998 -0.010761959 1.3435617e-38 327 249
0.009566186 0.68199998 -0.010761959 1.334522e-38 328 249
0.010761959 0.68199998 -0.010761959 1.3529612e-38 329 249
0.011957732 0.68199998 -0.010761959 1.3255918e-38 330 249
0.013172794 0.68300003 -0.01077774 1.3716896e-38 331 249
0.014454478 0.68699998 -0.010840859 1.344248e-38 332 249
0.015659019 0.68699998 -0.010840859 1.3718708e-38 333 249
0.016888106 0.68800002 -0.010856641 1.3535393e-38 334 249
0.0180944 0.68800002 -0.010856641 1.3443196e-38 335 249
0.019356798 0.69 -0.010888199 1.3626498e-38 336 249
0.020596405 0.69099998 -0.01090398 1.3441748e-38 337 249
0.021871079 0.69300002 -0.010935539 1.3259139e-38 338 249
0.02308614 0.69300002 -0.010935539 1.1323031e-38 339 249
0.024301201 0.69300002 -0.010935539 1.2247569e-38 340 249
-0.047865998 0.69999999 -0.012273333 1.5950936e-38 281 250
-0.046638668 0.69999999 -0.012273333 1.0966203e-38 282 250
-0.045216713 0.69700003 -0.012220734 9.0300948e-39 283 250
-0.043931518 0.69599998 -0.0122032 1.2517997e-38 284 250
-0.042711195 0.69599998 -0.0122032 1.2610551e-38 285 250
-0.041371655 0.69400001 -0.012168133 1.2884261e-38 286 250
-0.04009698 0.69300002 -0.012150601 1.2515479e-38 287 250
-0.038769703 0.69099998 -0.012115533 1.1964122e-38 288 250
-0.037503798 0.69 -0.012097999 1.2148874e-38 289 250
-0.0361888 0.68800002 -0.012062933 1.2516577e-38 290 250
-0.03498251 0.68800002 -0.012062933 1.2516577e-38 291 250
-0.033727121 0.68699998 -0.012045399 1.2332549e-38 292 250
-0.032522578 0.68699998 -0.012045399 1.2056322e-38 293 250
-0.031318039 0.68699998 -0.012045399 1.1964489e-38 294 250
-0.030113498 0.68699998 -0.012045399 1.1872292e-38 295 250
-0.02886688 0.68599999 -0.012027865 1.1689333e-38 296 250
-0.027664091 0.68599999 -0.012027865 1.1689333e-38 297 250
-0.02638416 0.68400002 -0.0119928 1.1505312e-38 298 250
-0.025184879 0.68400002 -0.0119928 1.1320921e-38 299 250
-0.023950534 0.68300003 -0.011975267 1.1688994e-38 300 250
-0.022719691 0.68199998 -0.011957732 1.1781549e-38 301 250
-0.021523919 0.68199998 -0.011957732 1.1599305e-38 302 250
-0.020328145 0.68199998 -0.011957732 1.132272e-38 303 250
-0.019048214 0.67900002 -0.011905133 1.1687182e-38 304 250
-0.017857701 0.67900002 -0.011905133 1.1410956e-38 305 250
-0.016667187 0.67900002 -0.011905133 1.1684661e-38 306 250
-0.015453878 0.67799997 -0.011887599 1.1684661e-38 307 250
-0.014265119 0.67799997 -0.011887599 1.1316239e-38 308 250
-0.013037786 0.676 -0.011852534 1.1224043e-38 309 250
-0.011852534 0.676 -0.011852534 1.0948545e-38 310 250
-0.01066728 0.676 -0.011852534 1.0948545e-38 311 250
-0.0094820261 0.676 -0.011852534 1.1134009e-38 312 250
-0.0082967728 0.676 -0.011852534 1.13184e-38 313 250
-0.0071115191 0.676 -0.011852534 1.1501699e-38 314 250
-0.0059262668 0.676 -0.011852534 1.1593895e-38 315 250
-0.0047410131 0.676 -0.011852534 1.2328569e-38 316 250
-0.0035557596 0.676 -0.011852534 1.2973939e-38 317 250
-0.0023705065 0.676 -0.011852534 1.3067558e-38 318 250
-0.0011852533 0.676 -0.011852534 1.3067558e-38 319 250
0 0.676 -0.011852534 1.2975351e-38 320 250
0.0011887599 0.67799997 -0.011887599 1.2790604e-38 321 250
0.0023845332 0.68000001 -0.011922667 1.3065752e-38 322 250
0.0035767998 0.68000001 -0.011922667 1.325014e-38 323 250
0.0047690663 0.68000001 -0.011922667 1.2974639e-38 324 250
0.0059613334 0.68000001 -0.011922667 1.3066836e-38 325 250
0.00717464 0.68199998 -0.011957732 1.3159754e-38 326 250
0.0083704125 0.68199998 -0.011957732 1.3251949e-38 327 250
0.009566186 0.68199998 -0.011957732 1.3252668e-38 328 250
0.010761959 0.68199998 -0.011957732 1.343742e-38 329 250
0.011957732 0.68199998 -0.011957732 1.3163366e-38 330 250
0.013172794 0.68300003 -0.011975267 1.3624344e-38 331 250
0.01443344 0.68599999 -0.012027865 1.3349931e-38 332 250
0.015659019 0.68699998 -0.012045399 1.3718355e-38 333 250
0.01686356 0.68699998 -0.012045399 1.3442843e-38 334 250
0.0180944 0.68800002 -0.012062933 1.3350647e-38 335 250
0.019300694 0.68800002 -0.012062933 1.3533947e-38 336 250
0.020566599 0.69 -0.012097999 1.325772e-38 337 250
0.021807959 0.69099998 -0.012115533 1.3348817e-38 338 250
0.02308614 0.69300002 -0.012150601 1.1965882e-38 339 250
0.024301201 0.69300002 -0.012150601 1.2243247e-38 340 250
-0.048953064 0.69800001 -0.013462093 1.7517898e-38 280 251
-0.047729239 0.69800001 -0.013462093 1.4382887e-38 281 251
-0.046505414 0.69800001 -0.013462093 1.049694e-38 282 251
-0.045151837 0.69599998 -0.013423519 1.0589136e-38 283 251
-0.043931518 0.69599998 -0.013423519 1.2794214e-38 284 251
-0.042588469 0.69400001 -0.013384946 1.2702018e-38 285 251
-0.041371655 0.69400001 -0.013384946 1.2883539e-38 286 251
-0.04009698 0.69300002 -0.01336566 1.2791344e-38 287 251
-0.038769703 0.69099998 -0.013327086 1.2056672e-38 288 251
-0.037503798 0.69 -0.0133078 1.2056672e-38 289 251
-0.0361888 0.68800002 -0.013269227 1.2148871e-38 290 251
-0.034931656 0.68699998 -0.013249939 1.2148871e-38 291 251
-0.033727121 0.68699998 -0.013249939 1.1964845e-38 292 251
-0.032522578 0.68699998 -0.013249939 1.1964845e-38 293 251
-0.031318039 0.68699998 -0.013249939 1.1505668e-38 294 251
-0.029982001 0.68400002 -0.01319208 1.1413472e-38 295 251
-0.02878272 0.68400002 -0.01319208 1.1413472e-38 296 251
-0.027583439 0.68400002 -0.01319208 1.1413472e-38 297 251
-0.026345588 0.68300003 -0.013172794 1.1413119e-38 298 251
-0.02514806 0.68300003 -0.013172794 1.1413119e-38 299 251
-0.023950534 0.68300003 -0.013172794 1.1413482e-38 300 251
-0.022719691 0.68199998 -0.013153506 1.1413482e-38 301 251
-0.0214608 0.68000001 -0.013114933 1.1596431e-38 302 251
-0.020268533 0.68000001 -0.013114933 1.1228009e-38 303 251
-0.019048214 0.67900002 -0.013095647 1.1501715e-38 304 251
-0.0178314 0.67799997 -0.013076359 1.1225488e-38 305 251
-0.016642639 0.67799997 -0.013076359 1.1408432e-38 306 251
-0.015453878 0.67799997 -0.013076359 1.1408432e-38 307 251
-0.014265119 0.67799997 -0.013076359 1.1224041e-38 308 251
-0.013037786 0.676 -0.013037786 1.1131844e-38 309 251
-0.011852534 0.676 -0.013037786 1.0856348e-38 310 251
-0.01066728 0.676 -0.013037786 1.0764153e-38 311 251
-0.0094679995 0.67500001 -0.0130185 1.0581201e-38 312 251
-0.0082844999 0.67500001 -0.0130185 1.0581201e-38 313 251
-0.0071010003 0.67500001 -0.0130185 1.094638e-38 314 251
-0.0059174998 0.67500001 -0.0130185 1.1314803e-38 315 251
-0.0047339997 0.67500001 -0.0130185 1.177721e-38 316 251
-0.0035505001 0.67500001 -0.0130185 1.2054157e-38 317 251
-0.0023705065 0.676 -0.013037786 1.278846e-38 318 251
-0.0011852533 0.676 -0.013037786 1.278846e-38 319 251
0 0.676 -0.013037786 1.2971764e-38 320 251
0.0011887599 0.67799997 -0.013076359 1.3155794e-38 321 251
0.0023810267 0.67900002 -0.013095647 1.2972841e-38 322 251
0.0035715401 0.67900002 -0.013095647 1.3157233e-38 323 251
0.0047690663 0.68000001 -0.013114933 1.2974286e-38 324 251
0.0059613334 0.68000001 -0.013114933 1.3066842e-38 325 251
0.0071535995 0.68000001 -0.013114933 1.3159754e-38 326 251
0.0083704125 0.68199998 -0.013153506 1.3159754e-38 327 251
0.009566186 0.68199998 -0.013153506 1.3069003e-38 328 251
0.010761959 0.68199998 -0.013153506 1.3161198e-38 329 251
0.011957732 0.68199998 -0.013153506 1.3162647e-38 330 251
0.013172794 0.68300003 -0.013172794 1.3531428e-38 331 251
0.01443344 0.68599999 -0.013230653 1.3440682e-38 332 251
0.015636226 0.68599999 -0.013230653 1.3809104e-38 333 251
0.01686356 0.68699998 -0.013249939 1.3442477e-38 334 251
0.0180944 0.68800002 -0.013269227 1.3350281e-38 335 251
0.019300694 0.68800002 -0.013269227 1.3533225e-38 336 251
0.020566599 0.69 -0.0133078 1.3348834e-38 337 251
0.021807959 0.69099998 -0.013327086 1.3257337e-38 338 251
0.02308614 0.69300002 -0.01336566 1.2058795e-38 339 251
0.024301201 0.69300002 -0.01336566 1.2151404e-38 340 251
-0.049093332 0.69999999 -0.014727999 1.6410469e-38 280 252
-0.047729239 0.69800001 -0.01468592 1.2630807e-38 281 252
-0.046438783 0.69700003 -0.01466488 1.0216391e-38 282 252
-0.045151837 0.69599998 -0.014643839 1.1322738e-38 283 252
-0.043931518 0.69599998 -0.014643839 1.2517997e-38 284 252
-0.042588469 0.69400001 -0.01460176 1.2333606e-38 285 252
-0.041312039 0.69300002 -0.014580719 1.2332534e-38 286 252
-0.04009698 0.69300002 -0.014580719 1.2240336e-38 287 252
-0.038769703 0.69099998 -0.014538639 1.1965196e-38 288 252
-0.037503798 0.69 -0.014517599 1.1965196e-38 289 252
-0.0361888 0.68800002 -0.014475521 1.1688977e-38 290 252
-0.034931656 0.68699998 -0.014454478 1.1688977e-38 291 252
-0.033727121 0.68699998 -0.014454478 1.1781177e-38 292 252
-0.032475237 0.68599999 -0.01443344 1.168898e-38 293 252
-0.03118128 0.68400002 -0.01439136 1.1688614e-38 294 252
-0.029938167 0.68300003 -0.014370319 1.1688614e-38 295 252
-0.028740639 0.68300003 -0.014370319 1.1688259e-38 296 252
-0.027583439 0.68400002 -0.01439136 1.1872648e-38 297 252
-0.026345588 0.68300003 -0.014370319 1.1506388e-38 298 252
-0.025111238 0.68199998 -0.01434928 1.1598584e-38 299 252
-0.023915464 0.68199998 -0.01434928 1.1506032e-38 300 252
-0.022719691 0.68199998 -0.01434928 1.132164e-38 301 252
-0.0214608 0.68000001 -0.014307199 1.1045063e-38 302 252
-0.020238725 0.67900002 -0.01428616 1.0768115e-38 303 252
-0.019020159 0.67799997 -0.014265119 1.1133658e-38 304 252
-0.0178314 0.67799997 -0.014265119 1.1041463e-38 305 252
-0.016642639 0.67799997 -0.014265119 1.1133646e-38 306 252
-0.015408293 0.676 -0.014223038 1.1041091e-38 307 252
-0.014223038 0.676 -0.014223038 1.0856699e-38 308 252
-0.013037786 0.676 -0.014223038 1.0764503e-38 309 252
-0.011835 0.67500001 -0.014202001 1.030533e-38 310 252
-0.0106515 0.67500001 -0.014202001 1.030533e-38 311 252
-0.0094679995 0.67500001 -0.014202001 1.0304977e-38 312 252
-0.0082844999 0.67500001 -0.014202001 1.0304977e-38 313 252
-0.0071010003 0.67500001 -0.014202001 1.0395021e-38 314 252
-0.0059174998 0.67500001 -0.014202001 1.0579412e-38 315 252
-0.0047339997 0.67500001 -0.014202001 1.0765602e-38 316 252
-0.0035505001 0.67500001 -0.014202001 1.0949993e-38 317 252
-0.0023669999 0.67500001 -0.014202001 1.1684664e-38 318 252
-0.0011852533 0.676 -0.014223038 1.177686e-38 319 252
0 0.676 -0.014223038 1.2328213e-38 320 252
0.0011852533 0.676 -0.014223038 1.2420769e-38 321 252
0.0023775198 0.67799997 -0.014265119 1.2605158e-38 322 252
0.0035715401 0.67900002 -0.01428616 1.2881743e-38 323 252
0.0047690663 0.68000001 -0.014307199 1.2790624e-38 324 252
0.0059613334 0.68000001 -0.014307199 1.3066852e-38 325 252
0.0071535995 0.68000001 -0.014307199 1.2976088e-38 326 252
0.0083458666 0.68000001 -0.014307199 1.3068284e-38 327 252
0.009566186 0.68199998 -0.01434928 1.2885337e-38 328 252
0.010761959 0.68199998 -0.01434928 1.2977533e-38 329 252
0.011957732 0.68199998 -0.01434928 1.2978269e-38 330 252
0.013172794 0.68300003 -0.014370319 1.3163019e-38 331 252
0.01443344 0.68599999 -0.01443344 1.3164465e-38 332 252
0.015636226 0.68599999 -0.01443344 1.3440692e-38 333 252
0.01686356 0.68699998 -0.014454478 1.3165537e-38 334 252
0.018068098 0.68699998 -0.014454478 1.3257732e-38 335 252
0.019300694 0.68800002 -0.014475521 1.325772e-38 336 252
0.020566599 0.69 -0.014517599 1.3165165e-38 337 252
0.021807959 0.69099998 -0.014538639 1.3074028e-38 338 252
0.02308614 0.69300002 -0.014580719 1.2336104e-38 339 252
0.024301201 0.69300002 -0.014580719 1.2244319e-38 340 252
0.02551626 0.69300002 -0.014580719 1.6761905e-38 341 252
-0.049093332 0.69999999 -0.015955333 1.4657663e-38 280 253
-0.047729239 0.69800001 -0.015909746 1.1246425e-38 281 253
-0.046438783 0.69700003 -0.015886955 1.0582655e-38 282 253
-0.045151837 0.69599998 -0.015864158 1.1688644e-38 283 253
-0.043931518 0.69599998 -0.015864158 1.2423649e-38 284 253
-0.042588469 0.69400001 -0.015818574 1.2147422e-38 285 253
-0.041312039 0.69300002 -0.015795778 1.2055226e-38 286 253
-0.04009698 0.69300002 -0.015795778 1.1963031e-38 287 253
-0.038769703 0.69099998 -0.015750192 1.1871558e-38 288 253
-0.037503798 0.69 -0.015727401 1.1779363e-38 289 253
-0.0361888 0.68800002 -0.015681813 1.1504936e-38 290 253
-0.034931656 0.68699998 -0.015659019 1.1504936e-38 291 253
-0.033678025 0.68599999 -0.015636226 1.1596413e-38 292 253
-0.032333218 0.68300003 -0.015567848 1.1965196e-38 293 253
-0.031135695 0.68300003 -0.015567848 1.1688968e-38 294 253
-0.029894331 0.68199998 -0.015545053 1.1872999e-38 295 253
-0.02869856 0.68199998 -0.015545053 1.1506018e-38 296 253
-0.027543113 0.68300003 -0.015567848 1.1690051e-38 297 253
-0.026229866 0.68000001 -0.015499466 1.1414188e-38 298 253
-0.025037598 0.68000001 -0.015499466 1.1506385e-38 299 253
-0.023845334 0.68000001 -0.015499466 1.0955015e-38 300 253
-0.022619752 0.67900002 -0.015476674 1.0770265e-38 301 253
-0.021429239 0.67900002 -0.015476674 1.0860668e-38 302 253
-0.020238725 0.67900002 -0.015476674 1.0491886e-38 303 253
-0.018964052 0.676 -0.015408293 1.076523e-38 304 253
-0.017778801 0.676 -0.015408293 1.076523e-38 305 253
-0.016593546 0.676 -0.015408293 1.1132208e-38 306 253
-0.015408293 0.676 -0.015408293 1.085598e-38 307 253
-0.014223038 0.676 -0.015408293 1.0855983e-38 308 253
-0.013037786 0.676 -0.015408293 1.0763428e-38 309 253
-0.011835 0.67500001 -0.0153855 1.021385e-38 310 253
-0.0106515 0.67500001 -0.0153855 1.0306046e-38 311 253
-0.0094679995 0.67500001 -0.0153855 1.0397523e-38 312 253
-0.0082844999 0.67500001 -0.0153855 1.0213131e-38 313 253
-0.0071010003 0.67500001 -0.0153855 1.0304245e-38 314 253
-0.0059174998 0.67500001 -0.0153855 1.0304245e-38 315 253
-0.0047339997 0.67500001 -0.0153855 1.0762339e-38 316 253
-0.0035505001 0.67500001 -0.0153855 1.1038926e-38 317 253
-0.0023669999 0.67500001 -0.0153855 1.1773598e-38 318 253
-0.0011834999 0.67500001 -0.0153855 1.214274e-38 319 253
0 0.676 -0.015408293 1.2143809e-38 320 253
0.0011852533 0.676 -0.015408293 1.2512586e-38 321 253
0.0023775198 0.67799997 -0.015453878 1.2421473e-38 322 253
0.0035662798 0.67799997 -0.015453878 1.2605864e-38 323 253
0.0047620535 0.67900002 -0.015476674 1.2789895e-38 324 253
0.0059525664 0.67900002 -0.015476674 1.2882091e-38 325 253
0.0071535995 0.68000001 -0.015499466 1.2884965e-38 326 253
0.0083458666 0.68000001 -0.015499466 1.2884965e-38 327 253
0.009566186 0.68199998 -0.015545053 1.2886412e-38 328 253
0.010761959 0.68199998 -0.015545053 1.2886412e-38 329 253
0.011957732 0.68199998 -0.015545053 1.2977183e-38 330 253
0.013153506 0.68199998 -0.015545053 1.325377e-38 331 253
0.01439136 0.68400002 -0.01559064 1.3070823e-38 332 253
0.015636226 0.68599999 -0.015636226 1.3439607e-38 333 253
0.01686356 0.68699998 -0.015659019 1.3256286e-38 334 253
0.018068098 0.68699998 -0.015659019 1.3256286e-38 335 253
0.019300694 0.68800002 -0.015681813 1.3531426e-38 336 253
0.020566599 0.69 -0.015727401 1.343923e-38 337 253
0.021776399 0.69 -0.015727401 1.3164075e-38 338 253
0.023019511 0.69099998 -0.015750192 1.2610901e-38 339 253
0.024301201 0.69300002 -0.015795778 1.2058489e-38 340 253
0.02551626 0.69300002 -0.015795778 1.5653759e-38 341 253
0.026847038 0.69599998 -0.015864158 1.5671808e-38 342 253
-0.050176892 0.69800001 -0.017133573 1.8162915e-38 279 254
-0.048953064 0.69800001 -0.017133573 1.2349893e-38 280 254
-0.047729239 0.69800001 -0.017133573 9.2156001e-39 281 254
-0.046438783 0.69700003 -0.017109027 9.8472522e-39 282 254
-0.045151837 0.69599998 -0.017084479 1.0584817e-38 283 254
-0.043931518 0.69599998 -0.017084479 1.1228725e-38 284 254
-0.042588469 0.69400001 -0.017035386 1.1044334e-38 285 254
-0.041312039 0.69300002 -0.01701084 1.1135808e-38 286 254
-0.039981257 0.69099998 -0.016961746 1.1135808e-38 287 254
-0.038769703 0.69099998 -0.016961746 1.1319473e-38 288 254
-0.037503798 0.69 -0.0169372 1.1411669e-38 289 254
-0.036136195 0.68699998 -0.01686356 1.1411669e-38 290 254
-0.03477912 0.68400002 -0.016789921 1.1504223e-38 291 254
-0.033530746 0.68300003 -0.016765373 1.1597138e-38 292 254
-0.032333218 0.68300003 -0.016765373 1.1689333e-38 293 254
-0.031135695 0.68300003 -0.016765373 1.1689331e-38 294 254
-0.029894331 0.68199998 -0.016740825 1.1597135e-38 295 254
-0.02869856 0.68199998 -0.016740825 1.1504586e-38 296 254
-0.027502786 0.68199998 -0.016740825 1.1504586e-38 297 254
-0.026229866 0.68000001 -0.016691733 1.1413116e-38 298 254
-0.025000781 0.67900002 -0.016667187 1.1320921e-38 299 254
-0.023810266 0.67900002 -0.016667187 1.1137608e-38 300 254
-0.022586439 0.67799997 -0.016642639 1.0860663e-38 301 254
-0.021397678 0.67799997 -0.016642639 1.067627e-38 302 254
-0.020208918 0.67799997 -0.016642639 1.0307848e-38 303 254
-0.018964052 0.676 -0.016593546 1.0397175e-38 304 254
-0.017778801 0.676 -0.016593546 1.0304621e-38 305 254
-0.016593546 0.676 -0.016593546 1.0487936e-38 306 254
-0.015408293 0.676 -0.016593546 1.039574e-38 307 254
-0.014223038 0.676 -0.016593546 1.039609e-38 308 254
-0.013037786 0.676 -0.016593546 1.0488286e-38 309 254
-0.011835 0.67500001 -0.016569 1.0030538e-38 310 254
-0.0106515 0.67500001 -0.016569 1.0122733e-38 311 254
-0.0094679995 0.67500001 -0.016569 1.030568e-38 312 254
-0.0082844999 0.67500001 -0.016569 1.0213484e-38 313 254
-0.0070904801 0.67400002 -0.016544454 1.0304598e-38 314 254
-0.0059087332 0.67400002 -0.016544454 1.0304598e-38 315 254
-0.0047339997 0.67500001 -0.016569 1.0579393e-38 316 254
-0.0035505001 0.67500001 -0.016569 1.0763784e-38 317 254
-0.0023669999 0.67500001 -0.016569 1.0948528e-38 318 254
-0.0011834999 0.67500001 -0.016569 1.1316952e-38 319 254
0 0.67500001 -0.016569 1.1777198e-38 320 254
0.0011852533 0.676 -0.016593546 1.1777198e-38 321 254
0.0023705065 0.676 -0.016593546 1.2053424e-38 322 254
0.0035662798 0.67799997 -0.016642639 1.2330371e-38 323 254
0.0047550397 0.67799997 -0.016642639 1.242292e-38 324 254
0.0059525664 0.67900002 -0.016667187 1.2699147e-38 325 254
0.0071535995 0.68000001 -0.016691733 1.2517634e-38 326 254
0.0083458666 0.68000001 -0.016691733 1.2701665e-38 327 254
0.009566186 0.68199998 -0.016740825 1.2793507e-38 328 254
0.010761959 0.68199998 -0.016740825 1.2793507e-38 329 254
0.011957732 0.68199998 -0.016740825 1.2702764e-38 330 254
0.013153506 0.68199998 -0.016740825 1.2794959e-38 331 254
0.014370319 0.68300003 -0.016765373 1.2795328e-38 332 254
0.015636226 0.68599999 -0.016839013 1.3071916e-38 333 254
0.01686356 0.68699998 -0.01686356 1.3255936e-38 334 254
0.018068098 0.68699998 -0.01686356 1.3255936e-38 335 254
0.019300694 0.68800002 -0.016888106 1.3255567e-38 336 254
0.020566599 0.69 -0.0169372 1.3070817e-38 337 254
0.021776399 0.69 -0.0169372 1.2980404e-38 338 254
0.023019511 0.69099998 -0.016961746 1.2796013e-38 339 254
0.024301201 0.69300002 -0.01701084 1.2059192e-38 340 254
0.02551626 0.69300002 -0.01701084 1.5009093e-38 341 254
0.026847038 0.69599998 -0.017084479 1.5855105e-38 342 254
0.028067358 0.69599998 -0.017084479 1.7975604e-38 343 254
-0.050176892 0.69800001 -0.0183574 1.7242753e-38 279 255
-0.048953064 0.69800001 -0.0183574 9.4896436e-39 280 255
-0.047660861 0.69700003 -0.018331099 7.4613398e-39 281 255
-0.046438783 0.69700003 -0.018331099 9.2015031e-39 282 255
-0.045151837 0.69599998 -0.018304799 9.7543181e-39 283 255
-0.043805279 0.69400001 -0.0182522 1.0858145e-38 284 255
-0.042588469 0.69400001 -0.0182522 1.0765949e-38 285 255
-0.041312039 0.69300002 -0.018225901 1.0858145e-38 286 255
-0.039981257 0.69099998 -0.0181733 1.0858145e-38 287 255
-0.038713597 0.69 -0.018146999 1.1226557e-38 288 255
-0.037395094 0.68800002 -0.0180944 1.1318753e-38 289 255
-0.036136195 0.68699998 -0.018068098 1.1411303e-38 290 255
-0.034728274 0.68300003 -0.017962901 1.168753e-38 291 255
-0.033530746 0.68300003 -0.017962901 1.1504936e-38 292 255
-0.032333218 0.68300003 -0.017962901 1.1597132e-38 293 255
-0.031090107 0.68199998 -0.017936599 1.1597138e-38 294 255
-0.029894331 0.68199998 -0.017936599 1.1228357e-38 295 255
-0.028614398 0.68000001 -0.017883999 1.1410602e-38 296 255
-0.027422134 0.68000001 -0.017883999 1.1318405e-38 297 255
-0.026229866 0.68000001 -0.017883999 1.1135457e-38 298 255
-0.025000781 0.67900002 -0.017857701 1.104326e-38 299 255
-0.023810266 0.67900002 -0.017857701 1.1043258e-38 300 255
-0.022586439 0.67799997 -0.0178314 1.0858866e-38 301 255
-0.021397678 0.67799997 -0.0178314 1.0490807e-38 302 255
-0.020208918 0.67799997 -0.0178314 1.0122383e-38 303 255
-0.018964052 0.676 -0.017778801 1.0303895e-38 304 255
-0.017778801 0.676 -0.017778801 9.8429166e-39 305 255
-0.016593546 0.676 -0.017778801 1.0210257e-38 306 255
-0.015408293 0.676 -0.017778801 1.0486844e-38 307 255
-0.014223038 0.676 -0.017778801 1.0120214e-38 308 255
-0.013037786 0.676 -0.017778801 1.0304245e-38 309 255
-0.011835 0.67500001 -0.0177525 1.0030532e-38 310 255
-0.0106515 0.67500001 -0.0177525 9.9383366e-39 311 255
-0.0094539737 0.67400002 -0.0177262 1.012058e-38 312 255
-0.0082722269 0.67400002 -0.0177262 1.012058e-38 313 255
-0.0070904801 0.67400002 -0.0177262 1.0213128e-38 314 255
-0.0059087332 0.67400002 -0.0177262 1.0213128e-38 315 255
-0.0047269869 0.67400002 -0.0177262 1.0488977e-38 316 255
-0.00354524 0.67400002 -0.0177262 1.0581171e-38 317 255
-0.0023669999 0.67500001 -0.0177525 1.1041066e-38 318 255
-0.0011834999 0.67500001 -0.0177525 1.1225454e-38 319 255
0 0.67500001 -0.0177525 1.1500961e-38 320 255
0.0011852533 0.676 -0.017778801 1.1500961e-38 321 255
0.0023705065 0.676 -0.017778801 1.1868664e-38 322 255
0.0035662798 0.67799997 -0.0178314 1.2145251e-38 323 255
0.0047550397 0.67799997 -0.0178314 1.2054855e-38 324 255
0.0059525664 0.67900002 -0.017857701 1.2423636e-38 325 255
0.0071535995 0.68000001 -0.017883999 1.2425082e-38 326 255
0.0083458666 0.68000001 -0.017883999 1.2425082e-38 327 255
0.0095381327 0.68000001 -0.017883999 1.2700962e-38 328 255
0.010761959 0.68199998 -0.017936599 1.2700962e-38 329 255
0.011957732 0.68199998 -0.017936599 1.279316e-38 330 255
0.013153506 0.68199998 -0.017936599 1.2885357e-38 331 255
0.014370319 0.68300003 -0.017962901 1.2794238e-38 332 255
0.015636226 0.68599999 -0.018041799 1.3163019e-38 333 255
0.01686356 0.68699998 -0.018068098 1.2980422e-38 334 255
0.018068098 0.68699998 -0.018068098 1.2980422e-38 335 255
0.019300694 0.68800002 -0.0180944 1.2980057e-38 336 255
0.020506985 0.68800002 -0.0180944 1.2887861e-38 337 255
0.021776399 0.69 -0.018146999 1.2888574e-38 338 255
0.023019511 0.69099998 -0.0181733 1.2888574e-38 339 255
0.024301201 0.69300002 -0.018225901 1.2244669e-38 340 255
0.02551626 0.69300002 -0.018225901 1.4642116e-38 341 255
0.026847038 0.69599998 -0.018304799 1.6037701e-38 342 255
0.028067358 0.69599998 -0.018304799 1.8342952e-38 343 255
-0.051400717 0.69800001 -0.019581227 1.8439497e-38 278 256
-0.050176892 0.69800001 -0.019581227 1.7056563e-38 279 256
-0.048882935 0.69700003 -0.019553173 8.8417547e-39 280 256
-0.047592476 0.69599998 -0.019525118 7.919797e-39 281 256
-0.046372157 0.69599998 -0.019525118 1.0306049e-38 282 256
-0.045022093 0.69400001 -0.019469013 1.0398244e-38 283 256
-0.043805279 0.69400001 -0.019469013 1.0398611e-38 284 256
-0.042527102 0.69300002 -0.01944096 1.0214579e-38 285 256
-0.041192811 0.69099998 -0.019384852 1.0398611e-38 286 256
-0.0399234 0.69 -0.019356798 1.0398611e-38 287 256
-0.038713597 0.69 -0.019356798 1.0766305e-38 288 256
-0.037395094 0.68800002 -0.019300694 1.0950696e-38 289 256
-0.035978399 0.68400002 -0.01918848 1.1502421e-38 290 256
-0.034728274 0.68300003 -0.019160427 1.1594618e-38 291 256
-0.033530746 0.68300003 -0.019160427 1.1412022e-38 292 256
-0.032285877 0.68199998 -0.019132372 1.1412022e-38 293 256
-0.031090107 0.68199998 -0.019132372 1.1411669e-38 294 256
-0.029806666 0.68000001 -0.019076265 1.1227276e-38 295 256
-0.028614398 0.68000001 -0.019076265 1.1225135e-38 296 256
-0.027422134 0.68000001 -0.019076265 1.1132939e-38 297 256
-0.026191294 0.67900002 -0.019048214 1.0949993e-38 298 256
-0.025000781 0.67900002 -0.019048214 1.0857797e-38 299 256
-0.023775198 0.67799997 -0.019020159 1.0674482e-38 300 256
-0.022586439 0.67799997 -0.019020159 1.0582287e-38 301 256
-0.021397678 0.67799997 -0.019020159 1.0580482e-38 302 256
-0.020208918 0.67799997 -0.019020159 1.0488286e-38 303 256
-0.018935999 0.67500001 -0.018935999 1.0303173e-38 304 256
-0.0177525 0.67500001 -0.018935999 1.011878e-38 305 256
-0.016593546 0.676 -0.018964052 9.7518e-39 306 256
-0.0153855 0.67500001 -0.018935999 9.7518e-39 307 256
-0.014202001 0.67500001 -0.018935999 9.7525188e-39 308 256
-0.0130185 0.67500001 -0.018935999 9.8447159e-39 309 256
-0.011835 0.67500001 -0.018935999 9.6621225e-39 310 256
-0.0106515 0.67500001 -0.018935999 9.6621225e-39 311 256
-0.0094539737 0.67400002 -0.018907947 9.7532419e-39 312 256
-0.0082722269 0.67400002 -0.018907947 9.7532419e-39 313 256
-0.0070694401 0.67199999 -0.018851839 9.9376177e-39 314 256
-0.0058911997 0.67199999 -0.018851839 1.0214203e-38 315 256
-0.0047269869 0.67400002 -0.018907947 1.058153e-38 316 256
-0.00354524 0.67400002 -0.018907947 1.076556e-38 317 256
-0.0023669999 0.67500001 -0.018935999 1.0857036e-38 318 256
-0.0011834999 0.67500001 -0.018935999 1.0949231e-38 319 256
0 0.676 -0.018964052 1.0304951e-38 320 256
0.0011852533 0.676 -0.018964052 1.0489343e-38 321 256
0.0023705065 0.676 -0.018964052 1.1042516e-38 322 256
0.0035557596 0.676 -0.018964052 1.1319103e-38 323 256
0.0047550397 0.67799997 -0.019020159 1.1779716e-38 324 256
0.0059437994 0.67799997 -0.019020159 1.2055942e-38 325 256
0.0071430802 0.67900002 -0.019048214 1.2332536e-38 326 256
0.0083335936 0.67900002 -0.019048214 1.2332536e-38 327 256
0.0095381327 0.68000001 -0.019076265 1.2516574e-38 328 256
0.010761959 0.68199998 -0.019132372 1.2700964e-38 329 256
0.011957732 0.68199998 -0.019132372 1.2700964e-38 330 256
0.013172794 0.68300003 -0.019160427 1.279316e-38 331 256
0.01439136 0.68400002 -0.01918848 1.279424e-38 332 256
0.015636226 0.68599999 -0.019244585 1.3070467e-38 333 256
0.01686356 0.68699998 -0.019272638 1.2887871e-38 334 256
0.018068098 0.68699998 -0.019272638 1.2887871e-38 335 256
0.019272638 0.68699998 -0.019272638 1.3070817e-38 336 256
0.020506985 0.68800002 -0.019300694 1.3070817e-38 337 256
0.021776399 0.69 -0.019356798 1.2705265e-38 338 256
0.023019511 0.69099998 -0.019384852 1.2613069e-38 339 256
0.024301201 0.69300002 -0.01944096 1.2429785e-38 340 256
0.02551626 0.69300002 -0.01944096 1.4827232e-38 341 256
0.026769891 0.69400001 -0.019469013 1.5945152e-38 342 256
0.027986705 0.69400001 -0.019469013 1.8434795e-38 343 256
0.029203519 0.69400001 -0.019469013 1.72406e-38 344 256
-0.051400717 0.69800001 -0.020805053 1.8347299e-38 278 257
-0.050176892 0.69800001 -0.020805053 1.6411191e-38 279 257
-0.048812799 0.69599998 -0.020745439 8.3793374e-39 280 257
-0.047592476 0.69599998 -0.020745439 7.8261636e-39 281 257
-0.046372157 0.69599998 -0.020745439 1.0858864e-38 282 257
-0.045022093 0.69400001 -0.020685827 1.0582637e-38 283 257
-0.043805279 0.69400001 -0.020685827 1.0306049e-38 284 257
-0.042527102 0.69300002 -0.020656019 1.0213494e-38 285 257
-0.041192811 0.69099998 -0.020596405 9.8465165e-39 286 257
-0.0399234 0.69 -0.020566599 9.8465165e-39 287 257
-0.038601387 0.68800002 -0.020506985 1.0397169e-38 288 257
-0.037340738 0.68699998 -0.020477179 1.0673756e-38 289 257
-0.035978399 0.68400002 -0.020387759 1.104181e-38 290 257
-0.034728274 0.68300003 -0.020357953 1.1134006e-38 291 257
-0.03348165 0.68199998 -0.020328145 1.0951049e-38 292 257
-0.032285877 0.68199998 -0.020328145 1.1043245e-38 293 257
-0.030998932 0.68000001 -0.020268533 1.0950696e-38 294 257
-0.029806666 0.68000001 -0.020268533 1.0766305e-38 295 257
-0.028614398 0.68000001 -0.020268533 1.0580852e-38 296 257
-0.027381808 0.67900002 -0.020238725 1.0396819e-38 297 257
-0.026191294 0.67900002 -0.020238725 1.0121674e-38 298 257
-0.025000781 0.67900002 -0.020238725 1.0121674e-38 299 257
-0.023775198 0.67799997 -0.020208918 1.0122383e-38 300 257
-0.022586439 0.67799997 -0.020208918 1.0122383e-38 301 257
-0.021397678 0.67799997 -0.020208918 1.0212778e-38 302 257
-0.020149305 0.676 -0.020149305 1.0120582e-38 303 257
-0.018935999 0.67500001 -0.020119499 1.0028017e-38 304 257
-0.0177525 0.67500001 -0.020119499 9.9358213e-39 305 257
-0.016569 0.67500001 -0.020119499 9.8436228e-39 306 257
-0.0153855 0.67500001 -0.020119499 9.9358185e-39 307 257
-0.014202001 0.67500001 -0.020119499 9.5681276e-39 308 257
-0.0130185 0.67500001 -0.020119499 9.6603232e-39 309 257
-0.011835 0.67500001 -0.020119499 9.2937155e-39 310 257
-0.0106515 0.67500001 -0.020119499 9.2015185e-39 311 257
-0.0094539737 0.67400002 -0.020089693 9.1089697e-39 312 257
-0.0082722269 0.67400002 -0.020089693 9.1089697e-39 313 257
-0.0070694401 0.67199999 -0.020030079 9.2015157e-39 314 257
-0.0058911997 0.67199999 -0.020030079 9.5702982e-39 315 257
-0.0047269869 0.67400002 -0.020089693 1.0305327e-38 316 257
-0.00354524 0.67400002 -0.020089693 1.0397523e-38 317 257
-0.0023669999 0.67500001 -0.020119499 1.0580466e-38 318 257
-0.0011834999 0.67500001 -0.020119499 1.0488271e-38 319 257
0 0.67500001 -0.020119499 9.5674059e-39 320 257
0.0011852533 0.676 -0.020149305 1.0028384e-38 321 257
0.0023705065 0.676 -0.020149305 1.0214579e-38 322 257
0.0035557596 0.676 -0.020149305 1.0583003e-38 323 257
0.0047550397 0.67799997 -0.020208918 1.1319829e-38 324 257
0.0059437994 0.67799997 -0.020208918 1.150422e-38 325 257
0.0071430802 0.67900002 -0.020238725 1.1965192e-38 326 257
0.0083335936 0.67900002 -0.020238725 1.1965192e-38 327 257
0.009524107 0.67900002 -0.020238725 1.2424735e-38 328 257
0.0107304 0.68000001 -0.020268533 1.2424735e-38 329 257
0.011957732 0.68199998 -0.020328145 1.2517649e-38 330 257
0.013153506 0.68199998 -0.020328145 1.2517649e-38 331 257
0.01439136 0.68400002 -0.020387759 1.2702396e-38 332 257
0.015636226 0.68599999 -0.020447372 1.2978625e-38 333 257
0.01686356 0.68699998 -0.020477179 1.2978269e-38 334 257
0.018068098 0.68699998 -0.020477179 1.2978269e-38 335 257
0.019272638 0.68699998 -0.020477179 1.2702758e-38 336 257
0.020506985 0.68800002 -0.020506985 1.2887508e-38 337 257
0.021776399 0.69 -0.020566599 1.2704912e-38 338 257
0.023019511 0.69099998 -0.020596405 1.2520521e-38 339 257
0.024301201 0.69300002 -0.020656019 1.2524148e-38 340 257
0.02551626 0.69300002 -0.020656019 1.4736845e-38 341 257
0.026769891 0.69400001 -0.020685827 1.5946234e-38 342 257
0.027986705 0.69400001 -0.020685827 1.8435516e-38 343 257
0.029203519 0.69400001 -0.020685827 1.7057287e-38 344 257
-0.051400717 0.69800001 -0.02202888 1.7978521e-38 278 258
-0.050176892 0.69800001 -0.02202888 1.5765824e-38 279 258
-0.048812799 0.69599998 -0.021965759 7.6406962e-39 280 258
-0.047592476 0.69599998 -0.021965759 7.6406962e-39 281 258
-0.046372157 0.69599998 -0.021965759 1.0583003e-38 282 258
-0.045151837 0.69599998 -0.021965759 1.0490807e-38 283 258
-0.043805279 0.69400001 -0.021902639 1.0029832e-38 284 258
-0.042527102 0.69300002 -0.021871079 9.8454403e-39 285 258
-0.041192811 0.69099998 -0.021807959 9.6617721e-39 286 258
-0.039807681 0.68800002 -0.021713281 9.6617721e-39 287 258
-0.038601387 0.68800002 -0.021713281 1.0213494e-38 288 258
