# .PCD v.7 - Point Cloud Data file format
FIELDS x y z rgb imX imY
SIZE 4 4 4 4 4 4
TYPE F F F F F F
COUNT 1 1 1 1 1 1
WIDTH 861
HEIGHT 1
VIEWPOINT 0 0 0 1 0 0 0
POINTS 861
DATA ascii
-0.019909101 0.75700003 0.0013272733 1.5095904e-38 305 239
-0.018581826 0.75700003 0.0013272733 1.5371765e-38 306 239
-0.017254554 0.75700003 0.0013272733 1.5095537e-38 307 239
-0.015927281 0.75700003 0.0013272733 1.4638516e-38 308 239
-0.014600007 0.75700003 0.0013272733 1.4546319e-38 309 239
-0.013272733 0.75700003 0.0013272733 1.4084626e-38 310 239
-0.01194546 0.75700003 0.0013272733 1.3715483e-38 311 239
-0.010618187 0.75700003 0.0013272733 1.3438179e-38 312 239
-0.0092909131 0.75700003 0.0013272733 1.3622572e-38 313 239
-0.0079636406 0.75700003 0.0013272733 1.3621856e-38 314 239
-0.0066363667 0.75700003 0.0013272733 1.3344909e-38 315 239
-0.0053090933 0.75700003 0.0013272733 1.3343108e-38 316 239
-0.0039818203 0.75700003 0.0013272733 1.3250911e-38 317 239
-0.0026545466 0.75700003 0.0013272733 1.3433857e-38 318 239
-0.0013272733 0.75700003 0.0013272733 1.3065435e-38 319 239
0 0.75700003 0.0013272733 1.2329315e-38 320 239
0.0013272733 0.75700003 0.0013272733 1.1960172e-38 321 239
0.0026545466 0.75700003 0.0013272733 1.1500646e-38 322 239
0.0039818203 0.75700003 0.0013272733 1.1316254e-38 323 239
0.0053231199 0.759 0.00133078 1.1868707e-38 324 239
0.0066538998 0.759 0.00133078 1.2329683e-38 325 239
0.0079846792 0.759 0.00133078 1.2790643e-38 326 239
0.0093400059 0.76099998 0.0013342865 1.2790643e-38 327 239
0.010674292 0.76099998 0.0013342865 1.288247e-38 328 239
0.01202436 0.76200002 0.00133604 1.2790273e-38 329 239
0.0133604 0.76200002 0.00133604 1.2972514e-38 330 239
0.01469644 0.76200002 0.00133604 1.2880318e-38 331 239
0.016074561 0.764 0.0013395466 1.2788125e-38 332 239
0.017414106 0.764 0.0013395466 1.2880321e-38 333 239
0.018802745 0.76599997 0.0013430532 1.2421157e-38 334 239
0.020172099 0.76700002 0.0013448066 1.2974331e-38 335 239
0.021516906 0.76700002 0.0013448066 1.2517335e-38 336 239
0.022861714 0.76700002 0.0013448066 1.260989e-38 337 239
0.024269639 0.76899999 0.0013483133 1.1422181e-38 338 239
-0.048981119 0.77600002 -0 1.6595194e-38 284 240
-0.047497798 0.77399999 -0 1.2722977e-38 285 240
-0.046081103 0.773 -0 1.4552087e-38 286 240
-0.044725779 0.773 -0 1.3998913e-38 287 240
-0.043258239 0.77100003 -0 1.4821811e-38 288 240
-0.041797712 0.76899999 -0 1.4914367e-38 289 240
-0.040344197 0.76700002 -0 1.5280622e-38 290 240
-0.038948543 0.76599997 -0 1.5280622e-38 291 240
-0.037605491 0.76599997 -0 1.5372104e-38 292 240
-0.036167759 0.764 -0 1.5464301e-38 293 240
-0.034828212 0.764 -0 1.5189156e-38 294 240
-0.033401001 0.76200002 -0 1.5096959e-38 295 240
-0.032022879 0.76099998 -0 1.518771e-38 296 240
-0.030688593 0.76099998 -0 1.4818929e-38 297 240
-0.029277159 0.759 -0 1.3809092e-38 298 240
-0.027946379 0.759 -0 1.3993483e-38 299 240
-0.026615599 0.759 -0 1.4268645e-38 300 240
-0.025284819 0.759 -0 1.436084e-38 301 240
-0.02389092 0.75700003 -0 1.4360134e-38 302 240
-0.022563647 0.75700003 -0 1.4360134e-38 303 240
-0.021236373 0.75700003 -0 1.436014e-38 304 240
-0.019909101 0.75700003 -0 1.4452335e-38 305 240
-0.018581826 0.75700003 -0 1.4267954e-38 306 240
-0.017254554 0.75700003 -0 1.4267954e-38 307 240
-0.015927281 0.75700003 -0 1.4084276e-38 308 240
-0.014600007 0.75700003 -0 1.399208e-38 309 240
-0.013272733 0.75700003 -0 1.3990997e-38 310 240
-0.01194546 0.75700003 -0 1.353002e-38 311 240
-0.010618187 0.75700003 -0 1.3161246e-38 312 240
-0.0092909131 0.75700003 -0 1.2976496e-38 313 240
-0.0079636406 0.75700003 -0 1.297543e-38 314 240
-0.0066363667 0.75700003 -0 1.2790678e-38 315 240
-0.0053090933 0.75700003 -0 1.2882154e-38 316 240
-0.0039818203 0.75700003 -0 1.2697764e-38 317 240
-0.0026545466 0.75700003 -0 1.2881419e-38 318 240
-0.0013272733 0.75700003 -0 1.2604472e-38 319 240
0 0.75700003 -0 1.1869423e-38 320 240
0.0013272733 0.75700003 -0 1.1500999e-38 321 240
0.0026545466 0.75700003 -0 1.1041109e-38 322 240
0.0039818203 0.75700003 -0 1.1041109e-38 323 240
0.0053231199 0.759 -0 1.0950714e-38 324 240
0.0066538998 0.759 -0 1.1135107e-38 325 240
0.0079846792 0.759 -0 1.1503167e-38 326 240
0.0093400059 0.76099998 -0 1.1503167e-38 327 240
0.010674292 0.76099998 -0 1.1778312e-38 328 240
0.01202436 0.76200002 -0 1.1778312e-38 329 240
0.0133604 0.76200002 -0 1.2329678e-38 330 240
0.01469644 0.76200002 -0 1.2237482e-38 331 240
0.016074561 0.764 -0 1.2512624e-38 332 240
0.017414106 0.764 -0 1.2512624e-38 333 240
0.018753653 0.764 -0 1.1871226e-38 334 240
0.020172099 0.76700002 -0 1.2055619e-38 335 240
0.021516906 0.76700002 -0 1.1874853e-38 336 240
0.022861714 0.76700002 -0 1.1967407e-38 337 240
0.024206521 0.76700002 -0 1.1234913e-38 338 240
0.025617953 0.76899999 -0 1.6397869e-38 339 240
-0.047436431 0.773 -0.0013553266 1.2630779e-38 285 241
-0.046081103 0.773 -0.0013553266 1.4645005e-38 286 241
-0.044725779 0.773 -0.0013553266 1.4091832e-38 287 241
-0.043370452 0.773 -0.0013553266 1.4913291e-38 288 241
-0.041797712 0.76899999 -0.0013483133 1.4821095e-38 289 241
-0.040344197 0.76700002 -0.0013448066 1.5004748e-38 290 241
-0.038948543 0.76599997 -0.0013430532 1.4912194e-38 291 241
-0.037605491 0.76599997 -0.0013430532 1.5186988e-38 292 241
-0.036167759 0.764 -0.0013395466 1.5186988e-38 293 241
-0.034828212 0.764 -0.0013395466 1.509444e-38 294 241
-0.033401001 0.76200002 -0.00133604 1.5186635e-38 295 241
-0.032022879 0.76099998 -0.0013342865 1.5186635e-38 296 241
-0.030607941 0.759 -0.00133078 1.4356874e-38 297 241
-0.029277159 0.759 -0.00133078 1.2607691e-38 298 241
-0.027946379 0.759 -0.00133078 1.2792441e-38 299 241
-0.026615599 0.759 -0.00133078 1.362185e-38 300 241
-0.025284819 0.759 -0.00133078 1.4267219e-38 301 241
-0.02389092 0.75700003 -0.0013272733 1.4453755e-38 302 241
-0.022563647 0.75700003 -0.0013272733 1.4085332e-38 303 241
-0.02129248 0.759 -0.00133078 1.4175723e-38 304 241
-0.019909101 0.75700003 -0.0013272733 1.3991332e-38 305 241
-0.018581826 0.75700003 -0.0013272733 1.4448014e-38 306 241
-0.017254554 0.75700003 -0.0013272733 1.4263622e-38 307 241
-0.015927281 0.75700003 -0.0013272733 1.3987407e-38 308 241
-0.014600007 0.75700003 -0.0013272733 1.371082e-38 309 241
-0.013237666 0.755 -0.0013237667 1.3342758e-38 310 241
-0.011913899 0.755 -0.0013237667 1.3342758e-38 311 241
-0.010590133 0.755 -0.0013237667 1.334204e-38 312 241
-0.0092663663 0.755 -0.0013237667 1.315729e-38 313 241
-0.0079425992 0.755 -0.0013237667 1.2972536e-38 314 241
-0.0066188332 0.755 -0.0013237667 1.2787785e-38 315 241
-0.0052950666 0.755 -0.0013237667 1.2788138e-38 316 241
-0.0039818203 0.75700003 -0.0013272733 1.2788138e-38 317 241
-0.0026545466 0.75700003 -0.0013272733 1.2604104e-38 318 241
-0.00133078 0.759 -0.00133078 1.2419712e-38 319 241
0 0.759 -0.00133078 1.1960175e-38 320 241
0.00133078 0.759 -0.00133078 1.1683589e-38 321 241
0.00266156 0.759 -0.00133078 1.0949264e-38 322 241
0.0039923396 0.759 -0.00133078 1.0949264e-38 323 241
0.0053231199 0.759 -0.00133078 1.1133292e-38 324 241
0.0066538998 0.759 -0.00133078 1.1225488e-38 325 241
0.0079846792 0.759 -0.00133078 1.1591397e-38 326 241
0.0093400059 0.76099998 -0.0013342865 1.1591397e-38 327 241
0.010674292 0.76099998 -0.0013342865 1.1866554e-38 328 241
0.012008579 0.76099998 -0.0013342865 1.1866554e-38 329 241
0.0133604 0.76200002 -0.00133604 1.1960175e-38 330 241
0.01469644 0.76200002 -0.00133604 1.2052372e-38 331 241
0.01603248 0.76200002 -0.00133604 1.2052358e-38 332 241
0.017414106 0.764 -0.0013395466 1.2052358e-38 333 241
0.018753653 0.764 -0.0013395466 1.186906e-38 334 241
0.020172099 0.76700002 -0.0013448066 1.2237482e-38 335 241
0.021516906 0.76700002 -0.0013448066 1.1780489e-38 336 241
0.022861714 0.76700002 -0.0013448066 1.2149632e-38 337 241
0.024206521 0.76700002 -0.0013448066 1.1144506e-38 338 241
0.025617953 0.76899999 -0.0013483133 1.5661733e-38 339 241
-0.048791755 0.773 -0.0027106532 1.6133494e-38 284 242
-0.047436431 0.773 -0.0027106532 1.263006e-38 285 242
-0.046081103 0.773 -0.0027106532 1.436949e-38 286 242
-0.044725779 0.773 -0.0027106532 1.353973e-38 287 242
-0.043370452 0.773 -0.0027106532 1.4454108e-38 288 242
-0.041797712 0.76899999 -0.0026966266 1.4361912e-38 289 242
-0.040344197 0.76700002 -0.0026896133 1.4820004e-38 290 242
-0.038948543 0.76599997 -0.0026861064 1.4727449e-38 291 242
-0.037605491 0.76599997 -0.0026861064 1.4635255e-38 292 242
-0.036167759 0.764 -0.0026790933 1.4727452e-38 293 242
-0.034828212 0.764 -0.0026790933 1.4726379e-38 294 242
-0.033401001 0.76200002 -0.00267208 1.4726379e-38 295 242
-0.032022879 0.76099998 -0.0026685731 1.4725302e-38 296 242
-0.030607941 0.759 -0.00266156 1.3803348e-38 297 242
-0.029277159 0.759 -0.00266156 1.2512274e-38 298 242
-0.027946379 0.759 -0.00266156 1.2604469e-38 299 242
-0.026615599 0.759 -0.00266156 1.1781193e-38 300 242
-0.025284819 0.759 -0.00266156 1.3071931e-38 301 242
-0.02389092 0.75700003 -0.0026545466 1.4082827e-38 302 242
-0.022563647 0.75700003 -0.0026545466 1.3990631e-38 303 242
-0.02129248 0.759 -0.00266156 1.3896631e-38 304 242
-0.019909101 0.75700003 -0.0026545466 1.3620404e-38 305 242
-0.018581826 0.75700003 -0.0026545466 1.3527502e-38 306 242
-0.017254554 0.75700003 -0.0026545466 1.3527502e-38 307 242
-0.015927281 0.75700003 -0.0026545466 1.3342404e-38 308 242
-0.014600007 0.75700003 -0.0026545466 1.3250207e-38 309 242
-0.013237666 0.755 -0.0026475333 1.2974697e-38 310 242
-0.011913899 0.755 -0.0026475333 1.2882501e-38 311 242
-0.010590133 0.755 -0.0026475333 1.2881419e-38 312 242
-0.0092663663 0.755 -0.0026475333 1.2604472e-38 313 242
-0.0079425992 0.755 -0.0026475333 1.2787066e-38 314 242
-0.0066188332 0.755 -0.0026475333 1.2787066e-38 315 242
-0.0052950666 0.755 -0.0026475333 1.2236766e-38 316 242
-0.0039712996 0.755 -0.0026475333 1.214457e-38 317 242
-0.0026545466 0.75700003 -0.0026545466 1.2143496e-38 318 242
-0.00133078 0.759 -0.00266156 1.2051299e-38 319 242
0 0.759 -0.00266156 1.1408803e-38 320 242
0.00133078 0.759 -0.00266156 1.1316608e-38 321 242
0.00266156 0.759 -0.00266156 1.0949261e-38 322 242
0.0039923396 0.759 -0.00266156 1.0949261e-38 323 242
0.0053231199 0.759 -0.00266156 1.1316608e-38 324 242
0.0066538998 0.759 -0.00266156 1.1316608e-38 325 242
0.0079846792 0.759 -0.00266156 1.1222987e-38 326 242
0.0093400059 0.76099998 -0.0026685731 1.1222987e-38 327 242
0.010674292 0.76099998 -0.0026685731 1.0947845e-38 328 242
0.012008579 0.76099998 -0.0026685731 1.104004e-38 329 242
0.013342866 0.76099998 -0.0026685731 1.1040391e-38 330 242
0.01469644 0.76200002 -0.00267208 1.1132586e-38 331 242
0.01603248 0.76200002 -0.00267208 1.1498848e-38 332 242
0.01736852 0.76200002 -0.00267208 1.1683239e-38 333 242
0.018753653 0.764 -0.0026790933 1.1408463e-38 334 242
0.020145798 0.76599997 -0.0026861064 1.1593214e-38 335 242
0.021516906 0.76700002 -0.0026896133 1.131988e-38 336 242
0.022921326 0.76899999 -0.0026966266 1.1596827e-38 337 242
0.024269639 0.76899999 -0.0026966266 1.0776443e-38 338 242
0.02568458 0.77100003 -0.0027036399 1.5201832e-38 339 242
-0.048791755 0.773 -0.0040659797 1.6040219e-38 284 243
-0.047436431 0.773 -0.0040659797 1.2629341e-38 285 243
-0.046081103 0.773 -0.0040659797 1.4553886e-38 286 243
-0.044725779 0.773 -0.0040659797 1.3447178e-38 287 243
-0.043370452 0.773 -0.0040659797 1.4636351e-38 288 243
-0.041797712 0.76899999 -0.0040449398 1.4267568e-38 289 243
-0.040344197 0.76700002 -0.00403442 1.4450868e-38 290 243
-0.038948543 0.76599997 -0.0040291594 1.4358672e-38 291 243
-0.037605491 0.76599997 -0.0040291594 1.4359025e-38 292 243
-0.036167759 0.764 -0.0040186401 1.4359025e-38 293 243
-0.034828212 0.764 -0.0040186401 1.4359025e-38 294 243
-0.033357166 0.76099998 -0.0040028598 1.426683e-38 295 243
-0.032022879 0.76099998 -0.0040028598 1.4264675e-38 296 243
-0.030607941 0.759 -0.0039923396 1.3434914e-38 297 243
-0.029277159 0.759 -0.0039923396 1.22364e-38 298 243
-0.027946379 0.759 -0.0039923396 1.22364e-38 299 243
-0.026615599 0.759 -0.0039923396 1.1136902e-38 300 243
-0.025284819 0.759 -0.0039923396 1.1966661e-38 301 243
-0.023954039 0.759 -0.0039923396 1.3343108e-38 302 243
-0.02262326 0.759 -0.0039923396 1.3343108e-38 303 243
-0.02129248 0.759 -0.0039923396 1.3250192e-38 304 243
-0.019909101 0.75700003 -0.0039818203 1.3250192e-38 305 243
-0.018581826 0.75700003 -0.0039818203 1.324912e-38 306 243
-0.017254554 0.75700003 -0.0039818203 1.324912e-38 307 243
-0.015927281 0.75700003 -0.0039818203 1.2974684e-38 308 243
-0.014600007 0.75700003 -0.0039818203 1.2882489e-38 309 243
-0.013237666 0.755 -0.0039712996 1.2789574e-38 310 243
-0.011913899 0.755 -0.0039712996 1.2697018e-38 311 243
-0.010590133 0.755 -0.0039712996 1.2603751e-38 312 243
-0.0092663663 0.755 -0.0039712996 1.2511555e-38 313 243
-0.0079425992 0.755 -0.0039712996 1.2236044e-38 314 243
-0.0066188332 0.755 -0.0039712996 1.2236044e-38 315 243
-0.0052950666 0.755 -0.0039712996 1.2052372e-38 316 243
-0.0039712996 0.755 -0.0039712996 1.1960175e-38 317 243
-0.0026545466 0.75700003 -0.0039818203 1.1683958e-38 318 243
-0.00133078 0.759 -0.0039923396 1.1591762e-38 319 243
0 0.759 -0.0039923396 1.1132942e-38 320 243
0.00133078 0.759 -0.0039923396 1.0948192e-38 321 243
0.00266156 0.759 -0.0039923396 1.0855997e-38 322 243
0.0039923396 0.759 -0.0039923396 1.0948192e-38 323 243
0.0053231199 0.759 -0.0039923396 1.1132942e-38 324 243
0.0066538998 0.759 -0.0039923396 1.1040388e-38 325 243
0.0079846792 0.759 -0.0039923396 1.0947473e-38 326 243
0.0093400059 0.76099998 -0.0040028598 1.0763081e-38 327 243
0.010674292 0.76099998 -0.0040028598 1.0395743e-38 328 243
0.012008579 0.76099998 -0.0040028598 1.0395743e-38 329 243
0.013342866 0.76099998 -0.0040028598 1.0486864e-38 330 243
0.01469644 0.76200002 -0.0040081199 1.0486864e-38 331 243
0.01603248 0.76200002 -0.0040081199 1.0761658e-38 332 243
0.01736852 0.76200002 -0.0040081199 1.1037885e-38 333 243
0.018753653 0.764 -0.0040186401 1.0672349e-38 334 243
0.020145798 0.76599997 -0.0040291594 1.0856741e-38 335 243
0.021488851 0.76599997 -0.0040291594 1.0583763e-38 336 243
0.022921326 0.76899999 -0.0040449398 1.0860709e-38 337 243
0.02433276 0.77100003 -0.0040554604 1.0681374e-38 338 243
0.025751207 0.773 -0.0040659797 1.5475545e-38 339 243
-0.04885488 0.77399999 -0.0054283198 1.5763991e-38 284 244
-0.047497798 0.77399999 -0.0054283198 1.2537144e-38 285 244
-0.046081103 0.773 -0.0054213065 1.4369858e-38 286 244
-0.044725779 0.773 -0.0054213065 1.2986922e-38 287 244
-0.043370452 0.773 -0.0054213065 1.4268289e-38 288 244
-0.04190642 0.77100003 -0.0054072798 1.39917e-38 289 244
-0.040344197 0.76700002 -0.0053792265 1.4174281e-38 290 244
-0.038948543 0.76599997 -0.0053722127 1.4266477e-38 291 244
-0.037605491 0.76599997 -0.0053722127 1.4357944e-38 292 244
-0.036167759 0.764 -0.0053581866 1.4450139e-38 293 244
-0.034828212 0.764 -0.0053581866 1.4266827e-38 294 244
-0.033357166 0.76099998 -0.0053371461 1.4174631e-38 295 244
-0.032022879 0.76099998 -0.0053371461 1.3989167e-38 296 244
-0.030688593 0.76099998 -0.0053371461 1.3066852e-38 297 244
-0.029277159 0.759 -0.0053231199 1.1134011e-38 298 244
-0.027946379 0.759 -0.0053231199 1.1318403e-38 299 244
-0.026615599 0.759 -0.0053231199 1.1318419e-38 300 244
-0.025284819 0.759 -0.0053231199 1.1502811e-38 301 244
-0.023954039 0.759 -0.0053231199 1.2239281e-38 302 244
-0.02262326 0.759 -0.0053231199 1.2331836e-38 303 244
-0.02129248 0.759 -0.0053231199 1.3064726e-38 304 244
-0.0199617 0.759 -0.0053231199 1.297253e-38 305 244
-0.01863092 0.759 -0.0053231199 1.2880336e-38 306 244
-0.017254554 0.75700003 -0.0053090933 1.3064729e-38 307 244
-0.015927281 0.75700003 -0.0053090933 1.2698092e-38 308 244
-0.014600007 0.75700003 -0.0053090933 1.2605895e-38 309 244
-0.013237666 0.755 -0.0052950666 1.2604104e-38 310 244
-0.011913899 0.755 -0.0052950666 1.2419712e-38 311 244
-0.010590133 0.755 -0.0052950666 1.2143851e-38 312 244
-0.0092663663 0.755 -0.0052950666 1.2143851e-38 313 244
-0.0079425992 0.755 -0.0052950666 1.1776863e-38 314 244
-0.0066188332 0.755 -0.0052950666 1.1684308e-38 315 244
-0.0052950666 0.755 -0.0052950666 1.1684314e-38 316 244
-0.0039712996 0.755 -0.0052950666 1.1591759e-38 317 244
-0.0026545466 0.75700003 -0.0053090933 1.1315898e-38 318 244
-0.00133078 0.759 -0.0053231199 1.1131507e-38 319 244
0 0.759 -0.0053231199 1.0855999e-38 320 244
0.00133078 0.759 -0.0053231199 1.0763802e-38 321 244
0.00266156 0.759 -0.0053231199 1.0579768e-38 322 244
0.0039923396 0.759 -0.0053231199 1.0855997e-38 323 244
0.0053231199 0.759 -0.0053231199 1.0855643e-38 324 244
0.0066538998 0.759 -0.0053231199 1.0763446e-38 325 244
0.0079846792 0.759 -0.0053231199 1.0302475e-38 326 244
0.0093400059 0.76099998 -0.0053371461 1.021028e-38 327 244
0.010674292 0.76099998 -0.0053371461 9.8418628e-39 328 244
0.012008579 0.76099998 -0.0053371461 9.7496672e-39 329 244
0.013342866 0.76099998 -0.0053371461 9.7493141e-39 330 244
0.01469644 0.76200002 -0.0053441599 9.7493141e-39 331 244
0.01603248 0.76200002 -0.0053441599 1.0117376e-38 332 244
0.017414106 0.764 -0.0053581866 1.0393965e-38 333 244
0.018753653 0.764 -0.0053581866 9.9362263e-39 334 244
0.020145798 0.76599997 -0.0053722127 1.0120976e-38 335 244
0.021488851 0.76599997 -0.0053722127 9.2955428e-39 336 244
0.022921326 0.76899999 -0.0053932532 9.7568797e-39 337 244
0.024269639 0.76899999 -0.0053932532 1.0496259e-38 338 244
0.025617953 0.76899999 -0.0053932532 1.5290431e-38 339 244
-0.047497798 0.77399999 -0.0067853997 1.2812656e-38 285 245
-0.046081103 0.773 -0.0067766332 1.4276944e-38 286 245
-0.044725779 0.773 -0.0067766332 1.289401e-38 287 245
-0.043370452 0.773 -0.0067766332 1.4084252e-38 288 245
-0.04190642 0.77100003 -0.0067590997 1.3715471e-38 289 245
-0.040344197 0.76700002 -0.006724033 1.3806941e-38 290 245
-0.038948543 0.76599997 -0.0067152665 1.3806941e-38 291 245
-0.037605491 0.76599997 -0.0067152665 1.4082085e-38 292 245
-0.036167759 0.764 -0.006697733 1.4174281e-38 293 245
-0.034828212 0.764 -0.006697733 1.389877e-38 294 245
-0.033357166 0.76099998 -0.0066714329 1.3714019e-38 295 245
-0.031938717 0.759 -0.0066538998 1.3804057e-38 296 245
-0.030607941 0.759 -0.0066538998 1.3066133e-38 297 245
-0.029277159 0.759 -0.0066538998 1.1226192e-38 298 245
-0.027946379 0.759 -0.0066538998 1.1502418e-38 299 245
-0.026615599 0.759 -0.0066538998 1.1501362e-38 300 245
-0.025284819 0.759 -0.0066538998 1.1593917e-38 301 245
-0.023954039 0.759 -0.0066538998 1.1961624e-38 302 245
-0.02262326 0.759 -0.0066538998 1.2146015e-38 303 245
-0.02129248 0.759 -0.0066538998 1.242116e-38 304 245
-0.0199617 0.759 -0.0066538998 1.242116e-38 305 245
-0.01863092 0.759 -0.0066538998 1.2604823e-38 306 245
-0.017254554 0.75700003 -0.0066363667 1.2789574e-38 307 245
-0.015927281 0.75700003 -0.0066363667 1.242151e-38 308 245
-0.014600007 0.75700003 -0.0066363667 1.2237119e-38 309 245
-0.013272733 0.75700003 -0.0066363667 1.2143851e-38 310 245
-0.011913899 0.755 -0.0066188332 1.2051654e-38 311 245
-0.010590133 0.755 -0.0066188332 1.1775788e-38 312 245
-0.0092663663 0.755 -0.0066188332 1.1775788e-38 313 245
-0.0079425992 0.755 -0.0066188332 1.1408447e-38 314 245
-0.0066188332 0.755 -0.0066188332 1.1316252e-38 315 245
-0.0052950666 0.755 -0.0066188332 1.1315901e-38 316 245
-0.0039712996 0.755 -0.0066188332 1.1223706e-38 317 245
-0.00266156 0.759 -0.0066538998 1.0948195e-38 318 245
-0.00133078 0.759 -0.0066538998 1.0855999e-38 319 245
0 0.759 -0.0066538998 1.0397172e-38 320 245
0.00133078 0.759 -0.0066538998 1.0397172e-38 321 245
0.00266156 0.759 -0.0066538998 1.0029116e-38 322 245
0.0039923396 0.759 -0.0066538998 1.0213147e-38 323 245
0.0053231199 0.759 -0.0066538998 1.0211722e-38 324 245
0.0066538998 0.759 -0.0066538998 1.002733e-38 325 245
0.0079846792 0.759 -0.0066538998 9.7496672e-39 326 245
0.00931546 0.759 -0.0066538998 9.6574716e-39 327 245
0.010674292 0.76099998 -0.0066714329 9.2894121e-39 328 245
0.012008579 0.76099998 -0.0066714329 9.2894121e-39 329 245
0.013342866 0.76099998 -0.0066714329 9.1979424e-39 330 245
0.01469644 0.76200002 -0.0066801999 9.1979424e-39 331 245
0.01603248 0.76200002 -0.0066801999 9.474525e-39 332 245
0.017414106 0.764 -0.006697733 9.7511133e-39 333 245
0.018753653 0.764 -0.006697733 9.3848545e-39 334 245
0.020145798 0.76599997 -0.0067152665 9.5688857e-39 335 245
0.021488851 0.76599997 -0.0067152665 9.0200363e-39 336 245
0.022861714 0.76700002 -0.006724033 9.5728513e-39 337 245
0.024206521 0.76700002 -0.006724033 1.0129272e-38 338 245
0.025617953 0.76899999 -0.0067415666 1.4739053e-38 339 245
-0.047497798 0.77399999 -0.0081424797 1.2720456e-38 285 246
-0.046081103 0.773 -0.0081319595 1.3540458e-38 286 246
-0.044725779 0.773 -0.0081319595 1.2157524e-38 287 246
-0.043258239 0.77100003 -0.0081109209 1.3715471e-38 288 246
-0.041797712 0.76899999 -0.0080898795 1.3531078e-38 289 246
-0.040344197 0.76700002 -0.00806884 1.3621823e-38 290 246
-0.038948543 0.76599997 -0.0080583189 1.3621823e-38 291 246
-0.037605491 0.76599997 -0.0080583189 1.3896249e-38 292 246
-0.036167759 0.764 -0.0080372803 1.4080281e-38 293 246
-0.034828212 0.764 -0.0080372803 1.3895896e-38 294 246
-0.033357166 0.76099998 -0.0080057196 1.3803701e-38 295 246
-0.031938717 0.759 -0.0079846792 1.3527837e-38 296 246
-0.030607941 0.759 -0.0079846792 1.3251249e-38 297 246
-0.029277159 0.759 -0.0079846792 1.2330384e-38 298 246
-0.027946379 0.759 -0.0079846792 1.2330384e-38 299 246
-0.026615599 0.759 -0.0079846792 1.1871211e-38 300 246
-0.025218192 0.75700003 -0.0079636406 1.1871211e-38 301 246
-0.02389092 0.75700003 -0.0079636406 1.2054157e-38 302 246
-0.022563647 0.75700003 -0.0079636406 1.2238188e-38 303 246
-0.021236373 0.75700003 -0.0079636406 1.2236395e-38 304 246
-0.019909101 0.75700003 -0.0079636406 1.2420784e-38 305 246
-0.018581826 0.75700003 -0.0079636406 1.2146716e-38 306 246
-0.017254554 0.75700003 -0.0079636406 1.205452e-38 307 246
-0.015927281 0.75700003 -0.0079636406 1.2420075e-38 308 246
-0.014600007 0.75700003 -0.0079636406 1.2051652e-38 309 246
-0.013272733 0.75700003 -0.0079636406 1.2142418e-38 310 246
-0.011913899 0.755 -0.0079425992 1.2142418e-38 311 246
-0.010590133 0.755 -0.0079425992 1.1684311e-38 312 246
-0.0092909131 0.75700003 -0.0079636406 1.1684311e-38 313 246
-0.0079636406 0.75700003 -0.0079636406 1.1408084e-38 314 246
-0.0066363667 0.75700003 -0.0079636406 1.1315889e-38 315 246
-0.0052950666 0.755 -0.0079425992 1.1224059e-38 316 246
-0.0039712996 0.755 -0.0079425992 1.1131504e-38 317 246
-0.00266156 0.759 -0.0079846792 1.0764877e-38 318 246
-0.00133078 0.759 -0.0079846792 1.067268e-38 319 246
0 0.759 -0.0079846792 1.0122378e-38 320 246
0.00133078 0.759 -0.0079846792 9.9379863e-39 321 246
0.00266156 0.759 -0.0079846792 9.8454403e-39 322 246
0.0039923396 0.759 -0.0079846792 9.752886e-39 323 246
0.0053231199 0.759 -0.0079846792 9.6585478e-39 324 246
0.0066538998 0.759 -0.0079846792 9.5663521e-39 325 246
0.0079846792 0.759 -0.0079846792 9.3819637e-39 326 246
0.00931546 0.759 -0.0079846792 9.3819637e-39 327 246
0.010674292 0.76099998 -0.0080057196 8.9227848e-39 328 246
0.012008579 0.76099998 -0.0080057196 8.9227848e-39 329 246
0.013342866 0.76099998 -0.0080057196 8.9242225e-39 330 246
0.01469644 0.76200002 -0.0080162399 9.0164181e-39 331 246
0.016074561 0.764 -0.0080372803 9.2004437e-39 332 246
0.017414106 0.764 -0.0080372803 9.4770306e-39 333 246
0.018753653 0.764 -0.0080372803 9.4766746e-39 334 246
0.020145798 0.76599997 -0.0080583189 9.5688703e-39 335 246
0.021488851 0.76599997 -0.0080583189 9.478841e-39 336 246
0.022861714 0.76700002 -0.00806884 1.012421e-38 337 246
0.024206521 0.76700002 -0.00806884 9.9448779e-39 338 246
0.025617953 0.76899999 -0.0080898795 1.4462464e-38 339 246
-0.047497798 0.77399999 -0.0094995592 1.2628258e-38 285 247
-0.046081103 0.773 -0.0094872871 1.3446109e-38 286 247
-0.044610061 0.77100003 -0.0094627403 1.2247566e-38 287 247
-0.043258239 0.77100003 -0.0094627403 1.2888953e-38 288 247
-0.041797712 0.76899999 -0.0094381925 1.2796757e-38 289 247
-0.040344197 0.76700002 -0.0094136465 1.3070817e-38 290 247
-0.038999394 0.76700002 -0.0094136465 1.2978622e-38 291 247
-0.037605491 0.76599997 -0.0094013726 1.3252695e-38 292 247
-0.036167759 0.764 -0.0093768267 1.3252695e-38 293 247
-0.034737039 0.76200002 -0.0093522798 1.3343458e-38 294 247
-0.033357166 0.76099998 -0.0093400059 1.3343458e-38 295 247
-0.032022879 0.76099998 -0.0093400059 1.334381e-38 296 247
-0.030607941 0.759 -0.00931546 1.2975388e-38 297 247
-0.029277159 0.759 -0.00931546 1.2883186e-38 298 247
-0.027946379 0.759 -0.00931546 1.2790991e-38 299 247
-0.026615599 0.759 -0.00931546 1.2606598e-38 300 247
-0.025218192 0.75700003 -0.0092909131 1.2422567e-38 301 247
-0.02389092 0.75700003 -0.0092909131 1.1961971e-38 302 247
-0.022563647 0.75700003 -0.0092909131 1.1593548e-38 303 247
-0.021236373 0.75700003 -0.0092909131 1.1501013e-38 304 247
-0.019909101 0.75700003 -0.0092909131 1.1685763e-38 305 247
-0.018581826 0.75700003 -0.0092909131 1.1871223e-38 306 247
-0.017254554 0.75700003 -0.0092909131 1.1686832e-38 307 247
-0.015927281 0.75700003 -0.0092909131 1.2052375e-38 308 247
-0.014600007 0.75700003 -0.0092909131 1.1775788e-38 309 247
-0.013272733 0.75700003 -0.0092909131 1.1775791e-38 310 247
-0.011913899 0.755 -0.0092663663 1.1683595e-38 311 247
-0.010590133 0.755 -0.0092663663 1.1408803e-38 312 247
-0.0092663663 0.755 -0.0092663663 1.1408803e-38 313 247
-0.0079425992 0.755 -0.0092663663 1.1132937e-38 314 247
-0.0066188332 0.755 -0.0092663663 1.0948545e-38 315 247
-0.0053090933 0.75700003 -0.0092909131 1.0764883e-38 316 247
-0.0039818203 0.75700003 -0.0092909131 1.0672328e-38 317 247
-0.00266156 0.759 -0.00931546 1.0214224e-38 318 247
-0.00133078 0.759 -0.00931546 1.0122027e-38 319 247
0 0.759 -0.00931546 9.937636e-39 320 247
0.00133078 0.759 -0.00931546 9.937636e-39 321 247
0.00266156 0.759 -0.00931546 9.5692234e-39 322 247
0.0039923396 0.759 -0.00931546 9.4770278e-39 323 247
0.0053231199 0.759 -0.00931546 9.2007996e-39 324 247
0.0066538998 0.759 -0.00931546 9.2007996e-39 325 247
0.0079846792 0.759 -0.00931546 9.4745096e-39 326 247
0.00931546 0.759 -0.00931546 9.382314e-39 327 247
0.010674292 0.76099998 -0.0093400059 8.7405445e-39 328 247
0.012008579 0.76099998 -0.0093400059 8.9245756e-39 329 247
0.013342866 0.76099998 -0.0093400059 8.7401914e-39 330 247
0.01469644 0.76200002 -0.0093522798 8.9242225e-39 331 247
0.016074561 0.764 -0.0093768267 8.9238694e-39 332 247
0.017414106 0.764 -0.0093768267 9.016065e-39 333 247
0.018802745 0.76599997 -0.0094013726 8.8331185e-39 334 247
0.020145798 0.76599997 -0.0094013726 9.0178699e-39 335 247
0.021516906 0.76700002 -0.0094136465 8.9278351e-39 336 247
0.022921326 0.76899999 -0.0094381925 9.2047821e-39 337 247
0.024269639 0.76899999 -0.0094381925 9.8512431e-39 338 247
0.025617953 0.76899999 -0.0094381925 1.4645056e-38 339 247
-0.047497798 0.77399999 -0.01085664 1.2629707e-38 285 248
-0.046081103 0.773 -0.010842613 1.3538673e-38 286 248
-0.044610061 0.77100003 -0.01081456 1.1879512e-38 287 248
-0.043258239 0.77100003 -0.01081456 1.2519461e-38 288 248
-0.041797712 0.76899999 -0.010786506 1.2519461e-38 289 248
-0.040344197 0.76700002 -0.010758453 1.2884634e-38 290 248
-0.038999394 0.76700002 -0.010758453 1.2792438e-38 291 248
-0.037605491 0.76599997 -0.010744425 1.3157984e-38 292 248
-0.036167759 0.764 -0.010716373 1.3434211e-38 293 248
-0.034737039 0.76200002 -0.01068832 1.2975034e-38 294 248
-0.033357166 0.76099998 -0.010674292 1.3251261e-38 295 248
-0.032022879 0.76099998 -0.010674292 1.3068305e-38 296 248
-0.030607941 0.759 -0.01064624 1.2975751e-38 297 248
-0.029277159 0.759 -0.01064624 1.2699524e-38 298 248
-0.027946379 0.759 -0.01064624 1.2883555e-38 299 248
-0.026615599 0.759 -0.01064624 1.2515133e-38 300 248
-0.025218192 0.75700003 -0.010618187 1.2238185e-38 301 248
-0.023827799 0.755 -0.010590133 1.1960172e-38 302 248
-0.022504034 0.755 -0.010590133 1.159175e-38 303 248
-0.021180267 0.755 -0.010590133 1.131518e-38 304 248
-0.019909101 0.75700003 -0.010618187 1.1591765e-38 305 248
-0.018581826 0.75700003 -0.010618187 1.1959103e-38 306 248
-0.017254554 0.75700003 -0.010618187 1.2051299e-38 307 248
-0.015885198 0.755 -0.010590133 1.186726e-38 308 248
-0.014561433 0.755 -0.010590133 1.186726e-38 309 248
-0.013237666 0.755 -0.010590133 1.1407728e-38 310 248
-0.011913899 0.755 -0.010590133 1.1407728e-38 311 248
-0.010590133 0.755 -0.010590133 1.1316252e-38 312 248
-0.0092663663 0.755 -0.010590133 1.113186e-38 313 248
-0.0079425992 0.755 -0.010590133 1.0855273e-38 314 248
-0.0066188332 0.755 -0.010590133 1.0763078e-38 315 248
-0.0053090933 0.75700003 -0.010618187 1.0579766e-38 316 248
-0.0039923396 0.759 -0.01064624 1.0579766e-38 317 248
-0.00266156 0.759 -0.01064624 1.0213144e-38 318 248
-0.00133078 0.759 -0.01064624 1.0029113e-38 319 248
0 0.759 -0.01064624 9.8450872e-39 320 248
0.00133078 0.759 -0.01064624 9.7528916e-39 321 248
0.00266156 0.759 -0.01064624 9.3837559e-39 322 248
0.0039923396 0.759 -0.01064624 9.3837559e-39 323 248
0.0053231199 0.759 -0.01064624 9.2004465e-39 324 248
0.0066538998 0.759 -0.01064624 9.1082508e-39 325 248
0.0079846792 0.759 -0.01064624 9.3819609e-39 326 248
0.00931546 0.759 -0.01064624 9.3819609e-39 327 248
0.010674292 0.76099998 -0.010674292 8.922782e-39 328 248
0.012008579 0.76099998 -0.010674292 8.922782e-39 329 248
0.0133604 0.76200002 -0.01068832 8.7387551e-39 330 248
0.01469644 0.76200002 -0.01068832 8.5547239e-39 331 248
0.016074561 0.764 -0.010716373 8.5543764e-39 332 248
0.017414106 0.764 -0.010716373 8.5543764e-39 333 248
0.018802745 0.76599997 -0.010744425 8.7391348e-39 334 248
0.020145798 0.76599997 -0.010744425 9.1079159e-39 335 248
0.021573013 0.76899999 -0.010786506 8.9274721e-39 336 248
0.022921326 0.76899999 -0.010786506 9.1118634e-39 337 248
0.02433276 0.77100003 -0.01081456 9.8497984e-39 338 248
0.02568458 0.77100003 -0.01081456 1.4828002e-38 339 248
-0.049107358 0.778 -0.012276839 1.7608997e-38 284 249
-0.047497798 0.77399999 -0.01221372 1.2999215e-38 285 249
-0.046081103 0.773 -0.012197939 1.3355724e-38 286 249
-0.044610061 0.77100003 -0.01216638 1.1512171e-38 287 249
-0.043258239 0.77100003 -0.01216638 1.2517665e-38 288 249
-0.041797712 0.76899999 -0.012134819 1.2609862e-38 289 249
-0.040344197 0.76700002 -0.01210326 1.2424026e-38 290 249
-0.038999394 0.76700002 -0.01210326 1.2239634e-38 291 249
-0.037605491 0.76599997 -0.012087479 1.2422229e-38 292 249
-0.036262438 0.76599997 -0.012087479 1.2606622e-38 293 249
-0.034828212 0.764 -0.01205592 1.2607697e-38 294 249
-0.033401001 0.76200002 -0.01202436 1.2792088e-38 295 249
-0.032022879 0.76099998 -0.012008579 1.2883555e-38 296 249
-0.030607941 0.759 -0.01197702 1.2699524e-38 297 249
-0.029277159 0.759 -0.01197702 1.2789917e-38 298 249
-0.027946379 0.759 -0.01197702 1.2789917e-38 299 249
-0.026615599 0.759 -0.01197702 1.2515133e-38 300 249
-0.025218192 0.75700003 -0.01194546 1.2054154e-38 301 249
-0.023827799 0.755 -0.011913899 1.1684664e-38 302 249
-0.022504034 0.755 -0.011913899 1.1315883e-38 303 249
-0.021180267 0.755 -0.011913899 1.0947839e-38 304 249
-0.019909101 0.75700003 -0.01194546 1.1040393e-38 305 249
-0.018581826 0.75700003 -0.01194546 1.1408097e-38 306 249
-0.017254554 0.75700003 -0.01194546 1.1408097e-38 307 249
-0.015885198 0.755 -0.011913899 1.1591399e-38 308 249
-0.014561433 0.755 -0.011913899 1.1683595e-38 309 249
-0.013237666 0.755 -0.011913899 1.1315533e-38 310 249
-0.011913899 0.755 -0.011913899 1.1315533e-38 311 249
-0.010590133 0.755 -0.011913899 1.0947476e-38 312 249
-0.0092663663 0.755 -0.011913899 1.0670529e-38 313 249
-0.0079425992 0.755 -0.011913899 1.0395024e-38 314 249
-0.0066188332 0.755 -0.011913899 1.030247e-38 315 249
-0.0053090933 0.75700003 -0.01194546 9.9365612e-39 316 249
-0.0039923396 0.759 -0.01197702 9.9365612e-39 317 249
-0.00266156 0.759 -0.01197702 9.5702982e-39 318 249
-0.00133078 0.759 -0.01197702 9.3859083e-39 319 249
0 0.759 -0.01197702 9.2015185e-39 320 249
0.00133078 0.759 -0.01197702 9.1089641e-39 321 249
0.00266156 0.759 -0.01197702 8.9242197e-39 322 249
0.0039923396 0.759 -0.01197702 8.9242197e-39 323 249
0.0053231199 0.759 -0.01197702 9.1082508e-39 324 249
0.0066363667 0.75700003 -0.01194546 9.0160552e-39 325 249
0.0079636406 0.75700003 -0.01194546 9.1986486e-39 326 249
0.00931546 0.759 -0.01197702 9.0138972e-39 327 249
0.010674292 0.76099998 -0.012008579 9.0139e-39 328 249
0.012008579 0.76099998 -0.012008579 8.9217044e-39 329 249
0.0133604 0.76200002 -0.01202436 8.3703327e-39 330 249
0.01469644 0.76200002 -0.01202436 8.3703327e-39 331 249
0.016074561 0.764 -0.01205592 7.5434657e-39 332 249
0.017414106 0.764 -0.01205592 7.8196924e-39 333 249
0.018802745 0.76599997 -0.012087479 7.8211414e-39 334 249
0.020172099 0.76700002 -0.01210326 8.2821181e-39 335 249
0.021573013 0.76899999 -0.012134819 8.5619294e-39 336 249
0.022921326 0.76899999 -0.012134819 8.9303532e-39 337 249
0.024395877 0.773 -0.012197939 9.5750065e-39 338 249
0.025784519 0.77399999 -0.01221372 1.4737962e-38 339 249
-0.049107358 0.778 -0.013640933 1.7795182e-38 284 250
-0.047497798 0.77399999 -0.013570799 1.3277596e-38 285 250
-0.046140719 0.77399999 -0.013570799 1.3447554e-38 286 250
-0.044725779 0.773 -0.013553266 1.1511445e-38 287 250
-0.043258239 0.77100003 -0.013518199 1.2518018e-38 288 250
-0.041797712 0.76899999 -0.013483133 1.2333628e-38 289 250
-0.040344197 0.76700002 -0.013448066 1.223999e-38 290 250
-0.038999394 0.76700002 -0.013448066 1.1779012e-38 291 250
-0.037605491 0.76599997 -0.013430533 1.1869776e-38 292 250
-0.036262438 0.76599997 -0.013430533 1.2146721e-38 293 250
-0.034828212 0.764 -0.013395466 1.214744e-38 294 250
-0.033357166 0.76099998 -0.013342866 1.2424028e-38 295 250
-0.032022879 0.76099998 -0.013342866 1.2515495e-38 296 250
-0.030688593 0.76099998 -0.013342866 1.2239267e-38 297 250
-0.029277159 0.759 -0.0133078 1.2421861e-38 298 250
-0.027946379 0.759 -0.0133078 1.2421861e-38 299 250
-0.026545467 0.75700003 -0.013272733 1.2055595e-38 300 250
-0.025218192 0.75700003 -0.013272733 1.1686814e-38 301 250
-0.023827799 0.755 -0.013237666 1.1684661e-38 302 250
-0.022504034 0.755 -0.013237666 1.1408435e-38 303 250
-0.021180267 0.755 -0.013237666 1.1040744e-38 304 250
-0.019909101 0.75700003 -0.013272733 1.1040744e-38 305 250
-0.018581826 0.75700003 -0.013272733 1.1316252e-38 306 250
-0.017254554 0.75700003 -0.013272733 1.1316252e-38 307 250
-0.015927281 0.75700003 -0.013272733 1.1499198e-38 308 250
-0.014561433 0.755 -0.013237666 1.1591394e-38 309 250
-0.013237666 0.755 -0.013237666 1.1131858e-38 310 250
-0.011913899 0.755 -0.013237666 1.0947825e-38 311 250
-0.010590133 0.755 -0.013237666 1.0762365e-38 312 250
-0.0092663663 0.755 -0.013237666 1.0485419e-38 313 250
-0.0079425992 0.755 -0.013237666 9.9347675e-39 314 250
-0.0066188332 0.755 -0.013237666 9.9347675e-39 315 250
-0.0053090933 0.75700003 -0.013272733 9.4770278e-39 316 250
-0.0039923396 0.759 -0.0133078 9.3848307e-39 317 250
-0.00266156 0.759 -0.0133078 9.0178475e-39 318 250
-0.00133078 0.759 -0.0133078 8.9256518e-39 319 250
0 0.759 -0.0133078 8.9256518e-39 320 250
0.00133078 0.759 -0.0133078 8.8334562e-39 321 250
0.00266156 0.759 -0.0133078 8.9245756e-39 322 250
0.0039923396 0.759 -0.0133078 8.9245756e-39 323 250
0.0053231199 0.759 -0.0133078 8.7409075e-39 324 250
0.0066363667 0.75700003 -0.013272733 8.7409075e-39 325 250
0.0079636406 0.75700003 -0.013272733 8.830585e-39 326 250
0.00931546 0.759 -0.0133078 8.830585e-39 327 250
0.010674292 0.76099998 -0.013342866 8.6461965e-39 328 250
0.012008579 0.76099998 -0.013342866 8.6461965e-39 329 250
0.0133604 0.76200002 -0.0133604 7.9118727e-39 330 250
0.01469644 0.76200002 -0.0133604 7.7274814e-39 331 250
0.016074561 0.764 -0.013395466 7.1764782e-39 332 250
0.017414106 0.764 -0.013395466 7.2686739e-39 333 250
0.018802745 0.76599997 -0.013430533 7.5463496e-39 334 250
0.020172099 0.76700002 -0.013448066 8.0995219e-39 335 250
0.021573013 0.76899999 -0.013483133 8.5622938e-39 336 250
0.022921326 0.76899999 -0.013483133 8.931435e-39 337 250
0.02433276 0.77100003 -0.013518199 9.5764513e-39 338 250
-0.049107358 0.778 -0.015005025 1.7979221e-38 284 251
-0.047497798 0.77399999 -0.014927879 1.4107005e-38 285 251
-0.046140719 0.77399999 -0.014927879 1.3633387e-38 286 251
-0.044725779 0.773 -0.014908593 1.1236659e-38 287 251
-0.043258239 0.77100003 -0.01487002 1.2427265e-38 288 251
-0.041797712 0.76899999 -0.014831445 1.2151037e-38 289 251
-0.040344197 0.76700002 -0.014792874 1.1963772e-38 290 251
-0.038999394 0.76700002 -0.014792874 1.1502795e-38 291 251
-0.037605491 0.76599997 -0.014773586 1.1410602e-38 292 251
-0.036262438 0.76599997 -0.014773586 1.1410602e-38 293 251
-0.034828212 0.764 -0.014735013 1.1961974e-38 294 251
-0.033357166 0.76099998 -0.014677152 1.205417e-38 295 251
-0.032022879 0.76099998 -0.014677152 1.2329312e-38 296 251
-0.030688593 0.76099998 -0.014677152 1.2237116e-38 297 251
-0.029277159 0.759 -0.014638579 1.1961608e-38 298 251
-0.027946379 0.759 -0.014638579 1.2053804e-38 299 251
-0.026545467 0.75700003 -0.014600007 1.1869776e-38 300 251
-0.025218192 0.75700003 -0.014600007 1.1593548e-38 301 251
-0.023827799 0.755 -0.014561433 1.1500996e-38 302 251
-0.022504034 0.755 -0.014561433 1.14088e-38 303 251
-0.021236373 0.75700003 -0.014600007 1.104146e-38 304 251
-0.019909101 0.75700003 -0.014600007 1.104146e-38 305 251
-0.018581826 0.75700003 -0.014600007 1.1316608e-38 306 251
-0.017254554 0.75700003 -0.014600007 1.1408803e-38 307 251
-0.015927281 0.75700003 -0.014600007 1.1315886e-38 308 251
-0.014561433 0.755 -0.014561433 1.1315886e-38 309 251
-0.013237666 0.755 -0.014561433 1.0856348e-38 310 251
-0.011913899 0.755 -0.014561433 1.0580122e-38 311 251
-0.010590133 0.755 -0.014561433 1.0578689e-38 312 251
-0.0092909131 0.75700003 -0.014600007 1.0209907e-38 313 251
-0.0079636406 0.75700003 -0.014600007 9.3841119e-39 314 251
-0.0066363667 0.75700003 -0.014600007 9.3841119e-39 315 251
-0.0053090933 0.75700003 -0.014600007 9.1089669e-39 316 251
-0.0039923396 0.759 -0.014638579 9.1089669e-39 317 251
-0.00266156 0.759 -0.014638579 8.9256518e-39 318 251
-0.0013342865 0.76099998 -0.014677152 8.9256518e-39 319 251
0 0.759 -0.014638579 8.8341751e-39 320 251
0.00133078 0.759 -0.014638579 8.7419795e-39 321 251
0.00266156 0.759 -0.014638579 8.5575952e-39 322 251
0.0039923396 0.759 -0.014638579 8.4653996e-39 323 251
0.0053231199 0.759 -0.014638579 8.4653996e-39 324 251
0.0066538998 0.759 -0.014638579 8.3732039e-39 325 251
0.0079846792 0.759 -0.014638579 8.7383893e-39 326 251
0.00931546 0.759 -0.014638579 8.6461937e-39 327 251
0.010674292 0.76099998 -0.014677152 8.0955409e-39 328 251
0.012008579 0.76099998 -0.014677152 8.0033452e-39 329 251
0.0133604 0.76200002 -0.01469644 7.4523364e-39 330 251
0.01469644 0.76200002 -0.01469644 7.3601408e-39 331 251
0.016074561 0.764 -0.014735013 6.6258212e-39 332 251
0.017414106 0.764 -0.014735013 6.994245e-39 333 251
0.018802745 0.76599997 -0.014773586 7.2715549e-39 334 251
0.020172099 0.76700002 -0.014792874 7.9169243e-39 335 251
0.021573013 0.76899999 -0.014831445 8.6541264e-39 336 251
0.022921326 0.76899999 -0.014831445 9.1151032e-39 337 251
0.02433276 0.77100003 -0.01487002 9.4849773e-39 338 251
-0.047497798 0.77399999 -0.016284959 1.4477588e-38 285 252
-0.046140719 0.77399999 -0.016284959 1.409581e-38 286 252
-0.044725779 0.773 -0.016263919 1.1238105e-38 287 252
-0.043370452 0.773 -0.016263919 1.2704924e-38 288 252
-0.041797712 0.76899999 -0.016179759 1.2059555e-38 289 252
-0.040344197 0.76700002 -0.01613768 1.1964125e-38 290 252
-0.038999394 0.76700002 -0.01613768 1.1410953e-38 291 252
-0.037605491 0.76599997 -0.016116638 1.0767397e-38 292 252
-0.036262438 0.76599997 -0.016116638 1.0675201e-38 293 252
-0.034828212 0.764 -0.016074561 1.1041838e-38 294 252
-0.033357166 0.76099998 -0.016011439 1.1225871e-38 295 252
-0.032022879 0.76099998 -0.016011439 1.1226224e-38 296 252
-0.030688593 0.76099998 -0.016011439 1.1226224e-38 297 252
-0.029277159 0.759 -0.015969358 1.1042188e-38 298 252
-0.027946379 0.759 -0.015969358 1.1226221e-38 299 252
-0.026545467 0.75700003 -0.015927281 1.1226221e-38 300 252
-0.025218192 0.75700003 -0.015927281 1.1042188e-38 301 252
-0.023827799 0.755 -0.015885198 1.0950346e-38 302 252
-0.022504034 0.755 -0.015885198 1.085815e-38 303 252
-0.021236373 0.75700003 -0.015927281 1.085815e-38 304 252
-0.0198565 0.755 -0.015885198 1.085815e-38 305 252
-0.018532733 0.755 -0.015885198 1.1133658e-38 306 252
-0.017208965 0.755 -0.015885198 1.1041463e-38 307 252
-0.015885198 0.755 -0.015885198 1.1040741e-38 308 252
-0.014561433 0.755 -0.015885198 1.0856348e-38 309 252
-0.013237666 0.755 -0.015885198 1.0397175e-38 310 252
-0.011913899 0.755 -0.015885198 1.0120229e-38 311 252
-0.010590133 0.755 -0.015885198 9.9354878e-39 312 252
-0.0092909131 0.75700003 -0.015927281 9.6589009e-39 313 252
-0.0079636406 0.75700003 -0.015927281 9.108248e-39 314 252
-0.0066363667 0.75700003 -0.015927281 9.108248e-39 315 252
-0.0053231199 0.759 -0.015969358 8.9252987e-39 316 252
-0.0039923396 0.759 -0.015969358 8.9252987e-39 317 252
-0.00266156 0.759 -0.015969358 8.8341751e-39 318 252
-0.00133078 0.759 -0.015969358 8.8341751e-39 319 252
0 0.759 -0.015969358 8.6508628e-39 320 252
0.00133078 0.759 -0.015969358 8.5586672e-39 321 252
0.00266156 0.759 -0.015969358 8.4661184e-39 322 252
0.0039923396 0.759 -0.015969358 8.3739228e-39 323 252
0.0053231199 0.759 -0.015969358 8.1895329e-39 324 252
0.0066538998 0.759 -0.015969358 8.0051403e-39 325 252
0.0079846792 0.759 -0.015969358 8.4628814e-39 326 252
0.0093400059 0.76099998 -0.016011439 8.3706858e-39 327 252
0.01068832 0.76200002 -0.01603248 8.0033452e-39 328 252
0.01202436 0.76200002 -0.01603248 7.9107909e-39 329 252
0.0133604 0.76200002 -0.01603248 7.6349298e-39 330 252
0.014735013 0.764 -0.016074561 7.6349298e-39 331 252
0.016074561 0.764 -0.016074561 7.269027e-39 332 252
0.017459691 0.76599997 -0.016116638 7.5452537e-39 333 252
0.018802745 0.76599997 -0.016116638 7.1804411e-39 334 252
0.020172099 0.76700002 -0.01613768 7.7336149e-39 335 252
0.021573013 0.76899999 -0.016179759 8.1953189e-39 336 252
0.022921326 0.76899999 -0.016179759 8.7484913e-39 337 252
0.024269639 0.76899999 -0.016179759 1.0037079e-38 338 252
-0.047497798 0.77399999 -0.01764204 1.4754543e-38 285 253
-0.046140719 0.77399999 -0.01764204 1.5112132e-38 286 253
-0.044725779 0.773 -0.017619247 1.1424307e-38 287 253
-0.043370452 0.773 -0.017619247 1.2613459e-38 288 253
-0.04190642 0.77100003 -0.01757366 1.1783697e-38 289 253
-0.0404494 0.76899999 -0.017528072 1.1689347e-38 290 253
-0.038999394 0.76700002 -0.017482487 1.0859945e-38 291 253
-0.037605491 0.76599997 -0.017459691 1.0581936e-38 292 253
-0.036262438 0.76599997 -0.017459691 1.0397186e-38 293 253
-0.034828212 0.764 -0.017414106 1.076453e-38 294 253
-0.033488665 0.764 -0.017414106 1.076453e-38 295 253
-0.032022879 0.76099998 -0.017345725 1.1223703e-38 296 253
-0.030688593 0.76099998 -0.017345725 1.0947476e-38 297 253
-0.029277159 0.759 -0.017300138 1.0673403e-38 298 253
-0.027946379 0.759 -0.017300138 1.0765599e-38 299 253
-0.026545467 0.75700003 -0.017254554 1.0948911e-38 300 253
-0.025218192 0.75700003 -0.017254554 1.0948911e-38 301 253
-0.023827799 0.755 -0.017208965 1.0948195e-38 302 253
-0.022504034 0.755 -0.017208965 1.0948195e-38 303 253
-0.021236373 0.75700003 -0.017254554 1.0765599e-38 304 253
-0.0198565 0.755 -0.017208965 1.0765599e-38 305 253
-0.018532733 0.755 -0.017208965 1.1041816e-38 306 253
-0.017208965 0.755 -0.017208965 1.076523e-38 307 253
-0.015885198 0.755 -0.017208965 1.0673036e-38 308 253
-0.014561433 0.755 -0.017208965 1.0580482e-38 309 253
-0.013237666 0.755 -0.017208965 1.0212072e-38 310 253
-0.011913899 0.755 -0.017208965 1.0027681e-38 311 253
-0.010590133 0.755 -0.017208965 9.6589009e-39 312 253
-0.0092909131 0.75700003 -0.017254554 9.5667053e-39 313 253
-0.0079636406 0.75700003 -0.017254554 8.9242099e-39 314 253
-0.0066363667 0.75700003 -0.017254554 9.0164055e-39 315 253
-0.0053231199 0.759 -0.017300138 8.8334534e-39 316 253
-0.0039923396 0.759 -0.017300138 8.8334534e-39 317 253
-0.00266156 0.759 -0.017300138 8.7430585e-39 318 253
-0.00133078 0.759 -0.017300138 8.7430585e-39 319 253
0 0.759 -0.017300138 8.6505097e-39 320 253
0.00133078 0.759 -0.017300138 8.5583141e-39 321 253
0.00266156 0.759 -0.017300138 8.4657625e-39 322 253
0.0039923396 0.759 -0.017300138 8.4657625e-39 323 253
0.0053231199 0.759 -0.017300138 8.3732039e-39 324 253
0.0066714329 0.76099998 -0.017345725 8.1884525e-39 325 253
0.0080057196 0.76099998 -0.017345725 8.370683e-39 326 253
0.0093400059 0.76099998 -0.017345725 8.370683e-39 327 253
0.01068832 0.76200002 -0.01736852 8.0955409e-39 328 253
0.01202436 0.76200002 -0.01736852 8.0955409e-39 329 253
0.013395466 0.764 -0.017414106 7.5438132e-39 330 253
0.014735013 0.764 -0.017414106 7.7278443e-39 331 253
0.016074561 0.764 -0.017414106 7.1782733e-39 332 253
0.017459691 0.76599997 -0.017459691 7.3623044e-39 333 253
0.018827293 0.76700002 -0.017482487 7.3637534e-39 334 253
0.020172099 0.76700002 -0.017482487 7.7328946e-39 335 253
0.021573013 0.76899999 -0.017528072 8.4693807e-39 336 253
0.022921326 0.76899999 -0.017528072 8.9303588e-39 337 253
-0.048981119 0.77600002 -0.019048214 1.6873611e-38 284 254
-0.047497798 0.77399999 -0.018999118 1.5306645e-38 285 254
-0.046140719 0.77399999 -0.018999118 1.502426e-38 286 254
-0.044725779 0.773 -0.018974574 1.1059846e-38 287 254
-0.043370452 0.773 -0.018974574 1.298224e-38 288 254
-0.04190642 0.77100003 -0.018925481 1.2244675e-38 289 254
-0.0404494 0.76899999 -0.018876385 1.2056675e-38 290 254
-0.038999394 0.76700002 -0.018827293 1.1319109e-38 291 254
-0.037654586 0.76700002 -0.018827293 1.0490091e-38 292 254
-0.036262438 0.76599997 -0.018802745 1.0397895e-38 293 254
-0.034828212 0.764 -0.018753653 9.84546e-39 294 254
-0.033488665 0.764 -0.018753653 9.84546e-39 295 254
-0.032022879 0.76099998 -0.018680012 9.3866426e-39 296 254
-0.030688593 0.76099998 -0.018680012 9.479197e-39 297 254
-0.029277159 0.759 -0.01863092 1.0029844e-38 298 254
-0.027946379 0.759 -0.01863092 1.0214596e-38 299 254
-0.026545467 0.75700003 -0.018581826 1.0764527e-38 300 254
-0.025218192 0.75700003 -0.018581826 1.0672331e-38 301 254
-0.02389092 0.75700003 -0.018581826 1.0397186e-38 302 254
-0.022563647 0.75700003 -0.018581826 1.0397186e-38 303 254
-0.021236373 0.75700003 -0.018581826 1.0122397e-38 304 254
-0.019909101 0.75700003 -0.018581826 1.0122397e-38 305 254
-0.018581826 0.75700003 -0.018581826 9.8458131e-39 306 254
-0.017254554 0.75700003 -0.018581826 9.7536174e-39 307 254
-0.015927281 0.75700003 -0.018581826 9.6610687e-39 308 254
-0.014561433 0.755 -0.018532733 9.6610687e-39 309 254
-0.013237666 0.755 -0.018532733 9.3855608e-39 310 254
-0.011913899 0.755 -0.018532733 9.2008094e-39 311 254
-0.010590133 0.755 -0.018532733 9.1082452e-39 312 254
-0.0092909131 0.75700003 -0.018581826 9.0160496e-39 313 254
-0.0079636406 0.75700003 -0.018581826 8.9249288e-39 314 254
-0.0066363667 0.75700003 -0.018581826 8.9249288e-39 315 254
-0.0053231199 0.759 -0.01863092 8.7419766e-39 316 254
-0.0039923396 0.759 -0.01863092 8.9267266e-39 317 254
-0.00266156 0.759 -0.01863092 9.0182006e-39 318 254
-0.00133078 0.759 -0.01863092 8.926005e-39 319 254
0 0.759 -0.01863092 9.0167741e-39 320 254
0.0013342865 0.76099998 -0.018680012 8.7401886e-39 321 254
0.00266156 0.759 -0.01863092 8.5561659e-39 322 254
0.0039923396 0.759 -0.01863092 8.5561659e-39 323 254
0.0053371461 0.76099998 -0.018680012 8.3721305e-39 324 254
0.0066714329 0.76099998 -0.018680012 8.1877393e-39 325 254
0.0080057196 0.76099998 -0.018680012 8.2788531e-39 326 254
0.0093400059 0.76099998 -0.018680012 8.3710487e-39 327 254
0.01068832 0.76200002 -0.01870456 7.9122258e-39 328 254
0.01202436 0.76200002 -0.01870456 8.0962569e-39 329 254
0.013395466 0.764 -0.018753653 7.9129447e-39 330 254
0.014735013 0.764 -0.018753653 8.0051403e-39 331 254
0.016116638 0.76599997 -0.018802745 7.8225497e-39 332 254
0.017459691 0.76599997 -0.018802745 7.9147467e-39 333 254
0.018827293 0.76700002 -0.018827293 7.6406962e-39 334 254
0.020172099 0.76700002 -0.018827293 8.19387e-39 335 254
0.021573013 0.76899999 -0.018876385 8.4719016e-39 336 254
-0.048981119 0.77600002 -0.0204088 1.6504832e-38 284 255
-0.047497798 0.77399999 -0.020356199 1.5675072e-38 285 255
