# .PCD v.7 - Point Cloud Data file format
FIELDS x y z rgb imX imY
SIZE 4 4 4 4 4 4
TYPE F F F F F F
COUNT 1 1 1 1 1 1
WIDTH 852
HEIGHT 1
VIEWPOINT 0 0 0 1 0 0 0
POINTS 852
DATA ascii
-0.0081109209 0.77100003 0.028388219 1.5646162e-38 314 219
-0.0067590997 0.77100003 0.028388219 1.5830912e-38 315 219
-0.0054072798 0.77100003 0.028388219 1.5555769e-38 316 219
-0.0040659797 0.773 0.028461859 1.5094793e-38 317 219
-0.0027036399 0.77100003 0.028388219 1.5002247e-38 318 219
-0.00135182 0.77100003 0.028388219 1.5370669e-38 319 219
0 0.77100003 0.028388219 1.5278849e-38 320 219
0.00135182 0.77100003 0.028388219 1.5002262e-38 321 219
0.0027036399 0.77100003 0.028388219 1.4908269e-38 322 219
0.0040659797 0.773 0.028461859 1.4908269e-38 323 219
-0.021769386 0.77600002 0.027211733 1.7968051e-38 304 220
-0.0204088 0.77600002 0.027211733 1.6492921e-38 305 220
-0.018999118 0.77399999 0.027141599 1.6942709e-38 306 220
-0.01764204 0.77399999 0.027141599 1.6112948e-38 307 220
-0.016284959 0.77399999 0.027141599 1.6660686e-38 308 220
-0.014927879 0.77399999 0.027141599 1.6568491e-38 309 220
-0.013553266 0.773 0.027106533 1.6109288e-38 310 220
-0.012197939 0.773 0.027106533 1.6109288e-38 311 220
-0.01081456 0.77100003 0.027036399 1.6477724e-38 312 220
-0.0094627403 0.77100003 0.027036399 1.6570279e-38 313 220
-0.0081109209 0.77100003 0.027036399 1.63859e-38 314 220
-0.0067590997 0.77100003 0.027036399 1.63859e-38 315 220
-0.0054072798 0.77100003 0.027036399 1.6110389e-38 316 220
-0.0040554604 0.77100003 0.027036399 1.5925638e-38 317 220
-0.0027036399 0.77100003 0.027036399 1.620043e-38 318 220
-0.00135182 0.77100003 0.027036399 1.6108234e-38 319 220
0 0.77100003 0.027036399 1.6290828e-38 320 220
0.00135182 0.77100003 0.027036399 1.6290828e-38 321 220
0.0027036399 0.77100003 0.027036399 1.6290828e-38 322 220
0.0040659797 0.773 0.027106533 1.6014601e-38 323 220
0.0054213065 0.773 0.027106533 1.5644742e-38 324 220
0.0067853997 0.77399999 0.027141599 1.4999373e-38 325 220
0.0081424797 0.77399999 0.027141599 1.4815372e-38 326 220
0.0094995592 0.77399999 0.027141599 1.4170003e-38 327 220
0.01085664 0.77399999 0.027141599 1.2613888e-38 328 220
0.012197939 0.773 0.027106533 1.4181213e-38 329 220
-0.023189586 0.778 0.025917772 1.7324121e-38 303 221
-0.021769386 0.77600002 0.025851147 1.7408706e-38 304 221
-0.0204088 0.77600002 0.025851147 1.5841381e-38 305 221
-0.019048214 0.77600002 0.025851147 1.6386954e-38 306 221
-0.017687626 0.77600002 0.025851147 1.6294758e-38 307 221
-0.01632704 0.77600002 0.025851147 1.6478054e-38 308 221
-0.014927879 0.77399999 0.025784519 1.6570251e-38 309 221
-0.013553266 0.773 0.025751207 1.6476994e-38 310 221
-0.012197939 0.773 0.025751207 1.656955e-38 311 221
-0.01081456 0.77100003 0.02568458 1.6477727e-38 312 221
-0.0094381925 0.76899999 0.025617953 1.6477727e-38 313 221
-0.0080898795 0.76899999 0.025617953 1.6477727e-38 314 221
-0.0067415666 0.76899999 0.025617953 1.6385531e-38 315 221
-0.0053932532 0.76899999 0.025617953 1.6293332e-38 316 221
-0.0040449398 0.76899999 0.025617953 1.6201136e-38 317 221
-0.0026966266 0.76899999 0.025617953 1.610859e-38 318 221
-0.0013483133 0.76899999 0.025617953 1.5832005e-38 319 221
0 0.77100003 0.02568458 1.5647263e-38 320 221
0.00135182 0.77100003 0.02568458 1.5647263e-38 321 221
0.0027036399 0.77100003 0.02568458 1.5830572e-38 322 221
0.0040554604 0.77100003 0.02568458 1.5830572e-38 323 221
0.0054213065 0.773 0.025751207 1.5553613e-38 324 221
0.0067766332 0.773 0.025751207 1.5185189e-38 325 221
0.0081319595 0.773 0.025751207 1.4724934e-38 326 221
0.0094627403 0.77100003 0.02568458 1.3341999e-38 327 221
0.01081456 0.77100003 0.02568458 1.1776158e-38 328 221
0.012197939 0.773 0.025751207 1.2053103e-38 329 221
0.013553266 0.773 0.025751207 1.1147762e-38 330 221
-0.024553679 0.778 0.024553679 1.7591318e-38 302 222
-0.02307036 0.77399999 0.02442744 1.5931798e-38 303 222
-0.021713279 0.77399999 0.02442744 1.6939068e-38 304 222
-0.020356199 0.77399999 0.02442744 1.6570644e-38 305 222
-0.019048214 0.77600002 0.024490559 1.6939051e-38 306 222
-0.01764204 0.77399999 0.02442744 1.7123803e-38 307 222
-0.016284959 0.77399999 0.02442744 1.712272e-38 308 222
-0.014927879 0.77399999 0.02442744 1.6846134e-38 309 222
-0.013553266 0.773 0.024395877 1.6753938e-38 310 222
-0.012197939 0.773 0.024395877 1.6661743e-38 311 222
-0.01081456 0.77100003 0.02433276 1.6845061e-38 312 222
-0.0094381925 0.76899999 0.024269639 1.6845061e-38 313 222
-0.0080898795 0.76899999 0.024269639 1.6478433e-38 314 222
-0.0067415666 0.76899999 0.024269639 1.6478433e-38 315 222
-0.0053932532 0.76899999 0.024269639 1.6385879e-38 316 222
-0.0040449398 0.76899999 0.024269639 1.6109291e-38 317 222
-0.0026966266 0.76899999 0.024269639 1.5740162e-38 318 222
-0.0013483133 0.76899999 0.024269639 1.5463215e-38 319 222
0 0.76899999 0.024269639 1.5644742e-38 320 222
0.00135182 0.77100003 0.02433276 1.5644742e-38 321 222
0.0027036399 0.77100003 0.02433276 1.5738007e-38 322 222
0.0040554604 0.77100003 0.02433276 1.5738007e-38 323 222
0.0054072798 0.77100003 0.02433276 1.5553603e-38 324 222
0.0067590997 0.77100003 0.02433276 1.5092625e-38 325 222
0.0081109209 0.77100003 0.02433276 1.4078493e-38 326 222
0.0094627403 0.77100003 0.02433276 1.370935e-38 327 222
0.01081456 0.77100003 0.02433276 1.3064726e-38 328 222
0.01216638 0.77100003 0.02433276 1.2511911e-38 329 222
0.013518199 0.77100003 0.02433276 1.0581245e-38 330 222
-0.028572321 0.77600002 0.023129974 1.7147311e-38 299 223
-0.027211733 0.77600002 0.023129974 1.8057352e-38 300 223
-0.025851147 0.77600002 0.023129974 1.6213798e-38 301 223
-0.024490559 0.77600002 0.023129974 1.6851917e-38 302 223
-0.02307036 0.77399999 0.02307036 1.6114352e-38 303 223
-0.021713279 0.77399999 0.02307036 1.7123447e-38 304 223
-0.020356199 0.77399999 0.02307036 1.7031251e-38 305 223
-0.018999118 0.77399999 0.02307036 1.7124519e-38 306 223
-0.01764204 0.77399999 0.02307036 1.6940128e-38 307 223
-0.016284959 0.77399999 0.02307036 1.7122717e-38 308 223
-0.014908593 0.773 0.023040552 1.7122717e-38 309 223
-0.013518199 0.77100003 0.02298094 1.6938683e-38 310 223
-0.01216638 0.77100003 0.02298094 1.6846487e-38 311 223
-0.010786506 0.76899999 0.022921326 1.6755013e-38 312 223
-0.0094381925 0.76899999 0.022921326 1.6755013e-38 313 223
-0.0080898795 0.76899999 0.022921326 1.6753938e-38 314 223
-0.0067415666 0.76899999 0.022921326 1.6753938e-38 315 223
-0.0053932532 0.76899999 0.022921326 1.6386951e-38 316 223
-0.0040449398 0.76899999 0.022921326 1.5926332e-38 317 223
-0.0026966266 0.76899999 0.022921326 1.5831276e-38 318 223
-0.0013483133 0.76899999 0.022921326 1.5370656e-38 319 223
0 0.76899999 0.022921326 1.5553265e-38 320 223
0.0013483133 0.76899999 0.022921326 1.5737657e-38 321 223
0.0026966266 0.76899999 0.022921326 1.5555413e-38 322 223
0.0040449398 0.76899999 0.022921326 1.5371022e-38 323 223
0.0053932532 0.76899999 0.022921326 1.5092991e-38 324 223
0.0067415666 0.76899999 0.022921326 1.4079199e-38 325 223
0.0080898795 0.76899999 0.022921326 1.3248026e-38 326 223
0.0094627403 0.77100003 0.02298094 1.3340221e-38 327 223
0.01081456 0.77100003 0.02298094 1.2880689e-38 328 223
0.01216638 0.77100003 0.02298094 1.2972886e-38 329 223
0.013518199 0.77100003 0.02298094 1.1961268e-38 330 223
0.01487002 0.77100003 0.02298094 1.1223703e-38 331 223
-0.029932907 0.77600002 0.021769386 1.8709579e-38 298 224
-0.028572321 0.77600002 0.021769386 1.6128102e-38 299 224
-0.027141599 0.77399999 0.021713279 1.7037047e-38 300 224
-0.025784519 0.77399999 0.021713279 1.5838504e-38 301 224
-0.02442744 0.77399999 0.021713279 1.7123094e-38 302 224
-0.023040552 0.773 0.021685226 1.7215648e-38 303 224
-0.021685226 0.773 0.021685226 1.7398958e-38 304 224
-0.0203299 0.773 0.021685226 1.7398958e-38 305 224
-0.018974574 0.773 0.021685226 1.7399661e-38 306 224
-0.017619247 0.773 0.021685226 1.721527e-38 307 224
-0.016221842 0.77100003 0.021629119 1.7399295e-38 308 224
-0.01487002 0.77100003 0.021629119 1.7583326e-38 309 224
-0.013483133 0.76899999 0.021573013 1.7307813e-38 310 224
-0.012134819 0.76899999 0.021573013 1.7307813e-38 311 224
-0.010758453 0.76700002 0.021516906 1.7215267e-38 312 224
-0.0094136465 0.76700002 0.021516906 1.7215267e-38 313 224
-0.00806884 0.76700002 0.021516906 1.7122366e-38 314 224
-0.006724033 0.76700002 0.021516906 1.684614e-38 315 224
-0.0053722127 0.76599997 0.021488851 1.6479152e-38 316 224
-0.0040291594 0.76599997 0.021488851 1.5925978e-38 317 224
-0.0026896133 0.76700002 0.021516906 1.5830909e-38 318 224
-0.0013448066 0.76700002 0.021516906 1.5369932e-38 319 224
0 0.76700002 0.021516906 1.5371019e-38 320 224
0.0013448066 0.76700002 0.021516906 1.5647966e-38 321 224
0.0026896133 0.76700002 0.021516906 1.5463571e-38 322 224
0.0040449398 0.76899999 0.021573013 1.509479e-38 323 224
0.0053932532 0.76899999 0.021573013 1.5090842e-38 324 224
0.0067415666 0.76899999 0.021573013 1.407669e-38 325 224
0.0080898795 0.76899999 0.021573013 1.3522817e-38 326 224
0.0094381925 0.76899999 0.021573013 1.3522817e-38 327 224
0.010786506 0.76899999 0.021573013 1.2789574e-38 328 224
0.012134819 0.76899999 0.021573013 1.2789574e-38 329 224
0.013483133 0.76899999 0.021573013 1.2514079e-38 330 224
0.014831445 0.76899999 0.021573013 1.2237132e-38 331 224
0.016221842 0.77100003 0.021629119 1.0212817e-38 332 224
-0.031212838 0.77399999 0.020356199 1.6410822e-38 297 225
-0.029855758 0.77399999 0.020356199 1.7136826e-38 298 225
-0.028498679 0.77399999 0.020356199 1.4923773e-38 299 225
-0.027141599 0.77399999 0.020356199 1.6848307e-38 300 225
-0.025751207 0.773 0.0203299 1.6755753e-38 301 225
-0.024395877 0.773 0.0203299 1.7307468e-38 302 225
-0.02298094 0.77100003 0.020277301 1.7307468e-38 303 225
-0.021629119 0.77100003 0.020277301 1.7674453e-38 304 225
-0.020277301 0.77100003 0.020277301 1.7766648e-38 305 225
-0.018925481 0.77100003 0.020277301 1.7582976e-38 306 225
-0.017528072 0.76899999 0.0202247 1.7582976e-38 307 225
-0.016179759 0.76899999 0.0202247 1.7675172e-38 308 225
-0.014831445 0.76899999 0.0202247 1.7767367e-38 309 225
-0.013448066 0.76700002 0.020172099 1.7585491e-38 310 225
-0.01210326 0.76700002 0.020172099 1.7585491e-38 311 225
-0.010758453 0.76700002 0.020172099 1.730891e-38 312 225
-0.0094013726 0.76599997 0.020145798 1.7216714e-38 313 225
-0.0080583189 0.76599997 0.020145798 1.6937979e-38 314 225
-0.0067152665 0.76599997 0.020145798 1.6845784e-38 315 225
-0.0053722127 0.76599997 0.020145798 1.6478446e-38 316 225
-0.0040291594 0.76599997 0.020145798 1.5925272e-38 317 225
-0.0026861064 0.76599997 0.020145798 1.5647611e-38 318 225
-0.0013448066 0.76700002 0.020172099 1.5371022e-38 319 225
0 0.76700002 0.020172099 1.5372821e-38 320 225
0.0013448066 0.76700002 0.020172099 1.5465017e-38 321 225
0.0026896133 0.76700002 0.020172099 1.5463218e-38 322 225
0.00403442 0.76700002 0.020172099 1.4910044e-38 323 225
0.0053792265 0.76700002 0.020172099 1.4814628e-38 324 225
0.006724033 0.76700002 0.020172099 1.4261454e-38 325 225
0.00806884 0.76700002 0.020172099 1.343386e-38 326 225
0.0094136465 0.76700002 0.020172099 1.3157275e-38 327 225
0.010786506 0.76899999 0.0202247 1.2698092e-38 328 225
0.012134819 0.76899999 0.0202247 1.2698092e-38 329 225
0.013483133 0.76899999 0.0202247 1.251263e-38 330 225
0.014831445 0.76899999 0.0202247 1.2420075e-38 331 225
0.016179759 0.76899999 0.0202247 1.1502097e-38 332 225
0.017528072 0.76899999 0.0202247 1.1686129e-38 333 225
0.018974574 0.773 0.0203299 1.0307565e-38 334 225
0.0203299 0.773 0.0203299 1.1690499e-38 335 225
0.021685226 0.773 0.0203299 9.4104731e-39 336 225
0.023040552 0.773 0.0203299 1.3467081e-38 337 225
-0.031212838 0.77399999 0.018999118 1.6128449e-38 297 226
-0.029855758 0.77399999 0.018999118 1.6669327e-38 298 226
-0.028498679 0.77399999 0.018999118 1.5378588e-38 299 226
-0.027106533 0.773 0.018974574 1.7029086e-38 300 226
-0.025751207 0.773 0.018974574 1.758226e-38 301 226
-0.02433276 0.77100003 0.018925481 1.7582254e-38 302 226
-0.022861714 0.76700002 0.018827293 1.7582254e-38 303 226
-0.021516906 0.76700002 0.018827293 1.7675159e-38 304 226
-0.0202247 0.76899999 0.018876385 1.7767355e-38 305 226
-0.018876385 0.76899999 0.018876385 1.7767002e-38 306 226
-0.017482487 0.76700002 0.018827293 1.7951033e-38 307 226
-0.01613768 0.76700002 0.018827293 1.7859916e-38 308 226
-0.014792874 0.76700002 0.018827293 1.7952113e-38 309 226
-0.013430533 0.76599997 0.018802745 1.7952832e-38 310 226
-0.012087479 0.76599997 0.018802745 1.7952832e-38 311 226
-0.010716373 0.764 0.018753653 1.7859566e-38 312 226
-0.0093768267 0.764 0.018753653 1.758262e-38 313 226
-0.0080372803 0.764 0.018753653 1.7304607e-38 314 226
-0.006697733 0.764 0.018753653 1.702838e-38 315 226
-0.0053581866 0.764 0.018753653 1.647773e-38 316 226
-0.0040186401 0.764 0.018753653 1.6108587e-38 317 226
-0.0026790933 0.764 0.018753653 1.5740512e-38 318 226
-0.0013430532 0.76599997 0.018802745 1.5740512e-38 319 226
0 0.76599997 0.018802745 1.5282055e-38 320 226
0.0013430532 0.76599997 0.018802745 1.5097663e-38 321 226
0.0026861064 0.76599997 0.018802745 1.5553613e-38 322 226
0.0040291594 0.76599997 0.018802745 1.5092993e-38 323 226
0.0053722127 0.76599997 0.018802745 1.4722416e-38 324 226
0.006724033 0.76700002 0.018827293 1.444547e-38 325 226
0.00806884 0.76700002 0.018827293 1.3801899e-38 326 226
0.0094136465 0.76700002 0.018827293 1.3617507e-38 327 226
0.010758453 0.76700002 0.018827293 1.3248728e-38 328 226
0.01210326 0.76700002 0.018827293 1.3156532e-38 329 226
0.013448066 0.76700002 0.018827293 1.260446e-38 330 226
0.014831445 0.76899999 0.018876385 1.2511905e-38 331 226
0.016179759 0.76899999 0.018876385 1.1960199e-38 332 226
0.017528072 0.76899999 0.018876385 1.2236784e-38 333 226
0.018925481 0.77100003 0.018925481 1.1594671e-38 334 226
0.0203299 0.773 0.018974574 1.1134053e-38 335 226
0.021685226 0.773 0.018974574 6.8214032e-39 336 226
0.023040552 0.773 0.018974574 1.0601065e-38 337 226
0.02442744 0.77399999 0.018999118 1.3741873e-38 338 226
0.025851147 0.77600002 0.019048214 1.5954926e-38 339 226
-0.033927001 0.77399999 0.01764204 1.6410822e-38 295 227
-0.032443684 0.77100003 0.01757366 1.6305262e-38 296 227
-0.031091858 0.77100003 0.01757366 1.5014523e-38 297 227
-0.029817186 0.773 0.017619247 1.6939424e-38 298 227
-0.028461859 0.773 0.017619247 1.6662837e-38 299 227
-0.027106533 0.773 0.017619247 1.7306746e-38 300 227
-0.02568458 0.77100003 0.01757366 1.7306746e-38 301 227
-0.024206521 0.76700002 0.017482487 1.758368e-38 302 227
-0.022831906 0.76599997 0.017459691 1.7675875e-38 303 227
-0.021488851 0.76599997 0.017459691 1.7675875e-38 304 227
-0.020145798 0.76599997 0.017459691 1.7860266e-38 305 227
-0.018827293 0.76700002 0.017482487 1.7768442e-38 306 227
-0.017459691 0.76599997 0.017459691 1.7768442e-38 307 227
-0.016116638 0.76599997 0.017459691 1.7860289e-38 308 227
-0.014773586 0.76599997 0.017459691 1.7860289e-38 309 227
-0.013395466 0.764 0.017414106 1.7859933e-38 310 227
-0.01205592 0.764 0.017414106 1.7859933e-38 311 227
-0.010716373 0.764 0.017414106 1.7582998e-38 312 227
-0.0093768267 0.764 0.017414106 1.7398607e-38 313 227
-0.0080372803 0.764 0.017414106 1.6846152e-38 314 227
-0.006697733 0.764 0.017414106 1.6569926e-38 315 227
-0.0053581866 0.764 0.017414106 1.6294055e-38 316 227
-0.0040186401 0.764 0.017414106 1.5925272e-38 317 227
-0.0026790933 0.764 0.017414106 1.5374266e-38 318 227
-0.0013395466 0.764 0.017414106 1.5189875e-38 319 227
0 0.764 0.017414106 1.5280999e-38 320 227
0.0013430532 0.76599997 0.017459691 1.5188803e-38 321 227
0.0026861064 0.76599997 0.017459691 1.5370319e-38 322 227
0.0040291594 0.76599997 0.017459691 1.5001538e-38 323 227
0.0053722127 0.76599997 0.017459691 1.4539483e-38 324 227
0.0067152665 0.76599997 0.017459691 1.4263255e-38 325 227
0.0080583189 0.76599997 0.017459691 1.3711521e-38 326 227
0.0094013726 0.76599997 0.017459691 1.3435294e-38 327 227
0.010758453 0.76700002 0.017482487 1.31587e-38 328 227
0.01210326 0.76700002 0.017482487 1.2882473e-38 329 227
0.013448066 0.76700002 0.017482487 1.2605173e-38 330 227
0.014831445 0.76899999 0.017528072 1.2420782e-38 331 227
0.016179759 0.76899999 0.017528072 1.1868704e-38 332 227
0.017528072 0.76899999 0.017528072 1.1868704e-38 333 227
0.018925481 0.77100003 0.01757366 1.1685775e-38 334 227
0.0203299 0.773 0.017619247 1.1224797e-38 335 227
0.021685226 0.773 0.017619247 9.4792362e-39 336 227
0.023040552 0.773 0.017619247 9.0182581e-39 337 227
0.02442744 0.77399999 0.01764204 6.2833649e-39 338 227
0.025851147 0.77600002 0.017687626 1.1538516e-38 339 227
0.027211733 0.77600002 0.017687626 1.6136794e-38 340 227
-0.03528408 0.77399999 0.016284959 1.7513554e-38 294 228
-0.033927001 0.77399999 0.016284959 1.5208664e-38 295 228
-0.032443684 0.77100003 0.016221842 1.6114014e-38 296 228
-0.031091858 0.77100003 0.016221842 1.5653395e-38 297 228
-0.029740039 0.77100003 0.016221842 1.7122369e-38 298 228
-0.028388219 0.77100003 0.016221842 1.7214566e-38 299 228
-0.027036399 0.77100003 0.016221842 1.7306744e-38 300 228
-0.025617953 0.76899999 0.016179759 1.7583329e-38 301 228
-0.024206521 0.76700002 0.01613768 1.7676228e-38 302 228
-0.022831906 0.76599997 0.016116638 1.786062e-38 303 228
-0.021488851 0.76599997 0.016116638 1.7860985e-38 304 228
-0.020145798 0.76599997 0.016116638 1.776879e-38 305 228
-0.018802745 0.76599997 0.016116638 1.7860283e-38 306 228
-0.017414106 0.764 0.016074561 1.7860283e-38 307 228
-0.016074561 0.764 0.016074561 1.7952482e-38 308 228
-0.014735013 0.764 0.016074561 1.8044677e-38 309 228
-0.013395466 0.764 0.016074561 1.7952484e-38 310 228
-0.01205592 0.764 0.016074561 1.7860289e-38 311 228
-0.010716373 0.764 0.016074561 1.7674468e-38 312 228
-0.0093768267 0.764 0.016074561 1.721349e-38 313 228
-0.0080372803 0.764 0.016074561 1.6661039e-38 314 228
-0.0066801999 0.76200002 0.01603248 1.6292616e-38 315 228
-0.0053441599 0.76200002 0.01603248 1.5282789e-38 316 228
-0.0040081199 0.76200002 0.01603248 1.5098758e-38 317 228
-0.00267208 0.76200002 0.01603248 1.4731067e-38 318 228
-0.0013395466 0.764 0.016074561 1.4546316e-38 319 228
0 0.764 0.016074561 1.4912943e-38 320 228
0.0013395466 0.764 0.016074561 1.4820748e-38 321 228
0.0026790933 0.764 0.016074561 1.5369963e-38 322 228
0.0040186401 0.764 0.016074561 1.500154e-38 323 228
0.0053581866 0.764 0.016074561 1.4907174e-38 324 228
0.0067152665 0.76599997 0.016116638 1.4722782e-38 325 228
0.0080583189 0.76599997 0.016116638 1.4354354e-38 326 228
0.0094013726 0.76599997 0.016116638 1.4169962e-38 327 228
0.010744425 0.76599997 0.016116638 1.3984848e-38 328 228
0.01210326 0.76700002 0.01613768 1.3800457e-38 329 228
0.013448066 0.76700002 0.01613768 1.3065418e-38 330 228
0.014792874 0.76700002 0.01613768 1.2788473e-38 331 228
0.01613768 0.76700002 0.01613768 1.2237119e-38 332 228
0.017528072 0.76899999 0.016179759 1.2144923e-38 333 228
0.018925481 0.77100003 0.016221842 1.1593214e-38 334 228
0.020277301 0.77100003 0.016221842 1.1593214e-38 335 228
0.021685226 0.773 0.016263919 1.0306091e-38 336 228
0.02307036 0.77399999 0.016284959 9.6607212e-39 337 228
0.024490559 0.77600002 0.01632704 5.9923628e-39 338 228
0.025851147 0.77600002 0.01632704 9.8645793e-39 339 228
0.027211733 0.77600002 0.01632704 1.2823867e-38 340 228
0.028572321 0.77600002 0.01632704 1.5866321e-38 341 228
-0.036641158 0.77399999 0.014927879 1.7334223e-38 293 229
-0.03528408 0.77399999 0.014927879 1.6123763e-38 294 229
-0.033927001 0.77399999 0.014927879 1.4833025e-38 295 229
-0.032443684 0.77100003 0.01487002 1.6572462e-38 296 229
-0.031091858 0.77100003 0.01487002 1.6664658e-38 297 229
-0.02966289 0.76899999 0.014831445 1.730569e-38 298 229
-0.028314579 0.76899999 0.014831445 1.7213493e-38 299 229
-0.026966266 0.76899999 0.014831445 1.7582608e-38 300 229
-0.025551327 0.76700002 0.014792874 1.7951389e-38 301 229
-0.024174958 0.76599997 0.014773586 1.7769146e-38 302 229
-0.022831906 0.76599997 0.014773586 1.7953538e-38 303 229
-0.021432746 0.764 0.014735013 1.7952832e-38 304 229
-0.020093199 0.764 0.014735013 1.7952832e-38 305 229
-0.018753653 0.764 0.014735013 1.7768816e-38 306 229
-0.017414106 0.764 0.014735013 1.7768816e-38 307 229
-0.016074561 0.764 0.014735013 1.7769538e-38 308 229
-0.01469644 0.76200002 0.01469644 1.7861734e-38 309 229
-0.0133604 0.76200002 0.01469644 1.7769535e-38 310 229
-0.01202436 0.76200002 0.01469644 1.7677339e-38 311 229
-0.01068832 0.76200002 0.01469644 1.739896e-38 312 229
-0.0093522798 0.76200002 0.01469644 1.6845787e-38 313 229
-0.0080162399 0.76200002 0.01469644 1.5649058e-38 314 229
-0.0066801999 0.76200002 0.01469644 1.5464667e-38 315 229
-0.0053441599 0.76200002 0.01469644 1.4273326e-38 316 229
-0.0040081199 0.76200002 0.01469644 1.4181131e-38 317 229
-0.00267208 0.76200002 0.01469644 1.3996746e-38 318 229
-0.00133604 0.76200002 0.01469644 1.3812354e-38 319 229
0 0.76200002 0.01469644 1.4452332e-38 320 229
0.0013395466 0.764 0.014735013 1.4452332e-38 321 229
0.0026790933 0.764 0.014735013 1.4910792e-38 322 229
0.0040186401 0.764 0.014735013 1.4633847e-38 323 229
0.0053581866 0.764 0.014735013 1.4723514e-38 324 229
0.006697733 0.764 0.014735013 1.463096e-38 325 229
0.0080372803 0.764 0.014735013 1.4263603e-38 326 229
0.0094013726 0.76599997 0.014773586 1.4171407e-38 327 229
0.010744425 0.76599997 0.014773586 1.3710785e-38 328 229
0.012087479 0.76599997 0.014773586 1.3526394e-38 329 229
0.013430533 0.76599997 0.014773586 1.2882473e-38 330 229
0.014792874 0.76700002 0.014792874 1.2697722e-38 331 229
0.01613768 0.76700002 0.014792874 1.2330031e-38 332 229
0.017528072 0.76899999 0.014831445 1.2053804e-38 333 229
0.018876385 0.76899999 0.014831445 1.1778306e-38 334 229
0.020277301 0.77100003 0.01487002 1.1501718e-38 335 229
0.021685226 0.773 0.014908593 1.1042561e-38 336 229
0.02307036 0.77399999 0.014927879 1.1042561e-38 337 229
0.024490559 0.77600002 0.014966453 9.573587e-39 338 229
0.025917772 0.778 0.015005025 8.559075e-39 339 229
0.027281865 0.778 0.015005025 7.5741009e-39 340 229
0.028645959 0.778 0.015005025 1.3751567e-38 341 229
-0.036641158 0.77399999 0.013570799 1.6408301e-38 293 230
-0.035238493 0.773 0.013553266 1.5840677e-38 294 230
-0.033883166 0.773 0.013553266 1.5471895e-38 295 230
-0.032443684 0.77100003 0.013518199 1.6939424e-38 296 230
-0.031011207 0.76899999 0.013483133 1.6939424e-38 297 230
-0.02966289 0.76899999 0.013483133 1.7397509e-38 298 230
-0.02824094 0.76700002 0.013448066 1.7397509e-38 299 230
-0.026896132 0.76700002 0.013448066 1.758368e-38 300 230
-0.025518013 0.76599997 0.013430533 1.7768071e-38 301 230
-0.024174958 0.76599997 0.013430533 1.7953538e-38 302 230
-0.022772292 0.764 0.013395466 1.8137929e-38 303 230
-0.02137664 0.76200002 0.0133604 1.7770241e-38 304 230
-0.0200406 0.76200002 0.0133604 1.7678046e-38 305 230
-0.018753653 0.764 0.013395466 1.7677342e-38 306 230
-0.01736852 0.76200002 0.0133604 1.7769538e-38 307 230
-0.01603248 0.76200002 0.0133604 1.786138e-38 308 230
-0.01469644 0.76200002 0.0133604 1.7953576e-38 309 230
-0.0133604 0.76200002 0.0133604 1.7678065e-38 310 230
-0.01202436 0.76200002 0.0133604 1.7493674e-38 311 230
-0.01068832 0.76200002 0.0133604 1.7216011e-38 312 230
-0.0093522798 0.76200002 0.0133604 1.5925272e-38 313 230
-0.0080162399 0.76200002 0.0133604 1.4641023e-38 314 230
-0.0066801999 0.76200002 0.0133604 1.4733218e-38 315 230
-0.0053441599 0.76200002 0.0133604 1.3541156e-38 316 230
-0.0040081199 0.76200002 0.0133604 1.3448961e-38 317 230
-0.00267208 0.76200002 0.0133604 1.2989071e-38 318 230
-0.00133604 0.76200002 0.0133604 1.2436256e-38 319 230
0 0.76200002 0.0133604 1.2707098e-38 320 230
0.00133604 0.76200002 0.0133604 1.2891489e-38 321 230
0.00267208 0.76200002 0.0133604 1.4450537e-38 322 230
0.0040081199 0.76200002 0.0133604 1.4450537e-38 323 230
0.0053441599 0.76200002 0.0133604 1.4448367e-38 324 230
0.006697733 0.764 0.013395466 1.4356171e-38 325 230
0.0080372803 0.764 0.013395466 1.4263605e-38 326 230
0.0093768267 0.764 0.013395466 1.4079214e-38 327 230
0.010744425 0.76599997 0.013430533 1.3710788e-38 328 230
0.012087479 0.76599997 0.013430533 1.3526038e-38 329 230
0.013430533 0.76599997 0.013430533 1.3157981e-38 330 230
0.014773586 0.76599997 0.013430533 1.3065785e-38 331 230
0.01613768 0.76700002 0.013448066 1.2421508e-38 332 230
0.017482487 0.76700002 0.013448066 1.2237116e-38 333 230
0.018876385 0.76899999 0.013483133 1.1778306e-38 334 230
0.0202247 0.76899999 0.013483133 1.1501718e-38 335 230
0.021629119 0.77100003 0.013518199 1.1042556e-38 336 230
0.02307036 0.77399999 0.013570799 1.1134751e-38 337 230
0.024490559 0.77600002 0.013605867 1.040152e-38 338 230
0.025851147 0.77600002 0.013605867 9.018586e-39 339 230
0.027211733 0.77600002 0.013605867 7.6518842e-39 340 230
0.028572321 0.77600002 0.013605867 1.3736796e-38 341 230
-0.036641158 0.77399999 0.01221372 1.5023919e-38 293 231
-0.035238493 0.773 0.012197939 1.5836707e-38 294 231
-0.033883166 0.773 0.012197939 1.60211e-38 295 231
-0.032443684 0.77100003 0.01216638 1.7214919e-38 296 231
-0.031011207 0.76899999 0.012134819 1.7122364e-38 297 231
-0.02966289 0.76899999 0.012134819 1.7214549e-38 298 231
-0.02824094 0.76700002 0.01210326 1.7306746e-38 299 231
-0.026896132 0.76700002 0.01210326 1.7492929e-38 300 231
-0.025518013 0.76599997 0.012087479 1.7585124e-38 301 231
-0.024111839 0.764 0.01205592 1.7770589e-38 302 231
-0.022772292 0.764 0.01205592 1.7862785e-38 303 231
-0.02137664 0.76200002 0.01202436 1.7770239e-38 304 231
-0.0200406 0.76200002 0.01202436 1.7770239e-38 305 231
-0.01870456 0.76200002 0.01202436 1.7586223e-38 306 231
-0.01736852 0.76200002 0.01202436 1.7586223e-38 307 231
-0.01603248 0.76200002 0.01202436 1.7678068e-38 308 231
-0.014677152 0.76099998 0.012008579 1.7862099e-38 309 231
-0.013342866 0.76099998 0.012008579 1.7494396e-38 310 231
-0.012008579 0.76099998 0.012008579 1.721781e-38 311 231
-0.010674292 0.76099998 0.012008579 1.7306765e-38 312 231
-0.0093400059 0.76099998 0.012008579 1.6016026e-38 313 231
-0.0080057196 0.76099998 0.012008579 1.4091439e-38 314 231
-0.0066801999 0.76200002 0.01202436 1.4183635e-38 315 231
-0.0053441599 0.76200002 0.01202436 1.2441641e-38 316 231
-0.0040081199 0.76200002 0.01202436 1.2533837e-38 317 231
-0.00267208 0.76200002 0.01202436 1.2255103e-38 318 231
-0.00133604 0.76200002 0.01202436 1.1610093e-38 319 231
0 0.76099998 0.012008579 1.1879862e-38 320 231
0.0013342865 0.76099998 0.012008579 1.2248285e-38 321 231
0.0026685731 0.76099998 0.012008579 1.4082842e-38 322 231
0.0040081199 0.76200002 0.01202436 1.4082842e-38 323 231
0.0053441599 0.76200002 0.01202436 1.4356537e-38 324 231
0.006697733 0.764 0.01205592 1.408031e-38 325 231
0.0080372803 0.764 0.01205592 1.3895193e-38 326 231
0.0093768267 0.764 0.01205592 1.3802997e-38 327 231
0.010716373 0.764 0.01205592 1.3617883e-38 328 231
0.012087479 0.76599997 0.012087479 1.3525687e-38 329 231
0.013395466 0.764 0.01205592 1.3157628e-38 330 231
0.014735013 0.764 0.01205592 1.3065432e-38 331 231
0.016116638 0.76599997 0.012087479 1.2605176e-38 332 231
0.017459691 0.76599997 0.012087479 1.251298e-38 333 231
0.018827293 0.76700002 0.01210326 1.1961255e-38 334 231
0.020172099 0.76700002 0.01210326 1.1776863e-38 335 231
0.021629119 0.77100003 0.01216638 1.1225857e-38 336 231
0.023040552 0.773 0.012197939 1.1410249e-38 337 231
0.024490559 0.77600002 0.01224528 1.0494054e-38 338 231
0.025851147 0.77600002 0.01224528 9.8486843e-39 339 231
0.027211733 0.77600002 0.01224528 8.6555894e-39 340 231
0.028572321 0.77600002 0.01224528 1.243561e-38 341 231
0.030087199 0.77999997 0.012308398 1.3742579e-38 342 231
-0.037998237 0.77399999 0.01085664 1.5666755e-38 292 232
-0.036641158 0.77399999 0.01085664 1.4376016e-38 293 232
-0.035238493 0.773 0.010842613 1.6111481e-38 294 232
-0.033883166 0.773 0.010842613 1.6388068e-38 295 232
-0.032443684 0.77100003 0.01081456 1.721527e-38 296 232
-0.031011207 0.76899999 0.010786506 1.7123073e-38 297 232
-0.029585747 0.76700002 0.010758453 1.7214897e-38 298 232
-0.02824094 0.76700002 0.010758453 1.7214897e-38 299 232
-0.026861066 0.76599997 0.010744425 1.7584761e-38 300 232
-0.025518013 0.76599997 0.010744425 1.7953185e-38 301 232
-0.024111839 0.764 0.010716373 1.7955705e-38 302 232
-0.022772292 0.764 0.010716373 1.7955705e-38 303 232
-0.02137664 0.76200002 0.01068832 1.7679125e-38 304 232
-0.0200406 0.76200002 0.01068832 1.7494375e-38 305 232
-0.018680012 0.76099998 0.010674292 1.7494746e-38 306 232
-0.017345725 0.76099998 0.010674292 1.7586942e-38 307 232
-0.016011439 0.76099998 0.010674292 1.7586235e-38 308 232
-0.014677152 0.76099998 0.010674292 1.767879e-38 309 232
-0.013342866 0.76099998 0.010674292 1.7493687e-38 310 232
-0.012008579 0.76099998 0.010674292 1.721746e-38 311 232
-0.010674292 0.76099998 0.010674292 1.7123803e-38 312 232
-0.0093400059 0.76099998 0.010674292 1.509514e-38 313 232
-0.0080057196 0.76099998 0.010674292 1.3169107e-38 314 232
-0.0066714329 0.76099998 0.010674292 1.3076912e-38 315 232
-0.0053441599 0.76200002 0.01068832 1.2624238e-38 316 232
-0.0040081199 0.76200002 0.01068832 1.2993022e-38 317 232
-0.0026685731 0.76099998 0.010674292 1.2072157e-38 318 232
-0.0013342865 0.76099998 0.010674292 1.0689222e-38 319 232
0 0.76099998 0.010674292 1.1692944e-38 320 232
0.0013342865 0.76099998 0.010674292 1.1877694e-38 321 232
0.0026685731 0.76099998 0.010674292 1.4175743e-38 322 232
0.0040028598 0.76099998 0.010674292 1.4267938e-38 323 232
0.0053371461 0.76099998 0.010674292 1.4078874e-38 324 232
0.006697733 0.764 0.010716373 1.3802647e-38 325 232
0.0080372803 0.764 0.010716373 1.3709732e-38 326 232
0.0093768267 0.764 0.010716373 1.3617535e-38 327 232
0.010716373 0.764 0.010716373 1.3526053e-38 328 232
0.01205592 0.764 0.010716373 1.3433857e-38 329 232
0.013395466 0.764 0.010716373 1.2975034e-38 330 232
0.014735013 0.764 0.010716373 1.2790643e-38 331 232
0.016074561 0.764 0.010716373 1.2605895e-38 332 232
0.017459691 0.76599997 0.010744425 1.2237113e-38 333 232
0.018802745 0.76599997 0.010744425 1.2144568e-38 334 232
0.020172099 0.76700002 0.010758453 1.2052372e-38 335 232
0.021573013 0.76899999 0.010786506 1.1226926e-38 336 232
0.022921326 0.76899999 0.010786506 1.1042895e-38 337 232
0.02442744 0.77399999 0.01085664 1.0676997e-38 338 232
0.025784519 0.77399999 0.01085664 1.0676997e-38 339 232
0.027211733 0.77600002 0.010884693 9.2058737e-39 340 232
0.028645959 0.778 0.010912746 9.4824606e-39 341 232
0.030087199 0.77999997 0.010940799 1.1070701e-38 342 232
-0.037998237 0.77399999 0.0094995592 1.5570227e-38 292 233
-0.036641158 0.77399999 0.0094995592 1.4647912e-38 293 233
-0.035238493 0.773 0.0094872871 1.6848673e-38 294 233
-0.033883166 0.773 0.0094872871 1.6572088e-38 295 233
-0.032443684 0.77100003 0.0094627403 1.6939758e-38 296 233
-0.031011207 0.76899999 0.0094381925 1.6939758e-38 297 233
-0.029585747 0.76700002 0.0094136465 1.7214547e-38 298 233
-0.02824094 0.76700002 0.0094136465 1.7399298e-38 299 233
-0.026861066 0.76599997 0.0094013726 1.7217436e-38 300 233
-0.025518013 0.76599997 0.0094013726 1.7494024e-38 301 233
-0.024111839 0.764 0.0093768267 1.7587295e-38 302 233
-0.02271268 0.76200002 0.0093522798 1.767949e-38 303 233
-0.02137664 0.76200002 0.0093522798 1.758622e-38 304 233
-0.0200406 0.76200002 0.0093522798 1.758622e-38 305 233
-0.018680012 0.76099998 0.0093400059 1.7218532e-38 306 233
-0.017345725 0.76099998 0.0093400059 1.7310728e-38 307 233
-0.016011439 0.76099998 0.0093400059 1.7678081e-38 308 233
-0.014677152 0.76099998 0.0093400059 1.7585885e-38 309 233
-0.013342866 0.76099998 0.0093400059 1.7494393e-38 310 233
-0.012008579 0.76099998 0.0093400059 1.712561e-38 311 233
-0.010674292 0.76099998 0.0093400059 1.7124869e-38 312 233
-0.0093400059 0.76099998 0.0093400059 1.5926326e-38 313 233
-0.0080057196 0.76099998 0.0093400059 1.445229e-38 314 233
-0.0066714329 0.76099998 0.0093400059 1.4544486e-38 315 233
-0.0053441599 0.76200002 0.0093522798 1.2438424e-38 316 233
-0.0040028598 0.76099998 0.0093400059 1.2438424e-38 317 233
-0.0026685731 0.76099998 0.0093400059 1.1973145e-38 318 233
-0.00133078 0.759 0.00931546 1.105119e-38 319 233
0 0.759 0.00931546 1.2243956e-38 320 233
0.00133078 0.759 0.00931546 1.2889325e-38 321 233
0.0026685731 0.76099998 0.0093400059 1.5004054e-38 322 233
0.0040028598 0.76099998 0.0093400059 1.4819663e-38 323 233
0.0053371461 0.76099998 0.0093400059 1.4722784e-38 324 233
0.0066714329 0.76099998 0.0093400059 1.4169612e-38 325 233
0.0080057196 0.76099998 0.0093400059 1.4168889e-38 326 233
0.0093522798 0.76200002 0.0093522798 1.4168889e-38 327 233
0.01068832 0.76200002 0.0093522798 1.3801904e-38 328 233
0.01202436 0.76200002 0.0093522798 1.3617154e-38 329 233
0.0133604 0.76200002 0.0093522798 1.3433126e-38 330 233
0.01469644 0.76200002 0.0093522798 1.3248375e-38 331 233
0.016074561 0.764 0.0093768267 1.2788119e-38 332 233
0.017414106 0.764 0.0093768267 1.2788119e-38 333 233
0.018753653 0.764 0.0093768267 1.2420782e-38 334 233
0.020093199 0.764 0.0093768267 1.2144555e-38 335 233
0.021516906 0.76700002 0.0094136465 1.1684308e-38 336 233
0.022921326 0.76899999 0.0094381925 1.1684308e-38 337 233
0.024395877 0.773 0.0094872871 1.0675214e-38 338 233
0.025751207 0.773 0.0094872871 1.0952161e-38 339 233
0.027141599 0.77399999 0.0094995592 1.012351e-38 340 233
0.028572321 0.77600002 0.009524107 9.2015549e-39 341 233
0.03001005 0.778 0.0095486529 1.1333601e-38 342 233
-0.039355319 0.77399999 0.0081424797 1.5762581e-38 291 234
-0.037998237 0.77399999 0.0081424797 1.5933239e-38 292 234
-0.036641158 0.77399999 0.0081424797 1.5380065e-38 293 234
-0.03528408 0.77399999 0.0081424797 1.6754663e-38 294 234
-0.033883166 0.773 0.0081319595 1.6570273e-38 295 234
-0.032359518 0.76899999 0.0080898795 1.7030153e-38 296 234
-0.030930554 0.76700002 0.00806884 1.7122348e-38 297 234
-0.029585747 0.76700002 0.00806884 1.7214903e-38 298 234
-0.028204117 0.76599997 0.0080583189 1.7214903e-38 299 234
-0.026861066 0.76599997 0.0080583189 1.7492578e-38 300 234
-0.025451386 0.764 0.0080372803 1.7676971e-38 301 234
-0.024111839 0.764 0.0080372803 1.7769891e-38 302 234
-0.022682872 0.76099998 0.0080057196 1.7769891e-38 303 234
-0.021348584 0.76099998 0.0080057196 1.7676986e-38 304 234
-0.020014299 0.76099998 0.0080057196 1.7400758e-38 305 234
-0.018680012 0.76099998 0.0080057196 1.7400405e-38 306 234
-0.017345725 0.76099998 0.0080057196 1.7676633e-38 307 234
-0.016011439 0.76099998 0.0080057196 1.7493677e-38 308 234
-0.014677152 0.76099998 0.0080057196 1.7493677e-38 309 234
-0.013342866 0.76099998 0.0080057196 1.7218166e-38 310 234
-0.012008579 0.76099998 0.0080057196 1.7218166e-38 311 234
-0.010674292 0.76099998 0.0080057196 1.6850456e-38 312 234
-0.0093400059 0.76099998 0.0080057196 1.657351e-38 313 234
-0.0080057196 0.76099998 0.0080057196 1.6292963e-38 314 234
-0.0066714329 0.76099998 0.0080057196 1.5186255e-38 315 234
-0.0053441599 0.76200002 0.0080162399 1.2339725e-38 316 234
-0.0040028598 0.76099998 0.0080057196 1.141741e-38 317 234
-0.0026685731 0.76099998 0.0080057196 1.2239284e-38 318 234
-0.00133078 0.759 0.0079846792 1.2792456e-38 319 234
0 0.75700003 0.0079636406 1.4269739e-38 320 234
0.0013272733 0.75700003 0.0079636406 1.4730717e-38 321 234
0.00266156 0.759 0.0079846792 1.5281001e-38 322 234
0.0039923396 0.759 0.0079846792 1.5096609e-38 323 234
0.0053231199 0.759 0.0079846792 1.4724947e-38 324 234
0.0066714329 0.76099998 0.0080057196 1.444872e-38 325 234
0.0080057196 0.76099998 0.0080057196 1.4263603e-38 326 234
0.0093400059 0.76099998 0.0080057196 1.4171407e-38 327 234
0.010674292 0.76099998 0.0080057196 1.3894817e-38 328 234
0.01202436 0.76200002 0.0080162399 1.3618589e-38 329 234
0.0133604 0.76200002 0.0080162399 1.3341293e-38 330 234
0.01469644 0.76200002 0.0080162399 1.3249098e-38 331 234
0.01603248 0.76200002 0.0080162399 1.2881037e-38 332 234
0.01736852 0.76200002 0.0080162399 1.260481e-38 333 234
0.018753653 0.764 0.0080372803 1.2054157e-38 334 234
0.020093199 0.764 0.0080372803 1.1869407e-38 335 234
0.021488851 0.76599997 0.0080583189 1.1592113e-38 336 234
0.022861714 0.76700002 0.00806884 1.1315886e-38 337 234
0.02433276 0.77100003 0.0081109209 1.0857797e-38 338 234
0.02568458 0.77100003 0.0081109209 1.0949993e-38 339 234
0.027141599 0.77399999 0.0081424797 1.067665e-38 340 234
0.028572321 0.77600002 0.0081635201 1.0215312e-38 341 234
0.03001005 0.778 0.0081845606 1.0686411e-38 342 234
-0.039304473 0.773 0.0067766332 1.4748424e-38 291 235
-0.037949149 0.773 0.0067766332 1.5655563e-38 292 235
-0.036593821 0.773 0.0067766332 1.5286782e-38 293 235
-0.03528408 0.77399999 0.0067853997 1.6663543e-38 294 235
-0.033883166 0.773 0.0067766332 1.6479152e-38 295 235
-0.032359518 0.76899999 0.0067415666 1.6754292e-38 296 235
-0.030930554 0.76700002 0.006724033 1.6846487e-38 297 235
-0.029585747 0.76700002 0.006724033 1.7121998e-38 298 235
-0.028204117 0.76599997 0.0067152665 1.7306749e-38 299 235
-0.026861066 0.76599997 0.0067152665 1.7308557e-38 300 235
-0.025451386 0.764 0.006697733 1.7401111e-38 301 235
-0.024017159 0.76099998 0.0066714329 1.7584791e-38 302 235
-0.022682872 0.76099998 0.0066714329 1.7584791e-38 303 235
-0.021348584 0.76099998 0.0066714329 1.7400405e-38 304 235
-0.020014299 0.76099998 0.0066714329 1.7216014e-38 305 235
-0.018680012 0.76099998 0.0066714329 1.7032348e-38 306 235
-0.017300138 0.759 0.0066538998 1.721638e-38 307 235
-0.015969358 0.759 0.0066538998 1.7033067e-38 308 235
-0.014638579 0.759 0.0066538998 1.7033067e-38 309 235
-0.0133078 0.759 0.0066538998 1.7033418e-38 310 235
-0.01197702 0.759 0.0066538998 1.7033418e-38 311 235
-0.01064624 0.759 0.0066538998 1.7034118e-38 312 235
-0.0093400059 0.76099998 0.0066714329 1.6941923e-38 313 235
-0.0080057196 0.76099998 0.0066714329 1.6757166e-38 314 235
-0.0066714329 0.76099998 0.0066714329 1.5373871e-38 315 235
-0.0053371461 0.76099998 0.0066714329 1.4084587e-38 316 235
-0.0040028598 0.76099998 0.0066714329 1.3254467e-38 317 235
-0.00266156 0.759 0.0066538998 1.3805867e-38 318 235
-0.0013272733 0.75700003 0.0066363667 1.4543434e-38 319 235
0 0.75700003 0.0066363667 1.5281367e-38 320 235
0.0013272733 0.75700003 0.0066363667 1.5281367e-38 321 235
0.0026545466 0.75700003 0.0066363667 1.5279918e-38 322 235
0.0039818203 0.75700003 0.0066363667 1.4911496e-38 323 235
0.0053090933 0.75700003 0.0066363667 1.5092643e-38 324 235
0.0066538998 0.759 0.0066538998 1.5000089e-38 325 235
0.0079846792 0.759 0.0066538998 1.4907525e-38 326 235
0.00931546 0.759 0.0066538998 1.4723132e-38 327 235
0.01064624 0.759 0.0066538998 1.4169962e-38 328 235
0.01202436 0.76200002 0.0066801999 1.380118e-38 329 235
0.0133604 0.76200002 0.0066801999 1.3524243e-38 330 235
0.01469644 0.76200002 0.0066801999 1.3339491e-38 331 235
0.01603248 0.76200002 0.0066801999 1.2972869e-38 332 235
0.01736852 0.76200002 0.0066801999 1.2880674e-38 333 235
0.01870456 0.76200002 0.0066801999 1.2420779e-38 334 235
0.0200406 0.76200002 0.0066801999 1.2052355e-38 335 235
0.021432746 0.764 0.006697733 1.1683945e-38 336 235
0.022772292 0.764 0.006697733 1.1499554e-38 337 235
0.024206521 0.76700002 0.006724033 1.0857797e-38 338 235
0.025551327 0.76700002 0.006724033 1.0949993e-38 339 235
0.027106533 0.773 0.0067766332 1.0492624e-38 340 235
0.028498679 0.77399999 0.0067853997 1.0308592e-38 341 235
0.029932907 0.77600002 0.0068029333 1.0037442e-38 342 235
-0.039304473 0.773 0.0054213065 1.3918293e-38 291 236
-0.037949149 0.773 0.0054213065 1.5745961e-38 292 236
-0.036593821 0.773 0.0054213065 1.5469375e-38 293 236
-0.03514732 0.77100003 0.0054072798 1.6570276e-38 294 236
-0.033707831 0.76899999 0.0053932532 1.647808e-38 295 236
-0.032359518 0.76899999 0.0053932532 1.6845408e-38 296 236
-0.030930554 0.76700002 0.0053792265 1.6937604e-38 297 236
-0.029547172 0.76599997 0.0053722127 1.7121635e-38 298 236
-0.028204117 0.76599997 0.0053722127 1.7490059e-38 299 236
-0.026790932 0.764 0.0053581866 1.7216361e-38 300 236
-0.025451386 0.764 0.0053581866 1.7308557e-38 301 236
-0.024017159 0.76099998 0.0053371461 1.7400758e-38 302 236
-0.022682872 0.76099998 0.0053371461 1.7400758e-38 303 236
-0.021348584 0.76099998 0.0053371461 1.7032699e-38 304 236
-0.020014299 0.76099998 0.0053371461 1.6848307e-38 305 236
-0.01863092 0.759 0.0053231199 1.7030901e-38 306 236
-0.017300138 0.759 0.0053231199 1.7030901e-38 307 236
-0.015969358 0.759 0.0053231199 1.6939421e-38 308 236
-0.014638579 0.759 0.0053231199 1.6939421e-38 309 236
-0.0133078 0.759 0.0053231199 1.6940503e-38 310 236
-0.01197702 0.759 0.0053231199 1.7032699e-38 311 236
-0.01064624 0.759 0.0053231199 1.7034139e-38 312 236
-0.00931546 0.759 0.0053231199 1.7034139e-38 313 236
-0.0079846792 0.759 0.0053231199 1.6848305e-38 314 236
-0.0066714329 0.76099998 0.0053371461 1.6387327e-38 315 236
-0.0053371461 0.76099998 0.0053371461 1.611254e-38 316 236
-0.0040028598 0.76099998 0.0053371461 1.6019986e-38 317 236
-0.00266156 0.759 0.0053231199 1.6017471e-38 318 236
-0.0013272733 0.75700003 0.0053090933 1.5740525e-38 319 236
0 0.755 0.0052950666 1.5740525e-38 320 236
0.0013237667 0.755 0.0052950666 1.5372101e-38 321 236
0.0026545466 0.75700003 0.0053090933 1.5369963e-38 322 236
0.0039818203 0.75700003 0.0053090933 1.5093736e-38 323 236
0.0053090933 0.75700003 0.0053090933 1.5185209e-38 324 236
0.0066363667 0.75700003 0.0053090933 1.5000817e-38 325 236
0.0079846792 0.759 0.0053231199 1.4907893e-38 326 236
0.00931546 0.759 0.0053231199 1.4539469e-38 327 236
0.01064624 0.759 0.0053231199 1.4078493e-38 328 236
0.012008579 0.76099998 0.0053371461 1.3801904e-38 329 236
0.013342866 0.76099998 0.0053371461 1.334093e-38 330 236
0.014677152 0.76099998 0.0053371461 1.3248375e-38 331 236
0.01603248 0.76200002 0.0053441599 1.2606245e-38 332 236
0.01736852 0.76200002 0.0053441599 1.2330018e-38 333 236
0.01870456 0.76200002 0.0053441599 1.2237467e-38 334 236
0.0200406 0.76200002 0.0053441599 1.2053075e-38 335 236
0.02137664 0.76200002 0.0053441599 1.177686e-38 336 236
0.022772292 0.764 0.0053581866 1.1408079e-38 337 236
0.024206521 0.76700002 0.0053792265 1.1040391e-38 338 236
0.025551327 0.76700002 0.0053792265 1.1040391e-38 339 236
0.026966266 0.76899999 0.0053932532 1.0766696e-38 340 236
0.028498679 0.77399999 0.0054283198 1.1042924e-38 341 236
0.029932907 0.77600002 0.0054423464 9.2069597e-39 342 236
-0.0406598 0.773 0.0040659797 1.5946231e-38 290 237
-0.039304473 0.773 0.0040659797 1.3272558e-38 291 237
-0.037949149 0.773 0.0040659797 1.565232e-38 292 237
-0.036499143 0.77100003 0.0040554604 1.5560125e-38 293 237
-0.03514732 0.77100003 0.0040554604 1.6477724e-38 294 237
-0.033707831 0.76899999 0.0040449398 1.6385529e-38 295 237
-0.03227536 0.76700002 0.00403442 1.6661377e-38 296 237
-0.030890226 0.76599997 0.0040291594 1.6661377e-38 297 237
-0.029547172 0.76599997 0.0040291594 1.693796e-38 298 237
-0.028130481 0.764 0.0040186401 1.7122351e-38 299 237
-0.026790932 0.764 0.0040186401 1.7306759e-38 300 237
-0.025351444 0.76099998 0.0040028598 1.7399313e-38 301 237
-0.023954039 0.759 0.0039923396 1.7217086e-38 302 237
-0.02262326 0.759 0.0039923396 1.7032696e-38 303 237
-0.02129248 0.759 0.0039923396 1.7031254e-38 304 237
-0.020014299 0.76099998 0.0040028598 1.6846503e-38 305 237
-0.01863092 0.759 0.0039923396 1.6845789e-38 306 237
-0.017300138 0.759 0.0039923396 1.6845789e-38 307 237
-0.015927281 0.75700003 0.0039818203 1.6753959e-38 308 237
-0.014600007 0.75700003 0.0039818203 1.6846155e-38 309 237
-0.013272733 0.75700003 0.0039818203 1.6847952e-38 310 237
-0.01194546 0.75700003 0.0039818203 1.7032702e-38 311 237
-0.01064624 0.759 0.0039923396 1.7125616e-38 312 237
-0.0092909131 0.75700003 0.0039818203 1.6940866e-38 313 237
-0.0079636406 0.75700003 0.0039818203 1.7123097e-38 314 237
-0.0066363667 0.75700003 0.0039818203 1.7123097e-38 315 237
-0.0053090933 0.75700003 0.0039818203 1.6389847e-38 316 237
-0.0039923396 0.759 0.0039923396 1.6113259e-38 317 237
-0.0026545466 0.75700003 0.0039818203 1.601854e-38 318 237
-0.0013237667 0.755 0.0039712996 1.5465367e-38 319 237
0 0.755 0.0039712996 1.5648329e-38 320 237
0.0013237667 0.755 0.0039712996 1.5372101e-38 321 237
0.0026475333 0.755 0.0039712996 1.5094455e-38 322 237
0.0039712996 0.755 0.0039712996 1.5094455e-38 323 237
0.0053090933 0.75700003 0.0039818203 1.5002612e-38 324 237
0.0066363667 0.75700003 0.0039818203 1.4726026e-38 325 237
0.0079636406 0.75700003 0.0039818203 1.490753e-38 326 237
0.0092909131 0.75700003 0.0039818203 1.4722779e-38 327 237
0.010618187 0.75700003 0.0039818203 1.3895173e-38 328 237
0.012008579 0.76099998 0.0040028598 1.3526391e-38 329 237
0.013342866 0.76099998 0.0040028598 1.3157978e-38 330 237
0.014677152 0.76099998 0.0040028598 1.2973586e-38 331 237
0.016011439 0.76099998 0.0040028598 1.2604454e-38 332 237
0.017345725 0.76099998 0.0040028598 1.2604454e-38 333 237
0.018680012 0.76099998 0.0040028598 1.2512977e-38 334 237
0.0200406 0.76200002 0.0040081199 1.2236751e-38 335 237
0.02137664 0.76200002 0.0040081199 1.1960172e-38 336 237
0.02271268 0.76200002 0.0040081199 1.1776141e-38 337 237
0.024111839 0.764 0.0040186401 1.1133305e-38 338 237
0.025518013 0.76599997 0.0040291594 1.1041109e-38 339 237
0.026861066 0.76599997 0.0040291594 1.0673781e-38 340 237
0.028314579 0.76899999 0.0040449398 1.0950008e-38 341 237
0.029855758 0.77399999 0.0040712398 9.2969903e-39 342 237
0.031293493 0.77600002 0.0040817601 9.2047947e-39 343 237
-0.0406598 0.773 0.0027106532 1.5944421e-38 290 238
-0.039304473 0.773 0.0027106532 1.3270746e-38 291 238
-0.037850961 0.77100003 0.0027036399 1.5560831e-38 292 238
-0.036499143 0.77100003 0.0027036399 1.5653027e-38 293 238
-0.035056144 0.76899999 0.0026966266 1.6294052e-38 294 238
-0.033620168 0.76700002 0.0026896133 1.6294052e-38 295 238
-0.03227536 0.76700002 0.0026896133 1.647735e-38 296 238
-0.030890226 0.76599997 0.0026861064 1.647735e-38 297 238
-0.029470026 0.764 0.0026790933 1.656955e-38 298 238
-0.028130481 0.764 0.0026790933 1.6661746e-38 299 238
-0.0267208 0.76200002 0.00267208 1.6937985e-38 300 238
-0.025351444 0.76099998 0.0026685731 1.7122016e-38 301 238
-0.023954039 0.759 0.00266156 1.7123815e-38 302 238
-0.02262326 0.759 0.00266156 1.703162e-38 303 238
-0.02129248 0.759 0.00266156 1.675431e-38 304 238
-0.020014299 0.76099998 0.0026685731 1.6570279e-38 305 238
-0.01863092 0.759 0.00266156 1.6661042e-38 306 238
-0.017300138 0.759 0.00266156 1.6661042e-38 307 238
-0.015927281 0.75700003 0.0026545466 1.6753604e-38 308 238
-0.014600007 0.75700003 0.0026545466 1.6845799e-38 309 238
-0.013272733 0.75700003 0.0026545466 1.6480261e-38 310 238
-0.01194546 0.75700003 0.0026545466 1.6664652e-38 311 238
-0.010618187 0.75700003 0.0026545466 1.6664658e-38 312 238
-0.0092909131 0.75700003 0.0026545466 1.6572462e-38 313 238
-0.0079636406 0.75700003 0.0026545466 1.6756122e-38 314 238
-0.0066363667 0.75700003 0.0026545466 1.6756122e-38 315 238
-0.0053090933 0.75700003 0.0026545466 1.6757175e-38 316 238
-0.0039818203 0.75700003 0.0026545466 1.6388752e-38 317 238
-0.0026545466 0.75700003 0.0026545466 1.6293685e-38 318 238
-0.0013237667 0.755 0.0026475333 1.5740512e-38 319 238
0 0.755 0.0026475333 1.5648335e-38 320 238
0.0013237667 0.755 0.0026475333 1.5371748e-38 321 238
0.0026475333 0.755 0.0026475333 1.5187354e-38 322 238
0.0039712996 0.755 0.0026475333 1.5095158e-38 323 238
0.0052950666 0.755 0.0026475333 1.4635985e-38 324 238
0.0066188332 0.755 0.0026475333 1.4266842e-38 325 238
0.0079425992 0.755 0.0026475333 1.4263608e-38 326 238
0.0092909131 0.75700003 0.0026545466 1.4078858e-38 327 238
0.010618187 0.75700003 0.0026545466 1.3710788e-38 328 238
0.012008579 0.76099998 0.0026685731 1.3433842e-38 329 238
0.0133078 0.759 0.00266156 1.3064711e-38 330 238
0.014638579 0.759 0.00266156 1.2972514e-38 331 238
0.016011439 0.76099998 0.0026685731 1.2512624e-38 332 238
0.017345725 0.76099998 0.0026685731 1.2512624e-38 333 238
0.018680012 0.76099998 0.0026685731 1.2420784e-38 334 238
0.020014299 0.76099998 0.0026685731 1.2144199e-38 335 238
0.021348584 0.76099998 0.0026685731 1.177686e-38 336 238
0.02271268 0.76200002 0.00267208 1.1684664e-38 337 238
0.024111839 0.764 0.0026790933 1.1316254e-38 338 238
0.025518013 0.76599997 0.0026861064 1.1224059e-38 339 238
0.026861066 0.76599997 0.0026861064 1.0581949e-38 340 238
0.02824094 0.76700002 0.0026896133 1.0674144e-38 341 238
0.02966289 0.76899999 0.0026966266 9.2058765e-39 342 238
