# .PCD v.7 - Point Cloud Data file format
FIELDS x y z rgb imX imY
SIZE 4 4 4 4 4 4
TYPE F F F F F F
COUNT 1 1 1 1 1 1
WIDTH 823
HEIGHT 1
VIEWPOINT 0 0 0 1 0 0 0
POINTS 823
DATA ascii
0.015795778 0.69300002 -0 1.2239267e-38 333 240
0.017035386 0.69400001 -0 1.1781533e-38 334 240
0.018304799 0.69599998 -0 1.1781533e-38 335 240
0.019553173 0.69700003 -0 1.1964495e-38 336 240
0.020805053 0.69800001 -0 1.2056691e-38 337 240
0.02202888 0.69800001 -0 1.0861382e-38 338 240
0.023252707 0.69800001 -0 8.3724584e-39 339 240
0.024441468 0.69700003 -0 6.454029e-39 340 240
0.025663542 0.69700003 -0 1.4382853e-38 341 240
-0.033137999 0.69999999 -0.0012273333 1.4370197e-38 293 241
-0.031910665 0.69999999 -0.0012273333 1.6208284e-38 294 241
-0.030683333 0.69999999 -0.0012273333 1.5931699e-38 295 241
-0.029455997 0.69999999 -0.0012273333 1.6207194e-38 296 241
-0.028148014 0.69800001 -0.0012238267 1.6207194e-38 297 241
-0.026924185 0.69800001 -0.0012238267 1.6114648e-38 298 241
-0.025663542 0.69700003 -0.0012220733 1.5930257e-38 299 241
-0.024441468 0.69700003 -0.0012220733 1.5927029e-38 300 241
-0.023119451 0.69400001 -0.0012168133 1.5834834e-38 301 241
-0.021902639 0.69400001 -0.0012168133 1.5741569e-38 302 241
-0.020685827 0.69400001 -0.0012168133 1.5833765e-38 303 241
-0.01944096 0.69300002 -0.00121506 1.5650092e-38 304 241
-0.0181733 0.69099998 -0.0012115532 1.528131e-38 305 241
-0.016888106 0.68800002 -0.0012062934 1.5003649e-38 306 241
-0.015681813 0.68800002 -0.0012062934 1.4819258e-38 307 241
-0.014475521 0.68800002 -0.0012062934 1.4357581e-38 308 241
-0.013269227 0.68800002 -0.0012062934 1.500295e-38 309 241
-0.012045399 0.68699998 -0.0012045399 1.4637052e-38 310 241
-0.010840859 0.68699998 -0.0012045399 1.4544856e-38 311 241
-0.0096363192 0.68699998 -0.0012045399 1.5095512e-38 312 241
-0.0084317802 0.68699998 -0.0012045399 1.5003316e-38 313 241
-0.0072272392 0.68699998 -0.0012045399 1.4912918e-38 314 241
-0.0060226996 0.68699998 -0.0012045399 1.5097309e-38 315 241
-0.0048181596 0.68699998 -0.0012045399 1.4915066e-38 316 241
-0.0036136196 0.68699998 -0.0012045399 1.4822871e-38 317 241
-0.0024090798 0.68699998 -0.0012045399 1.4545912e-38 318 241
-0.0012045399 0.68699998 -0.0012045399 1.3624315e-38 319 241
0 0.68699998 -0.0012045399 1.3713281e-38 320 241
0.0012045399 0.68699998 -0.0012045399 1.3252302e-38 321 241
0.0024090798 0.68699998 -0.0012045399 1.3434545e-38 322 241
0.0036188802 0.68800002 -0.0012062934 1.334235e-38 323 241
0.0048251734 0.68800002 -0.0012062934 1.3249798e-38 324 241
0.0060314666 0.68800002 -0.0012062934 1.3249798e-38 325 241
0.0072587994 0.69 -0.0012097999 1.2974292e-38 326 241
0.0084686 0.69 -0.0012097999 1.2974292e-38 327 241
0.0096783992 0.69 -0.0012097999 1.2698796e-38 328 241
0.01090398 0.69099998 -0.0012115532 1.2698796e-38 329 241
0.012115533 0.69099998 -0.0012115532 1.2239264e-38 330 241
0.013327086 0.69099998 -0.0012115532 1.2239264e-38 331 241
0.014538639 0.69099998 -0.0012115532 1.1872999e-38 332 241
0.015750192 0.69099998 -0.0012115532 1.1872999e-38 333 241
0.01701084 0.69300002 -0.00121506 1.1964843e-38 334 241
0.0182522 0.69400001 -0.0012168133 1.1872646e-38 335 241
0.019553173 0.69700003 -0.0012220733 1.1688627e-38 336 241
0.020775247 0.69700003 -0.0012220733 1.1596431e-38 337 241
0.02202888 0.69800001 -0.0012238267 1.1413482e-38 338 241
0.023252707 0.69800001 -0.0012238267 1.0768471e-38 339 241
0.024441468 0.69700003 -0.0012220733 9.1136753e-39 340 241
0.025663542 0.69700003 -0.0012220733 1.1695153e-38 341 241
0.026885614 0.69700003 -0.0012220733 1.3650736e-38 342 241
0.028107686 0.69700003 -0.0012220733 1.6785029e-38 343 241
-0.033137999 0.69999999 -0.0024546667 1.5288147e-38 293 242
-0.031910665 0.69999999 -0.0024546667 1.5839853e-38 294 242
-0.030683333 0.69999999 -0.0024546667 1.5839853e-38 295 242
-0.029371841 0.69800001 -0.0024476533 1.6022452e-38 296 242
-0.028107686 0.69700003 -0.0024441467 1.6022452e-38 297 242
-0.026885614 0.69700003 -0.0024441467 1.6113213e-38 298 242
-0.025626717 0.69599998 -0.0024406398 1.592918e-38 299 242
-0.0244064 0.69599998 -0.0024406398 1.6019225e-38 300 242
-0.023119451 0.69400001 -0.0024336267 1.5834834e-38 301 242
-0.021871079 0.69300002 -0.00243012 1.5926311e-38 302 242
-0.020656019 0.69300002 -0.00243012 1.5834115e-38 303 242
-0.01944096 0.69300002 -0.00243012 1.5650085e-38 304 242
-0.0181733 0.69099998 -0.0024231065 1.5189467e-38 305 242
-0.016888106 0.68800002 -0.0024125867 1.4819628e-38 306 242
-0.015659019 0.68699998 -0.0024090798 1.4174617e-38 307 242
-0.014454478 0.68699998 -0.0024090798 1.4173915e-38 308 242
-0.013249939 0.68699998 -0.0024090798 1.4357946e-38 309 242
-0.012045399 0.68699998 -0.0024090798 1.4175703e-38 310 242
-0.010840859 0.68699998 -0.0024090798 1.3899118e-38 311 242
-0.0096363192 0.68699998 -0.0024090798 1.4267549e-38 312 242
-0.0084317802 0.68699998 -0.0024090798 1.445194e-38 313 242
-0.0072272392 0.68699998 -0.0024090798 1.4638502e-38 314 242
-0.0060139326 0.68599999 -0.0024055731 1.509948e-38 315 242
-0.0048111463 0.68599999 -0.0024055731 1.4639926e-38 316 242
-0.00360836 0.68599999 -0.0024055731 1.4086752e-38 317 242
-0.0024055731 0.68599999 -0.0024055731 1.3900193e-38 318 242
-0.0012027866 0.68599999 -0.0024055731 1.3347019e-38 319 242
0 0.68599999 -0.0024055731 1.3436346e-38 320 242
0.0012027866 0.68599999 -0.0024055731 1.3251596e-38 321 242
0.0024090798 0.68699998 -0.0024090798 1.3159756e-38 322 242
0.0036136196 0.68699998 -0.0024090798 1.3067561e-38 323 242
0.0048181596 0.68699998 -0.0024090798 1.2881737e-38 324 242
0.0060314666 0.68800002 -0.0024125867 1.2881737e-38 325 242
0.0072377604 0.68800002 -0.0024125867 1.279027e-38 326 242
0.0084440531 0.68800002 -0.0024125867 1.2698075e-38 327 242
0.0096783992 0.69 -0.0024195998 1.2697722e-38 328 242
0.010888199 0.69 -0.0024195998 1.2697722e-38 329 242
0.012097999 0.69 -0.0024195998 1.2240339e-38 330 242
0.013327086 0.69099998 -0.0024231065 1.2240339e-38 331 242
0.014538639 0.69099998 -0.0024231065 1.1965547e-38 332 242
0.015750192 0.69099998 -0.0024231065 1.1965547e-38 333 242
0.01701084 0.69300002 -0.00243012 1.1506741e-38 334 242
0.0182522 0.69400001 -0.0024336267 1.1506741e-38 335 242
0.019525118 0.69599998 -0.0024406398 1.1413482e-38 336 242
0.020745439 0.69599998 -0.0024406398 1.1413482e-38 337 242
0.02199732 0.69700003 -0.0024441467 1.1230543e-38 338 242
0.023252707 0.69800001 -0.0024476533 1.1322738e-38 339 242
0.024476532 0.69800001 -0.0024476533 1.012421e-38 340 242
0.025663542 0.69700003 -0.0024441467 9.5710367e-39 341 242
0.026885614 0.69700003 -0.0024441467 1.0882326e-38 342 242
0.028107686 0.69700003 -0.0024441467 1.5860888e-38 343 242
-0.033137999 0.69999999 -0.0036819996 1.574766e-38 293 243
-0.031819493 0.69800001 -0.0036714801 1.5746588e-38 294 243
-0.030595668 0.69800001 -0.0036714801 1.5746588e-38 295 243
-0.02932976 0.69700003 -0.00366622 1.5837706e-38 296 243
-0.028067358 0.69599998 -0.0036609597 1.5745152e-38 297 243
-0.026847038 0.69599998 -0.0036609597 1.5836634e-38 298 243
-0.025553079 0.69400001 -0.0036504399 1.5836634e-38 299 243
-0.024336265 0.69400001 -0.0036504399 1.5927751e-38 300 243
-0.02308614 0.69300002 -0.0036451798 1.574372e-38 301 243
-0.021807959 0.69099998 -0.0036346598 1.5927029e-38 302 243
-0.020596405 0.69099998 -0.0036346598 1.5834834e-38 303 243
-0.019384852 0.69099998 -0.0036346598 1.5374577e-38 304 243
-0.018146999 0.69 -0.0036293997 1.4913601e-38 305 243
-0.01686356 0.68699998 -0.0036136196 1.4728139e-38 306 243
-0.015659019 0.68699998 -0.0036136196 1.4082769e-38 307 243
-0.014454478 0.68699998 -0.0036136196 1.4173536e-38 308 243
-0.013249939 0.68699998 -0.0036136196 1.408134e-38 309 243
-0.012045399 0.68699998 -0.0036136196 1.3529245e-38 310 243
-0.010840859 0.68699998 -0.0036136196 1.3344854e-38 311 243
-0.0096222926 0.68599999 -0.00360836 1.3161921e-38 312 243
-0.0084195063 0.68599999 -0.00360836 1.3623258e-38 313 243
-0.0071956799 0.68400002 -0.00359784 1.3809834e-38 314 243
-0.0059964 0.68400002 -0.00359784 1.473143e-38 315 243
-0.0047971201 0.68400002 -0.00359784 1.4546301e-38 316 243
-0.00359784 0.68400002 -0.00359784 1.3900931e-38 317 243
-0.0023985601 0.68400002 -0.00359784 1.3531057e-38 318 243
-0.00119928 0.68400002 -0.00359784 1.2978242e-38 319 243
0 0.68400002 -0.00359784 1.334415e-38 320 243
0.00119928 0.68400002 -0.00359784 1.31594e-38 321 243
0.0024055731 0.68599999 -0.00360836 1.3159038e-38 322 243
0.0036136196 0.68699998 -0.0036136196 1.2974286e-38 323 243
0.0048181596 0.68699998 -0.0036136196 1.2789545e-38 324 243
0.0060226996 0.68699998 -0.0036136196 1.2789545e-38 325 243
0.0072377604 0.68800002 -0.0036188802 1.2606601e-38 326 243
0.0084440531 0.68800002 -0.0036188802 1.2422211e-38 327 243
0.0096783992 0.69 -0.0036293997 1.2605526e-38 328 243
0.010888199 0.69 -0.0036293997 1.2605526e-38 329 243
0.012097999 0.69 -0.0036293997 1.2239988e-38 330 243
0.0133078 0.69 -0.0036293997 1.2332183e-38 331 243
0.014538639 0.69099998 -0.0036346598 1.1874798e-38 332 243
0.015750192 0.69099998 -0.0036346598 1.1874798e-38 333 243
0.016961746 0.69099998 -0.0036346598 1.1415625e-38 334 243
0.018225901 0.69300002 -0.0036451798 1.132307e-38 335 243
0.019469013 0.69400001 -0.0036504399 1.113833e-38 336 243
0.020745439 0.69599998 -0.0036609597 1.1230526e-38 337 243
0.021965759 0.69599998 -0.0036609597 1.123017e-38 338 243
0.023219392 0.69700003 -0.00366622 1.1414921e-38 339 243
0.024441468 0.69700003 -0.00366622 1.1230173e-38 340 243
0.025663542 0.69700003 -0.00366622 9.3862615e-39 341 243
0.026885614 0.69700003 -0.00366622 9.4003445e-39 342 243
0.028107686 0.69700003 -0.00366622 1.437855e-38 343 243
0.02932976 0.69700003 -0.00366622 1.6413008e-38 344 243
-0.034365334 0.69999999 -0.0049093333 1.5562543e-38 292 244
-0.033137999 0.69999999 -0.0049093333 1.5562543e-38 293 244
-0.031819493 0.69800001 -0.0048953067 1.5561477e-38 294 244
-0.030551834 0.69700003 -0.0048882933 1.5745508e-38 295 244
-0.029287677 0.69599998 -0.0048812795 1.5744433e-38 296 244
-0.028067358 0.69599998 -0.0048812795 1.5652238e-38 297 244
-0.026769891 0.69400001 -0.0048672534 1.5651884e-38 298 244
-0.025553079 0.69400001 -0.0048672534 1.5744439e-38 299 244
-0.024301201 0.69300002 -0.00486024 1.5744802e-38 300 244
-0.023019511 0.69099998 -0.0048462129 1.5560771e-38 301 244
-0.021807959 0.69099998 -0.0048462129 1.5834834e-38 302 244
-0.020566599 0.69 -0.0048391996 1.5650441e-38 303 244
-0.019356798 0.69 -0.0048391996 1.5465328e-38 304 244
-0.0180944 0.68800002 -0.0048251734 1.5189101e-38 305 244
-0.01686356 0.68699998 -0.0048181596 1.4637012e-38 306 244
-0.015659019 0.68699998 -0.0048181596 1.4083838e-38 307 244
-0.014454478 0.68699998 -0.0048181596 1.4082769e-38 308 244
-0.013230653 0.68599999 -0.0048111463 1.34374e-38 309 244
-0.012027865 0.68599999 -0.0048111463 1.2422545e-38 310 244
-0.010825079 0.68599999 -0.0048111463 1.1961573e-38 311 244
-0.0095942402 0.68400002 -0.0047971201 1.1594967e-38 312 244
-0.0083949603 0.68400002 -0.0047971201 1.2148141e-38 313 244
-0.0071851597 0.68300003 -0.0047901068 1.1873726e-38 314 244
-0.0059876335 0.68300003 -0.0047901068 1.2519095e-38 315 244
-0.0047901068 0.68300003 -0.0047901068 1.3072968e-38 316 244
-0.0035925799 0.68300003 -0.0047901068 1.3165165e-38 317 244
-0.0023950534 0.68300003 -0.0047901068 1.334595e-38 318 244
-0.0011975267 0.68300003 -0.0047901068 1.2976807e-38 319 244
0 0.68300003 -0.0047901068 1.3159756e-38 320 244
0.00119928 0.68400002 -0.0047971201 1.3159756e-38 321 244
0.0024055731 0.68599999 -0.0048111463 1.2883524e-38 322 244
0.00360836 0.68599999 -0.0048111463 1.2699131e-38 323 244
0.0048181596 0.68699998 -0.0048181596 1.2789542e-38 324 244
0.0060226996 0.68699998 -0.0048181596 1.2789542e-38 325 244
0.0072272392 0.68699998 -0.0048181596 1.2330371e-38 326 244
0.0084440531 0.68800002 -0.0048251734 1.2330371e-38 327 244
0.0096503468 0.68800002 -0.0048251734 1.2421132e-38 328 244
0.010888199 0.69 -0.0048391996 1.2513328e-38 329 244
0.012097999 0.69 -0.0048391996 1.2054873e-38 330 244
0.0133078 0.69 -0.0048391996 1.2239264e-38 331 244
0.014538639 0.69099998 -0.0048462129 1.1781528e-38 332 244
0.015750192 0.69099998 -0.0048462129 1.1966278e-38 333 244
0.016961746 0.69099998 -0.0048462129 1.123124e-38 334 244
0.018225901 0.69300002 -0.00486024 1.0955012e-38 335 244
0.01944096 0.69300002 -0.00486024 1.1045063e-38 336 244
0.020685827 0.69400001 -0.0048672534 1.1137258e-38 337 244
0.021902639 0.69400001 -0.0048672534 1.1413485e-38 338 244
0.023119451 0.69400001 -0.0048672534 1.1413485e-38 339 244
0.0244064 0.69599998 -0.0048812795 1.1322367e-38 340 244
0.025626717 0.69599998 -0.0048812795 1.0676997e-38 341 244
0.026885614 0.69700003 -0.0048882933 8.1038421e-39 342 244
0.028107686 0.69700003 -0.0048882933 1.0132146e-38 343 244
-0.035592664 0.69999999 -0.0061366665 1.4734988e-38 291 245
-0.034365334 0.69999999 -0.0061366665 1.5194136e-38 292 245
-0.033043321 0.69800001 -0.006119133 1.5101941e-38 293 245
-0.03177391 0.69700003 -0.0061103669 1.52849e-38 294 245
-0.030507999 0.69599998 -0.0061015999 1.52849e-38 295 245
-0.029287677 0.69599998 -0.0061015999 1.5467849e-38 296 245
-0.027986705 0.69400001 -0.0060840664 1.565224e-38 297 245
-0.026769891 0.69400001 -0.0060840664 1.5560768e-38 298 245
-0.02551626 0.69300002 -0.0060753003 1.5560768e-38 299 245
-0.024231065 0.69099998 -0.0060577663 1.5745155e-38 300 245
-0.023019511 0.69099998 -0.0060577663 1.5561124e-38 301 245
-0.021776399 0.69 -0.0060489997 1.5742635e-38 302 245
-0.020506985 0.68800002 -0.0060314666 1.5374212e-38 303 245
-0.019300694 0.68800002 -0.0060314666 1.5188748e-38 304 245
-0.0180944 0.68800002 -0.0060314666 1.5096553e-38 305 245
-0.016839013 0.68599999 -0.0060139326 1.4636647e-38 306 245
-0.015636226 0.68599999 -0.0060139326 1.4083476e-38 307 245
-0.01443344 0.68599999 -0.0060139326 1.4081325e-38 308 245
-0.01319208 0.68400002 -0.0059964 1.3435964e-38 309 245
-0.0119928 0.68400002 -0.0059964 1.2054861e-38 310 245
-0.01079352 0.68400002 -0.0059964 1.1777914e-38 311 245
-0.009566186 0.68199998 -0.005978866 1.1410252e-38 312 245
-0.0083704125 0.68199998 -0.005978866 1.1410252e-38 313 245
-0.00717464 0.68199998 -0.005978866 1.1042561e-38 314 245
-0.005978866 0.68199998 -0.005978866 1.1595375e-38 315 245
-0.0047901068 0.68300003 -0.0059876335 1.2241448e-38 316 245
-0.00358732 0.68199998 -0.005978866 1.2426199e-38 317 245
-0.0023915465 0.68199998 -0.005978866 1.2884634e-38 318 245
-0.0011957732 0.68199998 -0.005978866 1.2608047e-38 319 245
0 0.68199998 -0.005978866 1.270023e-38 320 245
0.0011975267 0.68300003 -0.0059876335 1.270023e-38 321 245
0.0023985601 0.68400002 -0.0059964 1.2608385e-38 322 245
0.00359784 0.68400002 -0.0059964 1.2423633e-38 323 245
0.0048111463 0.68599999 -0.0060139326 1.2789545e-38 324 245
0.0060139326 0.68599999 -0.0060139326 1.2605513e-38 325 245
0.0072272392 0.68699998 -0.0060226996 1.2513684e-38 326 245
0.0084317802 0.68699998 -0.0060226996 1.2237098e-38 327 245
0.0096363192 0.68699998 -0.0060226996 1.1961959e-38 328 245
0.010856641 0.68800002 -0.0060314666 1.1869763e-38 329 245
0.012062933 0.68800002 -0.0060314666 1.1503151e-38 330 245
0.013269227 0.68800002 -0.0060314666 1.1779378e-38 331 245
0.014517599 0.69 -0.0060489997 1.1413485e-38 332 245
0.015750192 0.69099998 -0.0060577663 1.1505682e-38 333 245
0.016961746 0.69099998 -0.0060577663 1.0955028e-38 334 245
0.0181733 0.69099998 -0.0060577663 1.0862832e-38 335 245
0.01944096 0.69300002 -0.0060753003 1.1045425e-38 336 245
0.020656019 0.69300002 -0.0060753003 1.1137621e-38 337 245
0.021902639 0.69400001 -0.0060840664 1.1138696e-38 338 245
0.023119451 0.69400001 -0.0060840664 1.1230893e-38 339 245
0.024336265 0.69400001 -0.0060840664 1.1230893e-38 340 245
0.025553079 0.69400001 -0.0060840664 1.1138696e-38 341 245
0.026885614 0.69700003 -0.0061103669 8.4690121e-39 342 245
0.028107686 0.69700003 -0.0061103669 6.4407083e-39 343 245
0.02932976 0.69700003 -0.0061103669 1.0147283e-38 344 245
-0.036872596 0.70099998 -0.0073745195 1.4824272e-38 290 246
-0.035592664 0.69999999 -0.0073639993 1.5009022e-38 291 246
-0.034267146 0.69800001 -0.0073429602 1.5193038e-38 292 246
-0.033043321 0.69800001 -0.0073429602 1.5100842e-38 293 246
-0.031728316 0.69599998 -0.0073219193 1.5100486e-38 294 246
-0.030420333 0.69400001 -0.0073008798 1.5193041e-38 295 246
-0.029203519 0.69400001 -0.0073008798 1.5467479e-38 296 246
-0.027986705 0.69400001 -0.0073008798 1.5651872e-38 297 246
-0.02673132 0.69300002 -0.0072903596 1.5560768e-38 298 246
-0.025442619 0.69099998 -0.0072693196 1.5745158e-38 299 246
-0.024195999 0.69 -0.0072587994 1.5838437e-38 300 246
-0.022986198 0.69 -0.0072587994 1.5653685e-38 301 246
-0.021713281 0.68800002 -0.0072377604 1.5650441e-38 302 246
-0.020506985 0.68800002 -0.0072377604 1.5189464e-38 303 246
-0.019272638 0.68699998 -0.0072272392 1.5187654e-38 304 246
-0.0179892 0.68400002 -0.0071956799 1.5002907e-38 305 246
-0.016789921 0.68400002 -0.0071956799 1.4817801e-38 306 246
-0.01559064 0.68400002 -0.0071956799 1.4172441e-38 307 246
-0.01439136 0.68400002 -0.0071956799 1.407953e-38 308 246
-0.013172794 0.68300003 -0.0071851597 1.3526364e-38 309 246
-0.011975267 0.68300003 -0.0071851597 1.2605864e-38 310 246
-0.010761959 0.68199998 -0.00717464 1.2513668e-38 311 246
-0.009566186 0.68199998 -0.00717464 1.1501352e-38 312 246
-0.0083704125 0.68199998 -0.00717464 1.1501352e-38 313 246
-0.00717464 0.68199998 -0.00717464 1.1502795e-38 314 246
-0.005978866 0.68199998 -0.00717464 1.1871576e-38 315 246
-0.004783093 0.68199998 -0.00717464 1.2332534e-38 316 246
-0.00358732 0.68199998 -0.00717464 1.2332534e-38 317 246
-0.0023915465 0.68199998 -0.00717464 1.2698072e-38 318 246
-0.0011957732 0.68199998 -0.00717464 1.2513681e-38 319 246
0 0.68199998 -0.00717464 1.2605513e-38 320 246
0.0011975267 0.68300003 -0.0071851597 1.2789545e-38 321 246
0.0023950534 0.68300003 -0.0071851597 1.2605511e-38 322 246
0.00359784 0.68400002 -0.0071956799 1.2789542e-38 323 246
0.0047971201 0.68400002 -0.0071956799 1.2514037e-38 324 246
0.0060139326 0.68599999 -0.0072167199 1.2514037e-38 325 246
0.0072167199 0.68599999 -0.0072167199 1.2145974e-38 326 246
0.0084195063 0.68599999 -0.0072167199 1.2145974e-38 327 246
0.0096363192 0.68699998 -0.0072272392 1.1594604e-38 328 246
0.010840859 0.68699998 -0.0072272392 1.1594604e-38 329 246
0.012045399 0.68699998 -0.0072272392 1.1502065e-38 330 246
0.013249939 0.68699998 -0.0072272392 1.1594621e-38 331 246
0.014475521 0.68800002 -0.0072377604 1.1319852e-38 332 246
0.015727401 0.69 -0.0072587994 1.1596078e-38 333 246
0.0169372 0.69 -0.0072587994 1.1045072e-38 334 246
0.0181733 0.69099998 -0.0072693196 1.1045072e-38 335 246
0.019384852 0.69099998 -0.0072693196 1.0862835e-38 336 246
0.020656019 0.69300002 -0.0072903596 1.1047228e-38 337 246
0.021871079 0.69300002 -0.0072903596 1.0955751e-38 338 246
0.02308614 0.69300002 -0.0072903596 1.0955751e-38 339 246
0.024301201 0.69300002 -0.0072903596 1.0679167e-38 340 246
0.02551626 0.69300002 -0.0072903596 1.0771364e-38 341 246
0.026885614 0.69700003 -0.00733244 1.0123845e-38 342 246
0.028107686 0.69700003 -0.00733244 8.6487146e-39 343 246
0.02932976 0.69700003 -0.00733244 9.5872567e-39 344 246
-0.038101684 0.70099998 -0.0086036054 1.1701209e-38 289 247
-0.036872596 0.70099998 -0.0086036054 1.4824625e-38 290 247
-0.035592664 0.69999999 -0.0085913334 1.4824625e-38 291 247
-0.034267146 0.69800001 -0.0085667865 1.4732082e-38 292 247
-0.03299598 0.69700003 -0.0085545136 1.4916473e-38 293 247
-0.031728316 0.69599998 -0.0085422397 1.4823924e-38 294 247
-0.030420333 0.69400001 -0.0085176928 1.4823924e-38 295 247
-0.029203519 0.69400001 -0.0085176928 1.5098366e-38 296 247
-0.027946379 0.69300002 -0.0085054198 1.546679e-38 297 247
-0.02673132 0.69300002 -0.0085054198 1.5192729e-38 298 247
-0.025442619 0.69099998 -0.008480873 1.5377121e-38 299 247
-0.024195999 0.69 -0.0084686 1.5377841e-38 300 247
-0.022919573 0.68800002 -0.0084440531 1.4916863e-38 301 247
-0.021713281 0.68800002 -0.0084440531 1.5189101e-38 302 247
-0.020477179 0.68699998 -0.0084317802 1.4543732e-38 303 247
-0.019272638 0.68699998 -0.0084317802 1.4725965e-38 304 247
-0.0179892 0.68400002 -0.0083949603 1.4449383e-38 305 247
-0.016789921 0.68400002 -0.0083949603 1.4081682e-38 306 247
-0.015567848 0.68300003 -0.0083826864 1.3897293e-38 307 247
-0.014370319 0.68300003 -0.0083826864 1.3711829e-38 308 247
-0.013172794 0.68300003 -0.0083826864 1.3343411e-38 309 247
-0.011957732 0.68199998 -0.0083704125 1.3065752e-38 310 247
-0.0107304 0.68000001 -0.0083458666 1.2605139e-38 311 247
-0.0095381327 0.68000001 -0.0083458666 1.1776116e-38 312 247
-0.0083458666 0.68000001 -0.0083458666 1.2145257e-38 313 247
-0.0071535995 0.68000001 -0.0083458666 1.1871205e-38 314 247
-0.0059613334 0.68000001 -0.0083458666 1.2424379e-38 315 247
-0.004783093 0.68199998 -0.0083704125 1.2700593e-38 316 247
-0.00358732 0.68199998 -0.0083704125 1.2516202e-38 317 247
-0.0023915465 0.68199998 -0.0083704125 1.2238892e-38 318 247
-0.0011957732 0.68199998 -0.0083704125 1.2054861e-38 319 247
0 0.68199998 -0.0083704125 1.1870479e-38 320 247
0.0011957732 0.68199998 -0.0083704125 1.1962675e-38 321 247
0.0023950534 0.68300003 -0.0083826864 1.1871558e-38 322 247
0.0035925799 0.68300003 -0.0083826864 1.1871558e-38 323 247
0.0047971201 0.68400002 -0.0083949603 1.2421485e-38 324 247
0.0059964 0.68400002 -0.0083949603 1.2237454e-38 325 247
0.0071956799 0.68400002 -0.0083949603 1.2237804e-38 326 247
0.0083949603 0.68400002 -0.0083949603 1.2237804e-38 327 247
0.0096222926 0.68599999 -0.0084195063 1.1777914e-38 328 247
0.010825079 0.68599999 -0.0084195063 1.1777914e-38 329 247
0.012027865 0.68599999 -0.0084195063 1.1135808e-38 330 247
0.013249939 0.68699998 -0.0084317802 1.1228003e-38 331 247
0.014454478 0.68699998 -0.0084317802 1.0860684e-38 332 247
0.015681813 0.68800002 -0.0084440531 1.095288e-38 333 247
0.0169372 0.69 -0.0084686 1.0679167e-38 334 247
0.0181733 0.69099998 -0.008480873 1.0771364e-38 335 247
0.019384852 0.69099998 -0.008480873 1.0772433e-38 336 247
0.020656019 0.69300002 -0.0085054198 1.0864629e-38 337 247
0.021871079 0.69300002 -0.0085054198 1.040653e-38 338 247
0.02308614 0.69300002 -0.0085054198 1.0313976e-38 339 247
0.024301201 0.69300002 -0.0085054198 1.0680239e-38 340 247
0.02551626 0.69300002 -0.0085054198 1.0588043e-38 341 247
0.026847038 0.69599998 -0.0085422397 1.0402224e-38 342 247
0.028107686 0.69700003 -0.0085545136 9.4806277e-39 343 247
-0.040733438 0.704 -0.0098747732 1.2541124e-38 287 248
-0.039442986 0.70300001 -0.0098607466 1.3449314e-38 288 248
-0.038101684 0.70099998 -0.0098326923 1.2711749e-38 289 248
-0.036819998 0.69999999 -0.0098186666 1.4916455e-38 290 248
-0.035490975 0.69800001 -0.0097906133 1.463987e-38 291 248
-0.034218054 0.69700003 -0.0097765867 1.4638798e-38 292 248
-0.032948639 0.69599998 -0.0097625591 1.4915026e-38 293 248
-0.031728316 0.69599998 -0.0097625591 1.4913956e-38 294 248
-0.030420333 0.69400001 -0.0097345067 1.4913956e-38 295 248
-0.029161438 0.69300002 -0.0097204801 1.5097272e-38 296 248
-0.027946379 0.69300002 -0.0097204801 1.5097272e-38 297 248
-0.026654173 0.69099998 -0.0096924258 1.5005446e-38 298 248
-0.025405798 0.69 -0.0096783992 1.5098e-38 299 248
-0.024195999 0.69 -0.0096783992 1.5097644e-38 300 248
-0.022919573 0.68800002 -0.0096503468 1.4913253e-38 301 248
-0.021681719 0.68699998 -0.0096363192 1.5002555e-38 302 248
-0.020477179 0.68699998 -0.0096363192 1.4541577e-38 303 248
-0.019272638 0.68699998 -0.0096363192 1.4264277e-38 304 248
-0.017962901 0.68300003 -0.0095802136 1.4172082e-38 305 248
-0.016765373 0.68300003 -0.0095802136 1.4079888e-38 306 248
-0.015545053 0.68199998 -0.009566186 1.3987694e-38 307 248
-0.01434928 0.68199998 -0.009566186 1.3711829e-38 308 248
-0.013153506 0.68199998 -0.009566186 1.3435605e-38 309 248
-0.011957732 0.68199998 -0.009566186 1.2974992e-38 310 248
-0.0107304 0.68000001 -0.0095381327 1.2698051e-38 311 248
-0.0095381327 0.68000001 -0.0095381327 1.2697334e-38 312 248
-0.0083458666 0.68000001 -0.0095381327 1.2697334e-38 313 248
-0.0071535995 0.68000001 -0.0095381327 1.2423986e-38 314 248
-0.0059613334 0.68000001 -0.0095381327 1.2700933e-38 315 248
-0.0047690663 0.68000001 -0.0095381327 1.2426142e-38 316 248
-0.0035767998 0.68000001 -0.0095381327 1.224139e-38 317 248
-0.0023845332 0.68000001 -0.0095381327 1.2331788e-38 318 248
-0.0011922666 0.68000001 -0.0095381327 1.1871173e-38 319 248
0 0.68199998 -0.009566186 1.1778264e-38 320 248
0.0011957732 0.68199998 -0.009566186 1.187046e-38 321 248
0.0023950534 0.68300003 -0.0095802136 1.1962662e-38 322 248
0.0035925799 0.68300003 -0.0095802136 1.2054858e-38 323 248
0.0047971201 0.68400002 -0.0095942402 1.2238526e-38 324 248
0.0059964 0.68400002 -0.0095942402 1.2330722e-38 325 248
0.0071956799 0.68400002 -0.0095942402 1.2146325e-38 326 248
0.0083949603 0.68400002 -0.0095942402 1.2146325e-38 327 248
0.0095942402 0.68400002 -0.0095942402 1.1594954e-38 328 248
0.01077774 0.68300003 -0.0095802136 1.1502759e-38 329 248
0.011975267 0.68300003 -0.0095802136 1.0951768e-38 330 248
0.01319208 0.68400002 -0.0095942402 1.0951768e-38 331 248
0.014454478 0.68699998 -0.0096363192 1.0768115e-38 332 248
0.015659019 0.68699998 -0.0096363192 1.1045063e-38 333 248
0.016888106 0.68800002 -0.0096503468 1.0862829e-38 334 248
0.018146999 0.69 -0.0096783992 1.1139776e-38 335 248
0.019356798 0.69 -0.0096783992 1.0865347e-38 336 248
0.020596405 0.69099998 -0.0096924258 1.0681316e-38 337 248
0.021871079 0.69300002 -0.0097204801 1.0589492e-38 338 248
0.02308614 0.69300002 -0.0097204801 1.0589492e-38 339 248
0.024301201 0.69300002 -0.0097204801 1.0588773e-38 340 248
0.02551626 0.69300002 -0.0097204801 1.0588773e-38 341 248
0.026769891 0.69400001 -0.0097345067 1.0404022e-38 342 248
0.028107686 0.69700003 -0.0097765867 9.9434037e-39 343 248
0.029371841 0.69800001 -0.0097906133 6.7209063e-39 344 248
-0.040733438 0.704 -0.011109119 1.0513877e-38 287 249
-0.039442986 0.70300001 -0.01109334 1.3351703e-38 288 249
-0.038047329 0.69999999 -0.011045999 1.3536096e-38 289 249
-0.0367148 0.69800001 -0.01101444 1.44562e-38 290 249
-0.035440128 0.69700003 -0.01099866 1.4364004e-38 291 249
-0.034168959 0.69599998 -0.010982879 1.4453694e-38 292 249
-0.032853961 0.69400001 -0.01095132 1.4546249e-38 293 249
-0.031637147 0.69400001 -0.01095132 1.4729205e-38 294 249
-0.0303765 0.69300002 -0.010935539 1.4729205e-38 295 249
-0.029161438 0.69300002 -0.010935539 1.4821041e-38 296 249
-0.027865725 0.69099998 -0.01090398 1.4728486e-38 297 249
-0.026615599 0.69 -0.010888199 1.4820685e-38 298 249
-0.025405798 0.69 -0.010888199 1.4728489e-38 299 249
-0.024125867 0.68800002 -0.010856641 1.4728492e-38 300 249
-0.022919573 0.68800002 -0.010856641 1.4543742e-38 301 249
-0.021681719 0.68699998 -0.010840859 1.4726691e-38 302 249
-0.020447372 0.68599999 -0.010825079 1.4173517e-38 303 249
-0.019244585 0.68599999 -0.010825079 1.4264277e-38 304 249
-0.017962901 0.68300003 -0.01077774 1.407953e-38 305 249
-0.016765373 0.68300003 -0.01077774 1.3711829e-38 306 249
-0.015545053 0.68199998 -0.010761959 1.3619635e-38 307 249
-0.01434928 0.68199998 -0.010761959 1.3343411e-38 308 249
-0.013153506 0.68199998 -0.010761959 1.3250858e-38 309 249
-0.011922667 0.68000001 -0.0107304 1.306611e-38 310 249
-0.0107304 0.68000001 -0.0107304 1.2973916e-38 311 249
-0.0095381327 0.68000001 -0.0107304 1.2973557e-38 312 249
-0.0083458666 0.68000001 -0.0107304 1.3065752e-38 313 249
-0.0071535995 0.68000001 -0.0107304 1.2792756e-38 314 249
-0.0059613334 0.68000001 -0.0107304 1.2977145e-38 315 249
-0.0047690663 0.68000001 -0.0107304 1.2885668e-38 316 249
-0.0035767998 0.68000001 -0.0107304 1.2701638e-38 317 249
-0.0023845332 0.68000001 -0.0107304 1.2608368e-38 318 249
-0.0011922666 0.68000001 -0.0107304 1.2147397e-38 319 249
0 0.68000001 -0.0107304 1.1596025e-38 320 249
0.0011922666 0.68000001 -0.0107304 1.1503831e-38 321 249
0.0023915465 0.68199998 -0.010761959 1.1778986e-38 322 249
0.00358732 0.68199998 -0.010761959 1.1871183e-38 323 249
0.0047901068 0.68300003 -0.01077774 1.1963015e-38 324 249
0.0059876335 0.68300003 -0.01077774 1.1963015e-38 325 249
0.0071851597 0.68300003 -0.01077774 1.2146681e-38 326 249
0.0083826864 0.68300003 -0.01077774 1.2054126e-38 327 249
0.0095802136 0.68300003 -0.01077774 1.1685715e-38 328 249
0.010761959 0.68199998 -0.010761959 1.159352e-38 329 249
0.011957732 0.68199998 -0.010761959 1.0950693e-38 330 249
0.013172794 0.68300003 -0.01077774 1.1042889e-38 331 249
0.01443344 0.68599999 -0.010825079 1.0492608e-38 332 249
0.015659019 0.68699998 -0.010840859 1.0953227e-38 333 249
0.01686356 0.68699998 -0.010840859 1.0862829e-38 334 249
0.0180944 0.68800002 -0.010856641 1.1047581e-38 335 249
0.019356798 0.69 -0.010888199 1.113942e-38 336 249
0.020596405 0.69099998 -0.01090398 1.1047225e-38 337 249
0.021807959 0.69099998 -0.01090398 1.1047949e-38 338 249
0.023019511 0.69099998 -0.01090398 1.1047949e-38 339 249
0.024231065 0.69099998 -0.01090398 1.0680966e-38 340 249
0.02551626 0.69300002 -0.010935539 1.0680966e-38 341 249
0.026769891 0.69400001 -0.01095132 1.0771367e-38 342 249
0.028107686 0.69700003 -0.01099866 1.0586615e-38 343 249
0.029371841 0.69800001 -0.01101444 7.5463468e-39 344 249
0.030595668 0.69800001 -0.01101444 8.1917162e-39 345 249
-0.040502001 0.69999999 -0.012273333 9.772329e-39 287 250
-0.039274666 0.69999999 -0.012273333 1.3810864e-38 288 250
-0.038047329 0.69999999 -0.012273333 1.4087452e-38 289 250
-0.0367148 0.69800001 -0.012238266 1.4271101e-38 290 250
-0.035440128 0.69700003 -0.012220734 1.4178905e-38 291 250
-0.034168959 0.69599998 -0.0122032 1.4269659e-38 292 250
-0.032853961 0.69400001 -0.012168133 1.4361855e-38 293 250
-0.031637147 0.69400001 -0.012168133 1.4361134e-38 294 250
-0.0303765 0.69300002 -0.012150601 1.4453687e-38 295 250
-0.029161438 0.69300002 -0.012150601 1.4544805e-38 296 250
-0.027865725 0.69099998 -0.012115533 1.4544805e-38 297 250
-0.026615599 0.69 -0.012097999 1.4544088e-38 298 250
-0.02533216 0.68800002 -0.012062933 1.4544088e-38 299 250
-0.024125867 0.68800002 -0.012062933 1.4452252e-38 300 250
-0.022919573 0.68800002 -0.012062933 1.417567e-38 301 250
-0.021681719 0.68699998 -0.012045399 1.4267147e-38 302 250
-0.020447372 0.68599999 -0.012027865 1.4082399e-38 303 250
-0.01918848 0.68400002 -0.0119928 1.3804382e-38 304 250
-0.017962901 0.68300003 -0.011975267 1.3712188e-38 305 250
-0.016765373 0.68300003 -0.011975267 1.3619635e-38 306 250
-0.015567848 0.68300003 -0.011975267 1.3343411e-38 307 250
-0.01434928 0.68199998 -0.011957732 1.3250858e-38 308 250
-0.013153506 0.68199998 -0.011957732 1.3158663e-38 309 250
-0.011922667 0.68000001 -0.011922667 1.2882439e-38 310 250
-0.0107304 0.68000001 -0.011922667 1.2790245e-38 311 250
-0.0095381327 0.68000001 -0.011922667 1.2789887e-38 312 250
-0.0083335936 0.67900002 -0.011905133 1.2974275e-38 313 250
-0.0071430802 0.67900002 -0.011905133 1.2883876e-38 314 250
-0.0059525664 0.67900002 -0.011905133 1.3160104e-38 315 250
-0.0047620535 0.67900002 -0.011905133 1.2702003e-38 316 250
-0.0035715401 0.67900002 -0.011905133 1.2702003e-38 317 250
-0.0023810267 0.67900002 -0.011905133 1.2425056e-38 318 250
-0.0011905134 0.67900002 -0.011905133 1.1964443e-38 319 250
0 0.68000001 -0.011922667 1.187189e-38 320 250
0.0011922666 0.68000001 -0.011922667 1.1595308e-38 321 250
0.0023915465 0.68199998 -0.011957732 1.1594949e-38 322 250
0.00358732 0.68199998 -0.011957732 1.1779339e-38 323 250
0.004783093 0.68199998 -0.011957732 1.187118e-38 324 250
0.005978866 0.68199998 -0.011957732 1.187118e-38 325 250
0.00717464 0.68199998 -0.011957732 1.177863e-38 326 250
0.0083704125 0.68199998 -0.011957732 1.1594599e-38 327 250
0.0095802136 0.68300003 -0.011975267 1.141022e-38 328 250
0.010761959 0.68199998 -0.011957732 1.1133993e-38 329 250
0.011957732 0.68199998 -0.011957732 1.0675186e-38 330 250
0.013153506 0.68199998 -0.011957732 1.0859217e-38 331 250
0.01439136 0.68400002 -0.0119928 1.0585156e-38 332 250
0.015636226 0.68599999 -0.012027865 1.095358e-38 333 250
0.01686356 0.68699998 -0.012045399 1.1139049e-38 334 250
0.018068098 0.68699998 -0.012045399 1.1139049e-38 335 250
0.019300694 0.68800002 -0.012062933 1.1047225e-38 336 250
0.020566599 0.69 -0.012097999 1.0955028e-38 337 250
0.021776399 0.69 -0.012097999 1.0771729e-38 338 250
0.023019511 0.69099998 -0.012115533 1.0771729e-38 339 250
0.024231065 0.69099998 -0.012115533 1.0405827e-38 340 250
0.025442619 0.69099998 -0.012115533 1.0498022e-38 341 250
0.026769891 0.69400001 -0.012168133 1.0404745e-38 342 250
0.028067358 0.69599998 -0.0122032 1.0404745e-38 343 250
0.02932976 0.69700003 -0.012220734 8.2828216e-39 344 250
0.030551834 0.69700003 -0.012220734 7.5448978e-39 345 250
-0.039162453 0.69800001 -0.013462093 1.362683e-38 288 251
-0.037938625 0.69800001 -0.013462093 1.4087808e-38 289 251
-0.036662199 0.69700003 -0.013442807 1.4086004e-38 290 251
-0.035389278 0.69599998 -0.013423519 1.3993808e-38 291 251
-0.034168959 0.69599998 -0.013423519 1.4177105e-38 292 251
-0.032853961 0.69400001 -0.013384946 1.4177105e-38 293 251
-0.031591557 0.69300002 -0.01336566 1.4451894e-38 294 251
-0.0303765 0.69300002 -0.01336566 1.4451894e-38 295 251
-0.029077278 0.69099998 -0.013327086 1.4360776e-38 296 251
-0.027825398 0.69 -0.0133078 1.445297e-38 297 251
-0.026538454 0.68800002 -0.013269227 1.4270016e-38 298 251
-0.02533216 0.68800002 -0.013269227 1.3993792e-38 299 251
-0.024125867 0.68800002 -0.013269227 1.4176387e-38 300 251
-0.022886258 0.68699998 -0.013249939 1.4084193e-38 301 251
-0.02158704 0.68400002 -0.01319208 1.4082758e-38 302 251
-0.020387759 0.68400002 -0.01319208 1.3806534e-38 303 251
-0.01918848 0.68400002 -0.01319208 1.3711829e-38 304 251
-0.017962901 0.68300003 -0.013172794 1.3619635e-38 305 251
-0.016740825 0.68199998 -0.013153506 1.3435605e-38 306 251
-0.015545053 0.68199998 -0.013153506 1.3343411e-38 307 251
-0.014307199 0.68000001 -0.013114933 1.3158663e-38 308 251
-0.013114933 0.68000001 -0.013114933 1.2974275e-38 309 251
-0.011922667 0.68000001 -0.013114933 1.2789528e-38 310 251
-0.0107304 0.68000001 -0.013114933 1.2789528e-38 311 251
-0.0095381327 0.68000001 -0.013114933 1.2789528e-38 312 251
-0.0083335936 0.67900002 -0.013095647 1.2973557e-38 313 251
-0.0071430802 0.67900002 -0.013095647 1.2789528e-38 314 251
-0.0059525664 0.67900002 -0.013095647 1.2974276e-38 315 251
-0.0047620535 0.67900002 -0.013095647 1.2698778e-38 316 251
-0.0035715401 0.67900002 -0.013095647 1.2698778e-38 317 251
-0.0023810267 0.67900002 -0.013095647 1.2423621e-38 318 251
-0.0011905134 0.67900002 -0.013095647 1.2146679e-38 319 251
0 0.68000001 -0.013114933 1.1780055e-38 320 251
0.0011922666 0.68000001 -0.013114933 1.1596025e-38 321 251
0.0023845332 0.68000001 -0.013114933 1.1686784e-38 322 251
0.0035767998 0.68000001 -0.013114933 1.1871173e-38 323 251
0.004783093 0.68199998 -0.013153506 1.1870465e-38 324 251
0.005978866 0.68199998 -0.013153506 1.1870465e-38 325 251
0.00717464 0.68199998 -0.013153506 1.1502053e-38 326 251
0.0083704125 0.68199998 -0.013153506 1.1502053e-38 327 251
0.009566186 0.68199998 -0.013153506 1.104216e-38 328 251
0.010761959 0.68199998 -0.013153506 1.0949965e-38 329 251
0.011957732 0.68199998 -0.013153506 1.0491157e-38 330 251
0.013153506 0.68199998 -0.013153506 1.0675907e-38 331 251
0.014370319 0.68300003 -0.013172794 1.0768466e-38 332 251
0.015636226 0.68599999 -0.013230653 1.1137608e-38 333 251
0.01686356 0.68699998 -0.013249939 1.1138327e-38 334 251
0.018068098 0.68699998 -0.013249939 1.132272e-38 335 251
0.019272638 0.68699998 -0.013249939 1.1047581e-38 336 251
0.020566599 0.69 -0.0133078 1.0955384e-38 337 251
0.021776399 0.69 -0.0133078 1.0679537e-38 338 251
0.023019511 0.69099998 -0.013327086 1.0679537e-38 339 251
0.024195999 0.69 -0.0133078 1.0404394e-38 340 251
0.025405798 0.69 -0.0133078 1.0404394e-38 341 251
0.026769891 0.69400001 -0.013384946 1.0221079e-38 342 251
0.028067358 0.69599998 -0.013423519 1.0036687e-38 343 251
0.02932976 0.69700003 -0.013442807 9.2029772e-39 344 251
0.030551834 0.69700003 -0.013442807 8.1891854e-39 345 251
-0.039162453 0.69800001 -0.01468592 1.3626099e-38 288 252
-0.037938625 0.69800001 -0.01468592 1.399524e-38 289 252
-0.036662199 0.69700003 -0.01466488 1.3810142e-38 290 252
-0.035389278 0.69599998 -0.014643839 1.3717947e-38 291 252
-0.034070771 0.69400001 -0.01460176 1.3808694e-38 292 252
-0.032853961 0.69400001 -0.01460176 1.3900891e-38 293 252
-0.031591557 0.69300002 -0.014580719 1.4083117e-38 294 252
-0.030288832 0.69099998 -0.014538639 1.4083117e-38 295 252
-0.029077278 0.69099998 -0.014538639 1.3625381e-38 296 252
-0.027825398 0.69 -0.014517599 1.3717578e-38 297 252
-0.026538454 0.68800002 -0.014475521 1.381013e-38 298 252
-0.02533216 0.68800002 -0.014475521 1.3625378e-38 299 252
-0.024125867 0.68800002 -0.014475521 1.399129e-38 300 252
-0.022786319 0.68400002 -0.01439136 1.3622867e-38 301 252
-0.02158704 0.68400002 -0.01439136 1.3713631e-38 302 252
-0.020357953 0.68300003 -0.014370319 1.3344848e-38 303 252
-0.019160427 0.68300003 -0.014370319 1.3435964e-38 304 252
-0.017936599 0.68199998 -0.01434928 1.3343411e-38 305 252
-0.016740825 0.68199998 -0.01434928 1.3068263e-38 306 252
-0.015545053 0.68199998 -0.01434928 1.2976069e-38 307 252
-0.014307199 0.68000001 -0.014307199 1.2790604e-38 308 252
-0.013114933 0.68000001 -0.014307199 1.269841e-38 309 252
-0.011905133 0.67900002 -0.01428616 1.269841e-38 310 252
-0.010714619 0.67900002 -0.01428616 1.269841e-38 311 252
-0.0095100794 0.67799997 -0.014265119 1.2698051e-38 312 252
-0.0083213197 0.67799997 -0.014265119 1.2605498e-38 313 252
-0.0071325595 0.67799997 -0.014265119 1.2421838e-38 314 252
-0.0059525664 0.67900002 -0.01428616 1.2237807e-38 315 252
-0.0047620535 0.67900002 -0.01428616 1.2054152e-38 316 252
-0.0035715401 0.67900002 -0.01428616 1.2054152e-38 317 252
-0.0023810267 0.67900002 -0.01428616 1.2145977e-38 318 252
-0.0011905134 0.67900002 -0.01428616 1.1961226e-38 319 252
0 0.67900002 -0.01428616 1.1503472e-38 320 252
0.0011905134 0.67900002 -0.01428616 1.1411278e-38 321 252
0.0023845332 0.68000001 -0.014307199 1.1411278e-38 322 252
0.0035767998 0.68000001 -0.014307199 1.1595668e-38 323 252
0.0047690663 0.68000001 -0.014307199 1.1502771e-38 324 252
0.0059613334 0.68000001 -0.014307199 1.1226545e-38 325 252
0.00717464 0.68199998 -0.01434928 1.1225836e-38 326 252
0.0083704125 0.68199998 -0.01434928 1.113364e-38 327 252
0.009566186 0.68199998 -0.01434928 1.0858854e-38 328 252
0.010761959 0.68199998 -0.01434928 1.0766299e-38 329 252
0.011957732 0.68199998 -0.01434928 1.0308211e-38 330 252
0.013153506 0.68199998 -0.01434928 1.0400406e-38 331 252
0.014370319 0.68300003 -0.014370319 1.0585521e-38 332 252
0.015636226 0.68599999 -0.01443344 1.0770271e-38 333 252
0.01686356 0.68699998 -0.014454478 1.1139049e-38 334 252
0.018068098 0.68699998 -0.014454478 1.1139049e-38 335 252
0.019272638 0.68699998 -0.014454478 1.1230893e-38 336 252
0.020506985 0.68800002 -0.014475521 1.0954665e-38 337 252
0.021713281 0.68800002 -0.014475521 1.067846e-38 338 252
0.022986198 0.69 -0.014517599 1.0494069e-38 339 252
0.024195999 0.69 -0.014517599 9.8519494e-39 340 252
0.025405798 0.69 -0.014517599 1.003598e-38 341 252
0.026769891 0.69400001 -0.01460176 1.0036334e-38 342 252
0.027986705 0.69400001 -0.01460176 9.7597481e-39 343 252
0.029287677 0.69599998 -0.014643839 9.4806403e-39 344 252
0.030507999 0.69599998 -0.014643839 8.7430753e-39 345 252
-0.041967787 0.704 -0.016046507 1.4655062e-38 286 253
-0.039330769 0.70099998 -0.015978126 1.3626099e-38 288 253
-0.037938625 0.69800001 -0.015909746 1.3810849e-38 289 253
-0.036662199 0.69700003 -0.015886955 1.3717225e-38 290 253
-0.035389278 0.69599998 -0.015864158 1.3625028e-38 291 253
-0.034070771 0.69400001 -0.015818574 1.399164e-38 292 253
-0.03280662 0.69300002 -0.015795778 1.3899446e-38 293 253
-0.031591557 0.69300002 -0.015795778 1.3899087e-38 294 253
-0.030288832 0.69099998 -0.015750192 1.3714699e-38 295 253
-0.029077278 0.69099998 -0.015750192 1.3714699e-38 296 253
-0.027825398 0.69 -0.015727401 1.3714699e-38 297 253
-0.026538454 0.68800002 -0.015681813 1.3530669e-38 298 253
-0.02533216 0.68800002 -0.015681813 1.3530669e-38 299 253
-0.024090799 0.68699998 -0.015659019 1.3345204e-38 300 253
-0.022786319 0.68400002 -0.01559064 1.3160816e-38 301 253
-0.02158704 0.68400002 -0.01559064 1.3343052e-38 302 253
-0.020357953 0.68300003 -0.015567848 1.3343052e-38 303 253
-0.019160427 0.68300003 -0.015567848 1.3250858e-38 304 253
-0.017936599 0.68199998 -0.015545053 1.3158663e-38 305 253
-0.016740825 0.68199998 -0.015545053 1.3158305e-38 306 253
-0.015545053 0.68199998 -0.015545053 1.2973916e-38 307 253
-0.014307199 0.68000001 -0.015499466 1.2973916e-38 308 253
-0.013114933 0.68000001 -0.015499466 1.2789887e-38 309 253
-0.011905133 0.67900002 -0.015476674 1.2514739e-38 310 253
-0.010714619 0.67900002 -0.015476674 1.2514739e-38 311 253
-0.0095100794 0.67799997 -0.015453878 1.2422186e-38 312 253
-0.0083213197 0.67799997 -0.015453878 1.2329992e-38 313 253
-0.0071325595 0.67799997 -0.015453878 1.2144527e-38 314 253
-0.0059525664 0.67900002 -0.015476674 1.2236721e-38 315 253
-0.0047550397 0.67799997 -0.015453878 1.1961215e-38 316 253
-0.0035662798 0.67799997 -0.015453878 1.2053409e-38 317 253
-0.0023775198 0.67799997 -0.015453878 1.1960857e-38 318 253
-0.0011905134 0.67900002 -0.015476674 1.1592438e-38 319 253
0 0.67900002 -0.015476674 1.1593155e-38 320 253
0.0011905134 0.67900002 -0.015476674 1.1685349e-38 321 253
0.0023810267 0.67900002 -0.015476674 1.159352e-38 322 253
0.0035767998 0.68000001 -0.015499466 1.1685715e-38 323 253
0.0047690663 0.68000001 -0.015499466 1.1317661e-38 324 253
0.0059613334 0.68000001 -0.015499466 1.1317661e-38 325 253
0.0071535995 0.68000001 -0.015499466 1.1042166e-38 326 253
0.0083458666 0.68000001 -0.015499466 1.094997e-38 327 253
0.009566186 0.68199998 -0.015545053 1.0582634e-38 328 253
0.010761959 0.68199998 -0.015545053 1.0582634e-38 329 253
0.011957732 0.68199998 -0.015545053 1.0216015e-38 330 253
0.013153506 0.68199998 -0.015545053 1.0308211e-38 331 253
0.014370319 0.68300003 -0.015567848 1.076775e-38 332 253
0.01559064 0.68400002 -0.01559064 1.1320924e-38 333 253
0.016839013 0.68599999 -0.015636226 1.1137611e-38 334 253
0.018068098 0.68699998 -0.015659019 1.1413838e-38 335 253
0.019272638 0.68699998 -0.015659019 1.1047225e-38 336 253
0.020477179 0.68699998 -0.015659019 1.1047225e-38 337 253
0.021713281 0.68800002 -0.015681813 1.0404025e-38 338 253
0.022986198 0.69 -0.015727401 1.0311829e-38 339 253
0.024195999 0.69 -0.015727401 1.0033814e-38 340 253
0.025442619 0.69099998 -0.015750192 1.012601e-38 341 253
0.02673132 0.69300002 -0.015795778 9.9430632e-39 342 253
0.027986705 0.69400001 -0.015818574 9.8508676e-39 343 253
0.029287677 0.69599998 -0.015864158 9.7561538e-39 344 253
0.030507999 0.69599998 -0.015864158 9.0185888e-39 345 253
-0.043202132 0.704 -0.017280852 1.5213001e-38 285 254
-0.041967787 0.704 -0.017280852 1.4189047e-38 286 254
-0.040733438 0.704 -0.017280852 1.09622e-38 287 254
-0.039274666 0.69999999 -0.017182667 1.3993792e-38 288 254
-0.037938625 0.69800001 -0.017133573 1.3993792e-38 289 254
-0.036609598 0.69599998 -0.017084479 1.3625378e-38 290 254
-0.035287585 0.69400001 -0.017035386 1.3625378e-38 291 254
-0.034070771 0.69400001 -0.017035386 1.3532821e-38 292 254
-0.03280662 0.69300002 -0.01701084 1.3532821e-38 293 254
-0.031591557 0.69300002 -0.01701084 1.3623581e-38 294 254
-0.030288832 0.69099998 -0.016961746 1.3531386e-38 295 254
-0.028951041 0.68800002 -0.016888106 1.3438833e-38 296 254
-0.027744746 0.68800002 -0.016888106 1.3438833e-38 297 254
-0.026538454 0.68800002 -0.016888106 1.297894e-38 298 254
-0.025295338 0.68699998 -0.01686356 1.2886744e-38 299 254
-0.024090799 0.68699998 -0.01686356 1.3069343e-38 300 254
-0.022786319 0.68400002 -0.016789921 1.2700203e-38 301 254
-0.02155548 0.68300003 -0.016765373 1.2699486e-38 302 254
-0.020357953 0.68300003 -0.016765373 1.2699486e-38 303 254
-0.019160427 0.68300003 -0.016765373 1.2606933e-38 304 254
-0.017936599 0.68199998 -0.016740825 1.2606933e-38 305 254
-0.016740825 0.68199998 -0.016740825 1.2422186e-38 306 254
-0.015545053 0.68199998 -0.016740825 1.2422186e-38 307 254
-0.01434928 0.68199998 -0.016740825 1.2329274e-38 308 254
-0.013114933 0.68000001 -0.016691733 1.2421468e-38 309 254
-0.011905133 0.67900002 -0.016667187 1.2238515e-38 310 254
-0.010714619 0.67900002 -0.016667187 1.2238515e-38 311 254
-0.0095100794 0.67799997 -0.016642639 1.2328915e-38 312 254
-0.0083213197 0.67799997 -0.016642639 1.2328915e-38 313 254
-0.0071325595 0.67799997 -0.016642639 1.1960497e-38 314 254
-0.0059525664 0.67900002 -0.016667187 1.1960497e-38 315 254
-0.0047550397 0.67799997 -0.016642639 1.141021e-38 316 254
-0.0035662798 0.67799997 -0.016642639 1.1502406e-38 317 254
-0.0023775198 0.67799997 -0.016642639 1.1593873e-38 318 254
-0.0011887599 0.67799997 -0.016642639 1.1409843e-38 319 254
0 0.67900002 -0.016667187 1.1409486e-38 320 254
0.0011905134 0.67900002 -0.016667187 1.1409486e-38 321 254
0.0023810267 0.67900002 -0.016667187 1.1226545e-38 322 254
0.0035715401 0.67900002 -0.016667187 1.1226545e-38 323 254
0.0047690663 0.68000001 -0.016691733 1.1224757e-38 324 254
0.0059613334 0.68000001 -0.016691733 1.1224757e-38 325 254
0.0071535995 0.68000001 -0.016691733 1.0858854e-38 326 254
0.0083458666 0.68000001 -0.016691733 1.0766299e-38 327 254
0.0095381327 0.68000001 -0.016691733 1.0766655e-38 328 254
0.010761959 0.68199998 -0.016740825 1.0766655e-38 329 254
0.011957732 0.68199998 -0.016740825 1.0307848e-38 330 254
0.013153506 0.68199998 -0.016740825 1.0400043e-38 331 254
0.014370319 0.68300003 -0.016765373 1.0493326e-38 332 254
0.01559064 0.68400002 -0.016789921 1.0677719e-38 333 254
0.016839013 0.68599999 -0.016839013 1.086176e-38 334 254
0.018041799 0.68599999 -0.016839013 1.086176e-38 335 254
0.019272638 0.68699998 -0.01686356 1.0586615e-38 336 254
0.020477179 0.68699998 -0.01686356 1.0771367e-38 337 254
0.021681719 0.68699998 -0.01686356 1.0403671e-38 338 254
0.022919573 0.68800002 -0.016888106 9.9426947e-39 339 254
0.024195999 0.69 -0.0169372 9.7586747e-39 340 254
0.025442619 0.69099998 -0.016961746 9.5742835e-39 341 254
0.02673132 0.69300002 -0.01701084 9.5742835e-39 342 254
0.027986705 0.69400001 -0.017035386 9.7586747e-39 343 254
0.029203519 0.69400001 -0.017035386 9.3898922e-39 344 254
0.030507999 0.69599998 -0.017084479 8.7445228e-39 345 254
0.031728316 0.69599998 -0.017084479 1.0224344e-38 346 254
-0.044562716 0.70599997 -0.018567799 1.7979224e-38 284 255
-0.043140765 0.70300001 -0.018488899 1.4844573e-38 285 255
-0.041908171 0.70300001 -0.018488899 1.3911386e-38 286 255
-0.040559858 0.70099998 -0.018436298 1.1790887e-38 287 255
-0.039274666 0.69999999 -0.018409999 1.3903047e-38 288 255
-0.037938625 0.69800001 -0.0183574 1.3718297e-38 289 255
-0.036609598 0.69599998 -0.018304799 1.3625374e-38 290 255
-0.035287585 0.69400001 -0.0182522 1.353318e-38 291 255
-0.034021679 0.69300002 -0.018225901 1.3624298e-38 292 255
-0.03280662 0.69300002 -0.018225901 1.3532104e-38 293 255
-0.031500384 0.69099998 -0.0181733 1.3623581e-38 294 255
-0.030157333 0.68800002 -0.0180944 1.3531386e-38 295 255
-0.028951041 0.68800002 -0.0180944 1.3163686e-38 296 255
-0.027704418 0.68699998 -0.018068098 1.3163686e-38 297 255
-0.026499879 0.68699998 -0.018068098 1.3070415e-38 298 255
-0.025295338 0.68699998 -0.018068098 1.2885668e-38 299 255
-0.0239856 0.68400002 -0.0179892 1.2792398e-38 300 255
-0.022753006 0.68300003 -0.017962901 1.2700203e-38 301 255
-0.02155548 0.68300003 -0.017962901 1.2606933e-38 302 255
-0.020328145 0.68199998 -0.017936599 1.2606933e-38 303 255
-0.019132372 0.68199998 -0.017936599 1.251438e-38 304 255
-0.017936599 0.68199998 -0.017936599 1.2329992e-38 305 255
-0.016691733 0.68000001 -0.017883999 1.2328915e-38 306 255
-0.015499466 0.68000001 -0.017883999 1.2236362e-38 307 255
-0.014307199 0.68000001 -0.017883999 1.2144527e-38 308 255
-0.013114933 0.68000001 -0.017883999 1.223708e-38 309 255
-0.011922667 0.68000001 -0.017883999 1.1961215e-38 310 255
-0.0107304 0.68000001 -0.017883999 1.1961215e-38 311 255
-0.009524107 0.67900002 -0.017857701 1.186902e-38 312 255
-0.0083213197 0.67799997 -0.0178314 1.1776826e-38 313 255
-0.0071325595 0.67799997 -0.0178314 1.1408767e-38 314 255
