# .PCD v.7 - Point Cloud Data file format
FIELDS x y z rgb imX imY
SIZE 4 4 4 4 4 4
TYPE F F F F F F
COUNT 1 1 1 1 1 1
WIDTH 851
HEIGHT 1
VIEWPOINT 0 0 0 1 0 0 0
POINTS 851
DATA ascii
-0.028020019 0.76099998 -0.0053371461 1.5284549e-38 299 244
-0.026685731 0.76099998 -0.0053371461 1.5282052e-38 300 244
-0.025284819 0.759 -0.0053231199 1.5466442e-38 301 244
-0.023954039 0.759 -0.0053231199 1.5374972e-38 302 244
-0.02262326 0.759 -0.0053231199 1.5282777e-38 303 244
-0.02129248 0.759 -0.0053231199 1.5372824e-38 304 244
-0.0199617 0.759 -0.0053231199 1.5096237e-38 305 244
-0.018581826 0.75700003 -0.0053090933 1.5186285e-38 306 244
-0.017208965 0.755 -0.0052950666 1.5186285e-38 307 244
-0.015885198 0.755 -0.0052950666 1.5276332e-38 308 244
-0.014561433 0.755 -0.0052950666 1.5276332e-38 309 244
-0.013237666 0.755 -0.0052950666 1.5001187e-38 310 244
-0.011913899 0.755 -0.0052950666 1.4908992e-38 311 244
-0.010590133 0.755 -0.0052950666 1.4724596e-38 312 244
-0.0092540924 0.75400001 -0.0052880533 1.4540565e-38 313 244
-0.00793208 0.75400001 -0.0052880533 1.4448014e-38 314 244
-0.0066100666 0.75400001 -0.0052880533 1.4171425e-38 315 244
-0.0052880533 0.75400001 -0.0052880533 1.3894845e-38 316 244
-0.00396604 0.75400001 -0.0052880533 1.36179e-38 317 244
-0.0026440267 0.75400001 -0.0052880533 1.3435659e-38 318 244
-0.0013237667 0.755 -0.0052950666 1.3896636e-38 319 244
0 0.755 -0.0052950666 1.3435294e-38 320 244
0.0013237667 0.755 -0.0052950666 1.3066151e-38 321 244
0.0026475333 0.755 -0.0052950666 1.2880689e-38 322 244
0.0039712996 0.755 -0.0052950666 1.2511908e-38 323 244
0.0053090933 0.75700003 -0.0053090933 1.2419712e-38 324 244
0.0066363667 0.75700003 -0.0053090933 1.2419712e-38 325 244
0.0079636406 0.75700003 -0.0053090933 1.1869413e-38 326 244
0.0092909131 0.75700003 -0.0053090933 1.1776857e-38 327 244
0.010618187 0.75700003 -0.0053090933 1.1501346e-38 328 244
0.01194546 0.75700003 -0.0053090933 1.1501346e-38 329 244
0.013272733 0.75700003 -0.0053090933 1.1041094e-38 330 244
0.014638579 0.759 -0.0053231199 1.0764147e-38 331 244
0.015969358 0.759 -0.0053231199 1.0304621e-38 332 244
0.017345725 0.76099998 -0.0053371461 1.0120229e-38 333 244
0.018680012 0.76099998 -0.0053371461 9.7525356e-39 334 244
0.0200406 0.76200002 -0.0053441599 9.8447313e-39 335 244
0.021432746 0.764 -0.0053581866 9.5699451e-39 336 244
0.022831906 0.76599997 -0.0053722127 9.5699451e-39 337 244
0.024206521 0.76700002 -0.0053792265 9.3852077e-39 338 244
0.025617953 0.76899999 -0.0053932532 9.200815e-39 339 244
0.026966266 0.76899999 -0.0053932532 8.5590596e-39 340 244
0.028388219 0.77100003 -0.0054072798 8.2821125e-39 341 244
0.029740039 0.77100003 -0.0054072798 8.9328966e-39 342 244
0.031091858 0.77100003 -0.0054072798 1.3266091e-38 343 244
-0.044494338 0.76899999 -0.0067415666 1.650267e-38 287 245
-0.043033812 0.76700002 -0.006724033 1.5943691e-38 288 245
-0.041689005 0.76700002 -0.006724033 1.2993432e-38 289 245
-0.040344197 0.76700002 -0.006724033 1.5288189e-38 290 245
-0.038999394 0.76700002 -0.006724033 1.5103796e-38 291 245
-0.037605491 0.76599997 -0.0067152665 1.5378207e-38 292 245
-0.036262438 0.76599997 -0.0067152665 1.5194176e-38 293 245
-0.034919381 0.76599997 -0.0067152665 1.5561509e-38 294 245
-0.033488665 0.764 -0.006697733 1.5561509e-38 295 245
-0.032064959 0.76200002 -0.0066801999 1.5561859e-38 296 245
-0.030688593 0.76099998 -0.0066714329 1.5377827e-38 297 245
-0.029354304 0.76099998 -0.0066714329 1.5100531e-38 298 245
-0.028020019 0.76099998 -0.0066714329 1.4639553e-38 299 245
-0.026685731 0.76099998 -0.0066714329 1.4730322e-38 300 245
-0.025284819 0.759 -0.0066538998 1.4822518e-38 301 245
-0.023954039 0.759 -0.0066538998 1.4822515e-38 302 245
-0.02262326 0.759 -0.0066538998 1.4730319e-38 303 245
-0.02129248 0.759 -0.0066538998 1.5095156e-38 304 245
-0.019909101 0.75700003 -0.0066363667 1.500296e-38 305 245
-0.018532733 0.755 -0.0066188332 1.500154e-38 306 245
-0.017208965 0.755 -0.0066188332 1.4909343e-38 307 245
-0.015885198 0.755 -0.0066188332 1.4999385e-38 308 245
-0.014561433 0.755 -0.0066188332 1.490719e-38 309 245
-0.013237666 0.755 -0.0066188332 1.4723524e-38 310 245
-0.011913899 0.755 -0.0066188332 1.4355102e-38 311 245
-0.010576107 0.75400001 -0.0066100666 1.417e-38 312 245
-0.0092540924 0.75400001 -0.0066100666 1.3985609e-38 313 245
-0.00793208 0.75400001 -0.0066100666 1.371082e-38 314 245
-0.0066100666 0.75400001 -0.0066100666 1.352643e-38 315 245
-0.0052880533 0.75400001 -0.0066100666 1.3342758e-38 316 245
-0.00396604 0.75400001 -0.0066100666 1.3250561e-38 317 245
-0.0026475333 0.755 -0.0066188332 1.3069395e-38 318 245
-0.0013237667 0.755 -0.0066188332 1.3161949e-38 319 245
0 0.755 -0.0066188332 1.2975756e-38 320 245
0.0013237667 0.755 -0.0066188332 1.2514779e-38 321 245
0.0026475333 0.755 -0.0066188332 1.2236763e-38 322 245
0.0039712996 0.755 -0.0066188332 1.1960175e-38 323 245
0.0052950666 0.755 -0.0066188332 1.1960175e-38 324 245
0.0066188332 0.755 -0.0066188332 1.2052372e-38 325 245
0.0079425992 0.755 -0.0066188332 1.1960172e-38 326 245
0.0092663663 0.755 -0.0066188332 1.1776141e-38 327 245
0.010590133 0.755 -0.0066188332 1.14088e-38 328 245
0.01194546 0.75700003 -0.0066363667 1.1316605e-38 329 245
0.013272733 0.75700003 -0.0066363667 1.0948542e-38 330 245
0.014638579 0.759 -0.0066538998 1.076415e-38 331 245
0.015969358 0.759 -0.0066538998 1.002911e-38 332 245
0.017345725 0.76099998 -0.0066714329 9.8447187e-39 333 245
0.018680012 0.76099998 -0.0066714329 9.4770306e-39 334 245
0.0200406 0.76200002 -0.0066801999 9.5692262e-39 335 245
0.021488851 0.76599997 -0.0067152665 9.6614246e-39 336 245
0.022831906 0.76599997 -0.0067152665 9.5688703e-39 337 245
0.024206521 0.76700002 -0.006724033 9.3852077e-39 338 245
0.025551327 0.76700002 -0.006724033 9.293012e-39 339 245
0.026966266 0.76899999 -0.0067415666 8.5601315e-39 340 245
0.028314579 0.76899999 -0.0067415666 8.191349e-39 341 245
0.02966289 0.76899999 -0.0067415666 9.1169179e-39 342 245
0.031011207 0.76899999 -0.0067415666 1.3634504e-38 343 245
-0.04437862 0.76700002 -0.00806884 1.6410838e-38 287 246
-0.043033812 0.76700002 -0.00806884 1.5667827e-38 288 246
-0.041689005 0.76700002 -0.00806884 1.2625371e-38 289 246
-0.040344197 0.76700002 -0.00806884 1.4828654e-38 290 246
-0.038999394 0.76700002 -0.00806884 1.4459873e-38 291 246
-0.037605491 0.76599997 -0.0080583189 1.5284928e-38 292 246
-0.036262438 0.76599997 -0.0080583189 1.5100178e-38 293 246
-0.034919381 0.76599997 -0.0080583189 1.5375673e-38 294 246
-0.033488665 0.764 -0.0080372803 1.5375673e-38 295 246
-0.032064959 0.76200002 -0.0080162399 1.5376029e-38 296 246
-0.030688593 0.76099998 -0.0080057196 1.5191279e-38 297 246
-0.029354304 0.76099998 -0.0080057196 1.4914701e-38 298 246
-0.028020019 0.76099998 -0.0080057196 1.4637755e-38 299 246
-0.026685731 0.76099998 -0.0080057196 1.4545562e-38 300 246
-0.025284819 0.759 -0.0079846792 1.4637758e-38 301 246
-0.023954039 0.759 -0.0079846792 1.5188411e-38 302 246
-0.022563647 0.75700003 -0.0079636406 1.5004019e-38 303 246
-0.021236373 0.75700003 -0.0079636406 1.4818555e-38 304 246
-0.0198565 0.755 -0.0079425992 1.4541969e-38 305 246
-0.018532733 0.755 -0.0079425992 1.4725287e-38 306 246
-0.017208965 0.755 -0.0079425992 1.4632733e-38 307 246
-0.01586416 0.75400001 -0.00793208 1.4723135e-38 308 246
-0.014542146 0.75400001 -0.00793208 1.4539104e-38 309 246
-0.013220133 0.75400001 -0.00793208 1.4445117e-38 310 246
-0.01189812 0.75400001 -0.00793208 1.4076693e-38 311 246
-0.010576107 0.75400001 -0.00793208 1.3615722e-38 312 246
-0.0092540924 0.75400001 -0.00793208 1.3615722e-38 313 246
-0.00793208 0.75400001 -0.00793208 1.3341293e-38 314 246
-0.0066100666 0.75400001 -0.00793208 1.3341293e-38 315 246
-0.0052880533 0.75400001 -0.00793208 1.3065432e-38 316 246
-0.0039712996 0.755 -0.0079425992 1.2973237e-38 317 246
-0.0026475333 0.755 -0.0079425992 1.3066151e-38 318 246
-0.0013237667 0.755 -0.0079425992 1.3066151e-38 319 246
0 0.755 -0.0079425992 1.3155829e-38 320 246
0.0013237667 0.755 -0.0079425992 1.2602656e-38 321 246
0.0026475333 0.755 -0.0079425992 1.2234598e-38 322 246
0.0039712996 0.755 -0.0079425992 1.2234598e-38 323 246
0.0052950666 0.755 -0.0079425992 1.1960525e-38 324 246
0.0066188332 0.755 -0.0079425992 1.1960525e-38 325 246
0.0079425992 0.755 -0.0079425992 1.1685015e-38 326 246
0.0092663663 0.755 -0.0079425992 1.1685015e-38 327 246
0.010590133 0.755 -0.0079425992 1.1408079e-38 328 246
0.01194546 0.75700003 -0.0079636406 1.1315883e-38 329 246
0.013272733 0.75700003 -0.0079636406 1.0673036e-38 330 246
0.014638579 0.759 -0.0079846792 1.039609e-38 331 246
0.015969358 0.759 -0.0079846792 9.9365612e-39 332 246
0.017345725 0.76099998 -0.0080057196 9.6599729e-39 333 246
0.018680012 0.76099998 -0.0080057196 9.5674241e-39 334 246
0.0200406 0.76200002 -0.0080162399 9.7518168e-39 335 246
0.021432746 0.764 -0.0080372803 9.5692234e-39 336 246
0.022772292 0.764 -0.0080372803 9.5692234e-39 337 246
0.024206521 0.76700002 -0.00806884 9.0192922e-39 338 246
0.025551327 0.76700002 -0.00806884 8.8349024e-39 339 246
0.026966266 0.76899999 -0.0080898795 8.6526803e-39 340 246
0.028314579 0.76899999 -0.0080898795 8.1917022e-39 341 246
0.02966289 0.76899999 -0.0080898795 9.4874955e-39 342 246
0.031011207 0.76899999 -0.0080898795 1.382105e-38 343 246
-0.04437862 0.76700002 -0.0094136465 1.6412274e-38 287 247
-0.043033812 0.76700002 -0.0094136465 1.5667108e-38 288 247
-0.041689005 0.76700002 -0.0094136465 1.2624292e-38 289 247
-0.040344197 0.76700002 -0.0094136465 1.4826853e-38 290 247
-0.038999394 0.76700002 -0.0094136465 1.4642822e-38 291 247
-0.037605491 0.76599997 -0.0094013726 1.4641721e-38 292 247
-0.036262438 0.76599997 -0.0094013726 1.4549525e-38 293 247
-0.034919381 0.76599997 -0.0094013726 1.4456609e-38 294 247
-0.033488665 0.764 -0.0093768267 1.4456609e-38 295 247
-0.032022879 0.76099998 -0.0093400059 1.436406e-38 296 247
-0.030688593 0.76099998 -0.0093400059 1.4271865e-38 297 247
-0.029354304 0.76099998 -0.0093400059 1.4362262e-38 298 247
-0.028020019 0.76099998 -0.0093400059 1.4270067e-38 299 247
-0.026615599 0.759 -0.00931546 1.4269711e-38 300 247
-0.025284819 0.759 -0.00931546 1.408568e-38 301 247
-0.02389092 0.75700003 -0.0092909131 1.454414e-38 302 247
-0.022563647 0.75700003 -0.0092909131 1.4359388e-38 303 247
-0.021236373 0.75700003 -0.0092909131 1.426683e-38 304 247
-0.0198565 0.755 -0.0092663663 1.4174634e-38 305 247
-0.018532733 0.755 -0.0092663663 1.4356872e-38 306 247
-0.017208965 0.755 -0.0092663663 1.4264675e-38 307 247
-0.01586416 0.75400001 -0.0092540924 1.4447271e-38 308 247
-0.014542146 0.75400001 -0.0092540924 1.426288e-38 309 247
-0.013220133 0.75400001 -0.0092540924 1.4260006e-38 310 247
-0.01189812 0.75400001 -0.0092540924 1.3891583e-38 311 247
-0.010576107 0.75400001 -0.0092540924 1.3340928e-38 312 247
-0.0092540924 0.75400001 -0.0092540924 1.324873e-38 313 247
-0.00793208 0.75400001 -0.0092540924 1.279064e-38 314 247
-0.0066100666 0.75400001 -0.0092540924 1.2422217e-38 315 247
-0.0052880533 0.75400001 -0.0092540924 1.1869776e-38 316 247
-0.00396604 0.75400001 -0.0092540924 1.1408798e-38 317 247
-0.0026475333 0.755 -0.0092663663 1.0950699e-38 318 247
-0.0013237667 0.755 -0.0092663663 1.1226926e-38 319 247
0 0.755 -0.0092663663 1.1225138e-38 320 247
0.0013237667 0.755 -0.0092663663 1.1132942e-38 321 247
0.0026475333 0.755 -0.0092663663 1.1132586e-38 322 247
0.0039712996 0.755 -0.0092663663 1.1224782e-38 323 247
0.0052950666 0.755 -0.0092663663 1.1316252e-38 324 247
0.0066188332 0.755 -0.0092663663 1.1316252e-38 325 247
0.0079425992 0.755 -0.0092663663 1.1316605e-38 326 247
0.0092663663 0.755 -0.0092663663 1.1316605e-38 327 247
0.010590133 0.755 -0.0092663663 1.1316602e-38 328 247
0.01194546 0.75700003 -0.0092909131 1.1132211e-38 329 247
0.013272733 0.75700003 -0.0092909131 1.0764147e-38 330 247
0.014638579 0.759 -0.00931546 1.0580116e-38 331 247
0.015969358 0.759 -0.00931546 1.0119508e-38 332 247
0.017345725 0.76099998 -0.0093400059 9.935115e-39 333 247
0.01870456 0.76200002 -0.0093522798 9.2011625e-39 334 247
0.0200406 0.76200002 -0.0093522798 9.2933596e-39 335 247
0.021432746 0.764 -0.0093768267 9.3859139e-39 336 247
0.022772292 0.764 -0.0093768267 9.3859139e-39 337 247
0.024206521 0.76700002 -0.0094136465 9.3852049e-39 338 247
0.025551327 0.76700002 -0.0094136465 9.3852049e-39 339 247
0.026966266 0.76899999 -0.0094381925 8.6526929e-39 340 247
0.028314579 0.76899999 -0.0094381925 8.6526929e-39 341 247
0.029740039 0.77100003 -0.0094627403 1.0132512e-38 342 247
-0.044494338 0.76899999 -0.010786506 1.6780696e-38 287 248
-0.043146025 0.76899999 -0.010786506 1.5942616e-38 288 248
-0.041797712 0.76899999 -0.010786506 1.2623573e-38 289 248
-0.040344197 0.76700002 -0.010758453 1.4643188e-38 290 248
-0.038999394 0.76700002 -0.010758453 1.418221e-38 291 248
-0.037654586 0.76700002 -0.010758453 1.4456613e-38 292 248
-0.036262438 0.76599997 -0.010744425 1.4271862e-38 293 248
-0.034919381 0.76599997 -0.010744425 1.4454811e-38 294 248
-0.033401001 0.76200002 -0.01068832 1.4362616e-38 295 248
-0.032022879 0.76099998 -0.010674292 1.4361544e-38 296 248
-0.030688593 0.76099998 -0.010674292 1.4177151e-38 297 248
-0.029354304 0.76099998 -0.010674292 1.4268628e-38 298 248
-0.027946379 0.759 -0.01064624 1.4176432e-38 299 248
-0.026615599 0.759 -0.01064624 1.4176429e-38 300 248
-0.025218192 0.75700003 -0.010618187 1.4176429e-38 301 248
-0.02389092 0.75700003 -0.010618187 1.4542341e-38 302 248
-0.022504034 0.755 -0.010590133 1.4357591e-38 303 248
-0.021180267 0.755 -0.010590133 1.4264322e-38 304 248
-0.0198565 0.755 -0.010590133 1.4172126e-38 305 248
-0.018532733 0.755 -0.010590133 1.4263959e-38 306 248
-0.017208965 0.755 -0.010590133 1.4171763e-38 307 248
-0.01586416 0.75400001 -0.010576107 1.4354709e-38 308 248
-0.014542146 0.75400001 -0.010576107 1.4169959e-38 309 248
-0.013220133 0.75400001 -0.010576107 1.3801901e-38 310 248
-0.01189812 0.75400001 -0.010576107 1.3709706e-38 311 248
-0.010576107 0.75400001 -0.010576107 1.3341997e-38 312 248
-0.0092540924 0.75400001 -0.010576107 1.3249801e-38 313 248
-0.00793208 0.75400001 -0.010576107 1.2422564e-38 314 248
-0.0066100666 0.75400001 -0.010576107 1.2053421e-38 315 248
-0.0052880533 0.75400001 -0.010576107 1.0762712e-38 316 248
-0.00396604 0.75400001 -0.010576107 1.0393569e-38 317 248
-0.0026475333 0.755 -0.010590133 9.3859139e-39 318 248
-0.0013237667 0.755 -0.010590133 9.7543363e-39 319 248
0 0.755 -0.010590133 1.1220118e-38 320 248
0.0013237667 0.755 -0.010590133 1.1496345e-38 321 248
0.0026475333 0.755 -0.010590133 1.1130791e-38 322 248
0.0039712996 0.755 -0.010590133 1.1130791e-38 323 248
0.0052950666 0.755 -0.010590133 1.1038235e-38 324 248
0.0066188332 0.755 -0.010590133 1.1038235e-38 325 248
0.0079425992 0.755 -0.010590133 1.0947473e-38 326 248
0.0092663663 0.755 -0.010590133 1.0947473e-38 327 248
0.010590133 0.755 -0.010590133 1.0948896e-38 328 248
0.01194546 0.75700003 -0.010618187 1.0948896e-38 329 248
0.0133078 0.759 -0.01064624 1.0764503e-38 330 248
0.014638579 0.759 -0.01064624 1.0488276e-38 331 248
0.016011439 0.76099998 -0.010674292 9.8447215e-39 332 248
0.017345725 0.76099998 -0.010674292 9.5677744e-39 333 248
0.01870456 0.76200002 -0.01068832 9.2011625e-39 334 248
0.0200406 0.76200002 -0.01068832 9.2011625e-39 335 248
0.021432746 0.764 -0.010716373 9.2933596e-39 336 248
0.022772292 0.764 -0.010716373 9.2933596e-39 337 248
0.024206521 0.76700002 -0.010758453 9.2015325e-39 338 248
0.025551327 0.76700002 -0.010758453 9.2015325e-39 339 248
0.026966266 0.76899999 -0.010786506 8.4693779e-39 340 248
0.028314579 0.76899999 -0.010786506 8.1009555e-39 341 248
0.029740039 0.77100003 -0.01081456 1.0501298e-38 342 248
-0.044725779 0.773 -0.012197939 1.7333148e-38 287 249
-0.043146025 0.76899999 -0.012134819 1.5760023e-38 288 249
-0.041797712 0.76899999 -0.012134819 1.2348784e-38 289 249
-0.0404494 0.76899999 -0.012134819 1.4365878e-38 290 249
-0.039101087 0.76899999 -0.012134819 1.3997097e-38 291 249
-0.037654586 0.76700002 -0.01210326 1.4271509e-38 292 249
-0.036262438 0.76599997 -0.012087479 1.3903086e-38 293 249
-0.034919381 0.76599997 -0.012087479 1.3994206e-38 294 249
-0.033401001 0.76200002 -0.01202436 1.390165e-38 295 249
-0.032022879 0.76099998 -0.012008579 1.3993486e-38 296 249
-0.030688593 0.76099998 -0.012008579 1.3808736e-38 297 249
-0.029354304 0.76099998 -0.012008579 1.3992757e-38 298 249
-0.027946379 0.759 -0.01197702 1.3992757e-38 299 249
-0.026615599 0.759 -0.01197702 1.4084231e-38 300 249
-0.025218192 0.75700003 -0.01194546 1.4084231e-38 301 249
-0.02389092 0.75700003 -0.01194546 1.426683e-38 302 249
-0.022504034 0.755 -0.011913899 1.408208e-38 303 249
-0.021180267 0.755 -0.011913899 1.3713306e-38 304 249
-0.0198565 0.755 -0.011913899 1.362111e-38 305 249
-0.018532733 0.755 -0.011913899 1.3895899e-38 306 249
-0.017208965 0.755 -0.011913899 1.3895899e-38 307 249
-0.01586416 0.75400001 -0.01189812 1.3894817e-38 308 249
-0.014542146 0.75400001 -0.01189812 1.3894817e-38 309 249
-0.013220133 0.75400001 -0.01189812 1.3710782e-38 310 249
-0.01189812 0.75400001 -0.01189812 1.3618586e-38 311 249
-0.010576107 0.75400001 -0.01189812 1.3342353e-38 312 249
-0.0092540924 0.75400001 -0.01189812 1.3249798e-38 313 249
-0.00793208 0.75400001 -0.01189812 1.2880671e-38 314 249
-0.0066100666 0.75400001 -0.01189812 1.2327497e-38 315 249
-0.0052880533 0.75400001 -0.01189812 1.1130421e-38 316 249
-0.00396604 0.75400001 -0.01189812 1.0669084e-38 317 249
-0.0026440267 0.75400001 -0.01189812 9.2015325e-39 318 249
-0.0013220133 0.75400001 -0.01189812 9.3859237e-39 319 249
0 0.755 -0.011913899 1.0119529e-38 320 249
0.0013237667 0.755 -0.011913899 1.030392e-38 321 249
0.0026475333 0.755 -0.011913899 1.0580134e-38 322 249
0.0039712996 0.755 -0.011913899 1.0580134e-38 323 249
0.0052950666 0.755 -0.011913899 1.0579415e-38 324 249
0.0066188332 0.755 -0.011913899 1.048722e-38 325 249
0.0079425992 0.755 -0.011913899 1.0397172e-38 326 249
0.0092663663 0.755 -0.011913899 1.0397172e-38 327 249
0.010590133 0.755 -0.011913899 1.058191e-38 328 249
0.01194546 0.75700003 -0.01194546 1.039752e-38 329 249
0.013272733 0.75700003 -0.01194546 1.0488642e-38 330 249
0.014638579 0.759 -0.01197702 1.0303892e-38 331 249
0.016011439 0.76099998 -0.012008579 9.6599757e-39 332 249
0.017345725 0.76099998 -0.012008579 9.5674213e-39 333 249
0.01870456 0.76200002 -0.01202436 8.8331031e-39 334 249
0.0200406 0.76200002 -0.01202436 8.8331031e-39 335 249
0.021432746 0.764 -0.01205592 8.8338248e-39 336 249
0.022772292 0.764 -0.01205592 8.9260204e-39 337 249
0.024206521 0.76700002 -0.01210326 8.9256673e-39 338 249
0.025551327 0.76700002 -0.01210326 9.1104187e-39 339 249
0.026966266 0.76899999 -0.012134819 8.2867873e-39 340 249
0.028314579 0.76899999 -0.012134819 7.9180061e-39 341 249
0.02966289 0.76899999 -0.012134819 1.0686411e-38 342 249
-0.044725779 0.773 -0.013553266 1.7701929e-38 287 250
-0.043146025 0.76899999 -0.013483133 1.5945137e-38 288 250
-0.041797712 0.76899999 -0.013483133 1.2257312e-38 289 250
-0.0404494 0.76899999 -0.013483133 1.3997816e-38 290 250
-0.039101087 0.76899999 -0.013483133 1.3813423e-38 291 250
-0.037654586 0.76700002 -0.013448066 1.4086752e-38 292 250
-0.036309779 0.76700002 -0.013448066 1.3902359e-38 293 250
-0.034919381 0.76599997 -0.013430533 1.3808736e-38 294 250
-0.033488665 0.764 -0.013395466 1.371654e-38 295 250
-0.032022879 0.76099998 -0.013342866 1.3533581e-38 296 250
-0.030688593 0.76099998 -0.013342866 1.3441385e-38 297 250
-0.029277159 0.759 -0.0133078 1.3808723e-38 298 250
-0.027946379 0.759 -0.0133078 1.3808723e-38 299 250
-0.026615599 0.759 -0.0133078 1.3992035e-38 300 250
-0.025218192 0.75700003 -0.013272733 1.389984e-38 301 250
-0.02389092 0.75700003 -0.013272733 1.3898768e-38 302 250
-0.022504034 0.755 -0.013237666 1.3714375e-38 303 250
-0.021180267 0.755 -0.013237666 1.380442e-38 304 250
-0.0198565 0.755 -0.013237666 1.3712224e-38 305 250
-0.018532733 0.755 -0.013237666 1.3803701e-38 306 250
-0.017208965 0.755 -0.013237666 1.3895896e-38 307 250
-0.015885198 0.755 -0.013237666 1.3619308e-38 308 250
-0.014542146 0.75400001 -0.013220133 1.3711505e-38 309 250
-0.013220133 0.75400001 -0.013220133 1.3343444e-38 310 250
-0.01189812 0.75400001 -0.013220133 1.3343444e-38 311 250
-0.010576107 0.75400001 -0.013220133 1.3434564e-38 312 250
-0.0092540924 0.75400001 -0.013220133 1.3157978e-38 313 250
-0.00793208 0.75400001 -0.013220133 1.288139e-38 314 250
-0.0066100666 0.75400001 -0.013220133 1.2328216e-38 315 250
-0.0052880533 0.75400001 -0.013220133 1.1682145e-38 316 250
-0.00396604 0.75400001 -0.013220133 1.0944578e-38 317 250
-0.0026440267 0.75400001 -0.013220133 9.4773809e-39 318 250
-0.0013220133 0.75400001 -0.013220133 9.6617721e-39 319 250
0 0.755 -0.013237666 1.0396093e-38 320 250
0.0013237667 0.755 -0.013237666 1.0580484e-38 321 250
0.0026475333 0.755 -0.013237666 1.0856345e-38 322 250
0.0039712996 0.755 -0.013237666 1.076415e-38 323 250
0.0052950666 0.755 -0.013237666 1.0487573e-38 324 250
0.0066188332 0.755 -0.013237666 1.0395018e-38 325 250
0.0079425992 0.755 -0.013237666 1.0395737e-38 326 250
0.0092663663 0.755 -0.013237666 1.0488292e-38 327 250
0.010590133 0.755 -0.013237666 1.0397169e-38 328 250
0.01194546 0.75700003 -0.013272733 1.0304974e-38 329 250
0.013272733 0.75700003 -0.013272733 1.0303542e-38 330 250
0.014638579 0.759 -0.0133078 1.0027315e-38 331 250
0.016011439 0.76099998 -0.013342866 9.2915603e-39 332 250
0.017345725 0.76099998 -0.013342866 9.1993647e-39 333 250
0.01870456 0.76200002 -0.0133604 8.9242225e-39 334 250
0.0200406 0.76200002 -0.0133604 8.9242225e-39 335 250
0.02137664 0.76200002 -0.0133604 8.5583169e-39 336 250
0.022772292 0.764 -0.013395466 8.6505125e-39 337 250
0.024206521 0.76700002 -0.013448066 8.46721e-39 338 250
0.025617953 0.76899999 -0.013483133 8.6519614e-39 339 250
0.026966266 0.76899999 -0.013483133 8.1034722e-39 340 250
0.028314579 0.76899999 -0.013483133 8.0112766e-39 341 250
0.02966289 0.76899999 -0.013483133 1.1148466e-38 342 250
-0.043258239 0.77100003 -0.01487002 1.6039131e-38 288 251
-0.04190642 0.77100003 -0.01487002 1.2074718e-38 289 251
-0.0404494 0.76899999 -0.014831445 1.3814506e-38 290 251
-0.039101087 0.76899999 -0.014831445 1.3445363e-38 291 251
-0.03775277 0.76899999 -0.014831445 1.3903086e-38 292 251
-0.036309779 0.76700002 -0.014792874 1.3441748e-38 293 251
-0.034919381 0.76599997 -0.014773586 1.3624344e-38 294 251
-0.033488665 0.764 -0.014735013 1.3440313e-38 295 251
-0.032022879 0.76099998 -0.014677152 1.3440313e-38 296 251
-0.030688593 0.76099998 -0.014677152 1.3348116e-38 297 251
-0.029277159 0.759 -0.014638579 1.3623976e-38 298 251
-0.027946379 0.759 -0.014638579 1.3623976e-38 299 251
-0.026545467 0.75700003 -0.014600007 1.3806568e-38 300 251
-0.025218192 0.75700003 -0.014600007 1.3806568e-38 301 251
-0.023827799 0.755 -0.014561433 1.3896968e-38 302 251
-0.022504034 0.755 -0.014561433 1.3712577e-38 303 251
-0.021180267 0.755 -0.014561433 1.343599e-38 304 251
-0.0198565 0.755 -0.014561433 1.3528546e-38 305 251
-0.018532733 0.755 -0.014561433 1.3711502e-38 306 251
-0.017208965 0.755 -0.014561433 1.3711502e-38 307 251
-0.015885198 0.755 -0.014561433 1.3618589e-38 308 251
-0.014542146 0.75400001 -0.014542146 1.3618589e-38 309 251
-0.013220133 0.75400001 -0.014542146 1.3251249e-38 310 251
-0.01189812 0.75400001 -0.014542146 1.3159053e-38 311 251
-0.010576107 0.75400001 -0.014542146 1.3066501e-38 312 251
-0.0092540924 0.75400001 -0.014542146 1.2790273e-38 313 251
-0.00793208 0.75400001 -0.014542146 1.2697722e-38 314 251
-0.0066100666 0.75400001 -0.014542146 1.2421135e-38 315 251
-0.0052880533 0.75400001 -0.014542146 1.1683943e-38 316 251
-0.00396604 0.75400001 -0.014542146 1.1130769e-38 317 251
-0.0026440267 0.75400001 -0.014542146 9.8465193e-39 318 251
-0.0013237667 0.755 -0.014561433 9.8465193e-39 319 251
0 0.755 -0.014561433 1.0306049e-38 320 251
0.0013237667 0.755 -0.014561433 1.0398244e-38 321 251
0.0026475333 0.755 -0.014561433 1.0948896e-38 322 251
0.0039712996 0.755 -0.014561433 1.0856699e-38 323 251
0.0052950666 0.755 -0.014561433 1.0580122e-38 324 251
0.0066188332 0.755 -0.014561433 1.0487567e-38 325 251
0.0079425992 0.755 -0.014561433 1.0303898e-38 326 251
0.0092663663 0.755 -0.014561433 1.0396093e-38 327 251
0.010590133 0.755 -0.014561433 1.0212781e-38 328 251
0.01194546 0.75700003 -0.014600007 1.0212781e-38 329 251
0.013272733 0.75700003 -0.014600007 9.9354822e-39 330 251
0.014638579 0.759 -0.014638579 9.659254e-39 331 251
0.016011439 0.76099998 -0.014677152 9.0160524e-39 332 251
0.017345725 0.76099998 -0.014677152 8.9238568e-39 333 251
0.01870456 0.76200002 -0.01469644 8.6487146e-39 334 251
0.0200406 0.76200002 -0.01469644 8.6487146e-39 335 251
0.02137664 0.76200002 -0.01469644 8.4657653e-39 336 251
0.022772292 0.764 -0.014735013 8.5579609e-39 337 251
0.024206521 0.76700002 -0.014792874 8.3750144e-39 338 251
0.025617953 0.76899999 -0.014831445 8.46721e-39 339 251
0.026966266 0.76899999 -0.014831445 7.6439332e-39 340 251
0.028314579 0.76899999 -0.014831445 8.3814982e-39 341 251
0.02966289 0.76899999 -0.014831445 1.1611607e-38 342 251
-0.04190642 0.77100003 -0.016221842 1.2076158e-38 289 252
-0.0404494 0.76899999 -0.016179759 1.3447519e-38 290 252
-0.039101087 0.76899999 -0.016179759 1.3170572e-38 291 252
-0.03775277 0.76899999 -0.016179759 1.3718688e-38 292 252
-0.036309779 0.76700002 -0.01613768 1.325807e-38 293 252
-0.034919381 0.76599997 -0.016116638 1.3165165e-38 294 252
-0.033488665 0.764 -0.016074561 1.3072968e-38 295 252
-0.032022879 0.76099998 -0.016011439 1.3164088e-38 296 252
-0.030688593 0.76099998 -0.016011439 1.3164088e-38 297 252
-0.029277159 0.759 -0.015969358 1.3255921e-38 298 252
-0.027946379 0.759 -0.015969358 1.3163366e-38 299 252
-0.026545467 0.75700003 -0.015927281 1.3438514e-38 300 252
-0.025218192 0.75700003 -0.015927281 1.3346318e-38 301 252
-0.023827799 0.755 -0.015885198 1.343636e-38 302 252
-0.022504034 0.755 -0.015885198 1.3251967e-38 303 252
-0.021180267 0.755 -0.015885198 1.306758e-38 304 252
-0.0198565 0.755 -0.015885198 1.3251612e-38 305 252
-0.018532733 0.755 -0.015885198 1.3343094e-38 306 252
-0.017208965 0.755 -0.015885198 1.3343094e-38 307 252
-0.01586416 0.75400001 -0.01586416 1.3250898e-38 308 252
-0.014542146 0.75400001 -0.01586416 1.3158703e-38 309 252
-0.013220133 0.75400001 -0.01586416 1.2699521e-38 310 252
-0.01189812 0.75400001 -0.01586416 1.2607325e-38 311 252
-0.010576107 0.75400001 -0.01586416 1.2790638e-38 312 252
-0.0092540924 0.75400001 -0.01586416 1.2698441e-38 313 252
-0.00793208 0.75400001 -0.01586416 1.2698441e-38 314 252
-0.0066100666 0.75400001 -0.01586416 1.2330018e-38 315 252
-0.0052880533 0.75400001 -0.01586416 1.2053427e-38 316 252
-0.00396604 0.75400001 -0.01586416 1.159245e-38 317 252
-0.0026440267 0.75400001 -0.01586416 1.1225107e-38 318 252
-0.0013237667 0.755 -0.015885198 1.1225107e-38 319 252
0 0.755 -0.015885198 1.1225107e-38 320 252
0.0013237667 0.755 -0.015885198 1.1225107e-38 321 252
0.0026475333 0.755 -0.015885198 1.1224394e-38 322 252
0.0039712996 0.755 -0.015885198 1.1224394e-38 323 252
0.0052950666 0.755 -0.015885198 1.085598e-38 324 252
0.0066188332 0.755 -0.015885198 1.0671588e-38 325 252
0.0079425992 0.755 -0.015885198 1.0395372e-38 326 252
0.0092663663 0.755 -0.015885198 1.0395372e-38 327 252
0.010618187 0.75700003 -0.015927281 1.0120227e-38 328 252
0.01197702 0.759 -0.015969358 1.0028031e-38 329 252
0.0133078 0.759 -0.015969358 9.5674241e-39 330 252
0.014638579 0.759 -0.015969358 9.4752285e-39 331 252
0.016011439 0.76099998 -0.016011439 8.7401886e-39 332 252
0.017345725 0.76099998 -0.016011439 8.7401886e-39 333 252
0.01870456 0.76200002 -0.01603248 8.3735669e-39 334 252
0.0200406 0.76200002 -0.01603248 8.3735669e-39 335 252
0.021432746 0.764 -0.016074561 8.1899015e-39 336 252
0.022772292 0.764 -0.016074561 8.2820971e-39 337 252
0.024206521 0.76700002 -0.01613768 8.0998751e-39 338 252
0.025617953 0.76899999 -0.016179759 8.2842677e-39 339 252
0.027036399 0.77100003 -0.016221842 7.3698728e-39 340 252
0.028388219 0.77100003 -0.016221842 9.2137854e-39 341 252
-0.040554602 0.77100003 -0.01757366 1.3446462e-38 290 253
-0.03920278 0.77100003 -0.01757366 1.2893288e-38 291 253
-0.037850961 0.77100003 -0.01757366 1.3535398e-38 292 253
-0.036309779 0.76700002 -0.017482487 1.2890029e-38 293 253
-0.034964975 0.76700002 -0.017482487 1.3164815e-38 294 253
-0.033576332 0.76599997 -0.017459691 1.2980422e-38 295 253
-0.032022879 0.76099998 -0.017345725 1.3164088e-38 296 253
-0.030688593 0.76099998 -0.017345725 1.2887861e-38 297 253
-0.029277159 0.759 -0.017300138 1.3163e-38 298 253
-0.027946379 0.759 -0.017300138 1.3070805e-38 299 253
-0.026545467 0.75700003 -0.017254554 1.3437066e-38 300 253
-0.025218192 0.75700003 -0.017254554 1.3344869e-38 301 253
-0.023827799 0.755 -0.017208965 1.3434914e-38 302 253
-0.022504034 0.755 -0.017208965 1.3250883e-38 303 253
-0.021180267 0.755 -0.017208965 1.3157978e-38 304 253
-0.0198565 0.755 -0.017208965 1.3157978e-38 305 253
-0.018532733 0.755 -0.017208965 1.3157981e-38 306 253
-0.017208965 0.755 -0.017208965 1.3157981e-38 307 253
-0.01586416 0.75400001 -0.017186172 1.3065065e-38 308 253
-0.014542146 0.75400001 -0.017186172 1.2972869e-38 309 253
-0.013220133 0.75400001 -0.017186172 1.2789917e-38 310 253
-0.01189812 0.75400001 -0.017186172 1.2697722e-38 311 253
-0.010576107 0.75400001 -0.017186172 1.2515126e-38 312 253
-0.0092540924 0.75400001 -0.017186172 1.2515126e-38 313 253
-0.00793208 0.75400001 -0.017186172 1.2422933e-38 314 253
-0.0066100666 0.75400001 -0.017186172 1.2238541e-38 315 253
-0.0052880533 0.75400001 -0.017186172 1.1962324e-38 316 253
-0.00396604 0.75400001 -0.017186172 1.1593901e-38 317 253
-0.0026475333 0.755 -0.017208965 1.122656e-38 318 253
-0.0013237667 0.755 -0.017208965 1.1134006e-38 319 253
0 0.755 -0.017208965 1.1134359e-38 320 253
0.0013237667 0.755 -0.017208965 1.1042163e-38 321 253
0.0026475333 0.755 -0.017208965 1.10418e-38 322 253
0.0039712996 0.755 -0.017208965 1.0949246e-38 323 253
0.0052950666 0.755 -0.017208965 1.07645e-38 324 253
0.0066188332 0.755 -0.017208965 1.0580469e-38 325 253
0.0079425992 0.755 -0.017208965 1.0395727e-38 326 253
0.0092663663 0.755 -0.017208965 1.0395727e-38 327 253
0.010618187 0.75700003 -0.017254554 1.0028031e-38 328 253
0.01197702 0.759 -0.017300138 9.9358353e-39 329 253
0.0133078 0.759 -0.017300138 9.2919134e-39 330 253
0.014677152 0.76099998 -0.017345725 9.1997178e-39 331 253
0.016011439 0.76099998 -0.017345725 8.7401886e-39 332 253
0.017345725 0.76099998 -0.017345725 8.647993e-39 333 253
0.01870456 0.76200002 -0.01736852 8.5561603e-39 334 253
0.0200406 0.76200002 -0.01736852 8.5561603e-39 335 253
0.021432746 0.764 -0.017414106 8.3732137e-39 336 253
0.022772292 0.764 -0.017414106 8.4657681e-39 337 253
0.024206521 0.76700002 -0.017482487 8.0091088e-39 338 253
0.025617953 0.76899999 -0.017528072 8.1013058e-39 339 253
0.026966266 0.76899999 -0.017528072 7.5538913e-39 340 253
-0.03920278 0.77100003 -0.018925481 1.2800737e-38 291 254
-0.037850961 0.77100003 -0.018925481 1.344283e-38 292 254
-0.036309779 0.76700002 -0.018827293 1.3258439e-38 293 254
-0.034964975 0.76700002 -0.018827293 1.2889656e-38 294 254
-0.033576332 0.76599997 -0.018802745 1.2705265e-38 295 254
-0.032022879 0.76099998 -0.018680012 1.2796028e-38 296 254
-0.030688593 0.76099998 -0.018680012 1.2611997e-38 297 254
-0.029277159 0.759 -0.01863092 1.2794944e-38 298 254
-0.027946379 0.759 -0.01863092 1.2702747e-38 299 254
-0.026545467 0.75700003 -0.018581826 1.3069006e-38 300 254
-0.025218192 0.75700003 -0.018581826 1.297681e-38 301 254
-0.02389092 0.75700003 -0.018581826 1.2975738e-38 302 254
-0.022563647 0.75700003 -0.018581826 1.2883542e-38 303 254
-0.021236373 0.75700003 -0.018581826 1.2790638e-38 304 254
-0.0198565 0.755 -0.018532733 1.2790638e-38 305 254
-0.018532733 0.755 -0.018532733 1.2698092e-38 306 254
-0.017208965 0.755 -0.018532733 1.2698092e-38 307 254
-0.015885198 0.755 -0.018532733 1.2421863e-38 308 254
-0.014561433 0.755 -0.018532733 1.2421863e-38 309 254
-0.013237666 0.755 -0.018532733 1.2421863e-38 310 254
-0.011913899 0.755 -0.018532733 1.2605895e-38 311 254
-0.010590133 0.755 -0.018532733 1.2330381e-38 312 254
-0.0092540924 0.75400001 -0.018508185 1.2422935e-38 313 254
-0.00793208 0.75400001 -0.018508185 1.2148144e-38 314 254
-0.0066100666 0.75400001 -0.018508185 1.1871558e-38 315 254
-0.0052880533 0.75400001 -0.018508185 1.1961606e-38 316 254
-0.00396604 0.75400001 -0.018508185 1.1777213e-38 317 254
-0.0026475333 0.755 -0.018532733 1.1684661e-38 318 254
-0.0013237667 0.755 -0.018532733 1.1592466e-38 319 254
0 0.755 -0.018532733 1.1042166e-38 320 254
0.0013237667 0.755 -0.018532733 1.0765581e-38 321 254
0.0026475333 0.755 -0.018532733 1.0948175e-38 322 254
0.0039712996 0.755 -0.018532733 1.0948175e-38 323 254
0.0052950666 0.755 -0.018532733 1.0488286e-38 324 254
0.0066188332 0.755 -0.018532733 1.0303895e-38 325 254
0.0079425992 0.755 -0.018532733 1.0028034e-38 326 254
0.0092909131 0.75700003 -0.018581826 1.0028034e-38 327 254
0.010618187 0.75700003 -0.018581826 9.4763047e-39 328 254
0.01197702 0.759 -0.01863092 9.4763047e-39 329 254
0.0133078 0.759 -0.01863092 9.1082452e-39 330 254
0.014677152 0.76099998 -0.018680012 9.0160496e-39 331 254
0.016011439 0.76099998 -0.018680012 8.647993e-39 332 254
0.01736852 0.76200002 -0.01870456 8.4636003e-39 333 254
0.01870456 0.76200002 -0.01870456 8.0047928e-39 334 254
0.0200406 0.76200002 -0.01870456 8.0047928e-39 335 254
0.021432746 0.764 -0.018753653 7.5466999e-39 336 254
0.022772292 0.764 -0.018753653 7.8236455e-39 337 254
0.024206521 0.76700002 -0.018827293 7.3662729e-39 338 254
0.025617953 0.76899999 -0.018876385 7.7354156e-39 339 254
0.026966266 0.76899999 -0.018876385 8.1978356e-39 340 254
-0.03775277 0.76899999 -0.0202247 1.3535393e-38 292 255
-0.036309779 0.76700002 -0.020172099 1.3258804e-38 293 255
-0.034964975 0.76700002 -0.020172099 1.2982572e-38 294 255
-0.033576332 0.76599997 -0.020145798 1.2613788e-38 295 255
-0.032149121 0.764 -0.020093199 1.2795307e-38 296 255
-0.030688593 0.76099998 -0.020014299 1.2518718e-38 297 255
-0.029277159 0.759 -0.0199617 1.2793142e-38 298 255
-0.027946379 0.759 -0.0199617 1.2793142e-38 299 255
-0.026545467 0.75700003 -0.019909101 1.2884614e-38 300 255
-0.025218192 0.75700003 -0.019909101 1.2700224e-38 301 255
-0.02389092 0.75700003 -0.019909101 1.2791347e-38 302 255
-0.022563647 0.75700003 -0.019909101 1.2698791e-38 303 255
-0.021236373 0.75700003 -0.019909101 1.2606601e-38 304 255
-0.019909101 0.75700003 -0.019909101 1.2606601e-38 305 255
-0.018581826 0.75700003 -0.019909101 1.2606601e-38 306 255
-0.017208965 0.755 -0.0198565 1.2422211e-38 307 255
-0.015885198 0.755 -0.0198565 1.2513684e-38 308 255
-0.014561433 0.755 -0.0198565 1.2513684e-38 309 255
-0.013237666 0.755 -0.0198565 1.2238185e-38 310 255
-0.011913899 0.755 -0.0198565 1.2238185e-38 311 255
-0.010590133 0.755 -0.0198565 1.2147072e-38 312 255
-0.0092663663 0.755 -0.0198565 1.2054876e-38 313 255
-0.0079425992 0.755 -0.0198565 1.1871558e-38 314 255
-0.0066100666 0.75400001 -0.019830201 1.1779363e-38 315 255
-0.0052880533 0.75400001 -0.019830201 1.1777213e-38 316 255
-0.00396604 0.75400001 -0.019830201 1.1685017e-38 317 255
-0.0026475333 0.755 -0.0198565 1.1316605e-38 318 255
-0.0013237667 0.755 -0.0198565 1.1316605e-38 319 255
0 0.755 -0.0198565 1.0949617e-38 320 255
0.0013237667 0.755 -0.0198565 1.0580835e-38 321 255
0.0026475333 0.755 -0.0198565 1.0671235e-38 322 255
0.0039712996 0.755 -0.0198565 1.0671235e-38 323 255
0.0052950666 0.755 -0.0198565 1.011951e-38 324 255
0.0066363667 0.75700003 -0.019909101 1.0027315e-38 325 255
0.0079636406 0.75700003 -0.019909101 9.6592568e-39 326 255
0.00931546 0.759 -0.0199617 9.6592568e-39 327 255
0.01064624 0.759 -0.0199617 9.4763103e-39 328 255
0.012008579 0.76099998 -0.020014299 9.3837559e-39 329 255
0.013342866 0.76099998 -0.020014299 9.0167741e-39 330 255
0.014677152 0.76099998 -0.020014299 8.9242197e-39 331 255
0.01603248 0.76200002 -0.0200406 8.3721305e-39 332 255
0.01736852 0.76200002 -0.0200406 8.1877393e-39 333 255
0.01870456 0.76200002 -0.0200406 7.9122384e-39 334 255
0.020093199 0.764 -0.020093199 7.8200428e-39 335 255
0.021432746 0.764 -0.020093199 7.4545029e-39 336 255
0.022772292 0.764 -0.020093199 7.7314499e-39 337 255
0.024206521 0.76700002 -0.020172099 7.5499467e-39 338 255
0.025551327 0.76700002 -0.020172099 7.7339778e-39 339 255
0.026896132 0.76700002 -0.020172099 8.4747953e-39 340 255
-0.03775277 0.76899999 -0.021573013 1.3444642e-38 292 256
-0.036309779 0.76700002 -0.021516906 1.3075858e-38 293 256
-0.034964975 0.76700002 -0.021516906 1.3258436e-38 294 256
-0.033620168 0.76700002 -0.021516906 1.2705262e-38 295 256
-0.032233275 0.76599997 -0.021488851 1.2794591e-38 296 256
-0.030688593 0.76099998 -0.021348584 1.2518002e-38 297 256
-0.029354304 0.76099998 -0.021348584 1.2516928e-38 298 256
-0.027946379 0.759 -0.02129248 1.2424732e-38 299 256
-0.026615599 0.759 -0.02129248 1.2515846e-38 300 256
-0.025284819 0.759 -0.02129248 1.2423649e-38 301 256
-0.02389092 0.75700003 -0.021236373 1.2422933e-38 302 256
-0.022563647 0.75700003 -0.021236373 1.2330737e-38 303 256
-0.021236373 0.75700003 -0.021236373 1.2238541e-38 304 256
-0.0199617 0.759 -0.02129248 1.2330737e-38 305 256
-0.018581826 0.75700003 -0.021236373 1.2055226e-38 306 256
-0.017254554 0.75700003 -0.021236373 1.2055226e-38 307 256
-0.015927281 0.75700003 -0.021236373 1.2054507e-38 308 256
-0.014600007 0.75700003 -0.021236373 1.2054507e-38 309 256
-0.013237666 0.755 -0.021180267 1.1962678e-38 310 256
-0.011913899 0.755 -0.021180267 1.1870482e-38 311 256
-0.010590133 0.755 -0.021180267 1.1779009e-38 312 256
-0.0092663663 0.755 -0.021180267 1.1779009e-38 313 256
-0.0079425992 0.755 -0.021180267 1.168717e-38 314 256
-0.0066188332 0.755 -0.021180267 1.1594615e-38 315 256
-0.0052950666 0.755 -0.021180267 1.1501349e-38 316 256
-0.0039712996 0.755 -0.021180267 1.1316958e-38 317 256
-0.0026475333 0.755 -0.021180267 1.1316605e-38 318 256
-0.0013237667 0.755 -0.021180267 1.1224409e-38 319 256
0 0.755 -0.021180267 1.067303e-38 320 256
0.0013237667 0.755 -0.021180267 1.0488639e-38 321 256
0.0026475333 0.755 -0.021180267 1.0395372e-38 322 256
0.0039818203 0.75700003 -0.021236373 1.0303176e-38 323 256
0.0053090933 0.75700003 -0.021236373 9.7514496e-39 324 256
0.0066363667 0.75700003 -0.021236373 9.7514496e-39 325 256
0.0079846792 0.759 -0.02129248 9.4766606e-39 326 256
0.00931546 0.759 -0.02129248 9.384465e-39 327 256
0.010674292 0.76099998 -0.021348584 9.3841091e-39 328 256
0.012008579 0.76099998 -0.021348584 9.2919134e-39 329 256
0.013342866 0.76099998 -0.021348584 8.9245728e-39 330 256
0.014677152 0.76099998 -0.021348584 8.7405417e-39 331 256
0.01603248 0.76200002 -0.02137664 8.2799321e-39 332 256
0.01736852 0.76200002 -0.02137664 8.1877365e-39 333 256
0.018753653 0.764 -0.021432746 7.5452537e-39 334 256
0.020093199 0.764 -0.021432746 7.6374494e-39 335 256
0.021432746 0.764 -0.021432746 7.2715549e-39 336 256
0.022772292 0.764 -0.021432746 7.6406962e-39 337 256
0.024206521 0.76700002 -0.021516906 7.642864e-39 338 256
0.025551327 0.76700002 -0.021516906 8.1960378e-39 339 256
0.026896132 0.76700002 -0.021516906 9.6704672e-39 340 256
0.02824094 0.76700002 -0.021516906 1.2897314e-38 341 256
-0.037654586 0.76700002 -0.022861714 1.3446106e-38 292 257
-0.036309779 0.76700002 -0.022861714 1.2893291e-38 293 257
-0.034964975 0.76700002 -0.022861714 1.325773e-38 294 257
-0.033620168 0.76700002 -0.022861714 1.279711e-38 295 257
-0.032233275 0.76599997 -0.022831906 1.2519802e-38 296 257
-0.030809574 0.764 -0.022772292 1.2242855e-38 297 257
-0.029354304 0.76099998 -0.022682872 1.2332899e-38 298 257
-0.027946379 0.759 -0.02262326 1.2056672e-38 299 257
-0.026615599 0.759 -0.02262326 1.2148144e-38 300 257
-0.025284819 0.759 -0.02262326 1.2055589e-38 301 257
-0.023954039 0.759 -0.02262326 1.205487e-38 302 257
-0.02262326 0.759 -0.02262326 1.1962675e-38 303 257
-0.02129248 0.759 -0.02262326 1.1961956e-38 304 257
-0.0199617 0.759 -0.02262326 1.1961956e-38 305 257
-0.01863092 0.759 -0.02262326 1.1687164e-38 306 257
-0.017300138 0.759 -0.02262326 1.1594967e-38 307 257
-0.015969358 0.759 -0.02262326 1.1778286e-38 308 257
-0.014600007 0.75700003 -0.022563647 1.1593895e-38 309 257
-0.013272733 0.75700003 -0.022563647 1.1593545e-38 310 257
-0.011913899 0.755 -0.022504034 1.1593545e-38 311 257
-0.010590133 0.755 -0.022504034 1.1410953e-38 312 257
-0.0092663663 0.755 -0.022504034 1.1318756e-38 313 257
-0.0079425992 0.755 -0.022504034 1.1226204e-38 314 257
-0.0066188332 0.755 -0.022504034 1.1134009e-38 315 257
-0.0052950666 0.755 -0.022504034 1.1132939e-38 316 257
-0.0039712996 0.755 -0.022504034 1.0948548e-38 317 257
-0.0026475333 0.755 -0.022504034 1.0672684e-38 318 257
-0.0013237667 0.755 -0.022504034 1.0672684e-38 319 257
0 0.755 -0.022504034 1.0304621e-38 320 257
0.0013237667 0.755 -0.022504034 1.0028034e-38 321 257
0.0026475333 0.755 -0.022504034 9.7514524e-39 322 257
0.0039818203 0.75700003 -0.022563647 9.6592568e-39 323 257
0.0053231199 0.759 -0.02262326 9.1089641e-39 324 257
0.0066538998 0.759 -0.02262326 9.1089641e-39 325 257
0.0079846792 0.759 -0.02262326 9.2011499e-39 326 257
0.0093400059 0.76099998 -0.022682872 9.2011499e-39 327 257
0.010674292 0.76099998 -0.022682872 9.200794e-39 328 257
0.012008579 0.76099998 -0.022682872 9.1085984e-39 329 257
0.0133604 0.76200002 -0.02271268 8.7405445e-39 330 257
0.01469644 0.76200002 -0.02271268 8.5557931e-39 331 257
0.01603248 0.76200002 -0.02271268 7.9125943e-39 332 257
0.01736852 0.76200002 -0.02271268 7.8203987e-39 333 257
0.018753653 0.764 -0.022772292 7.3615856e-39 334 257
0.020093199 0.764 -0.022772292 7.5463355e-39 335 257
0.021488851 0.76599997 -0.022831906 7.4563049e-39 336 257
0.022861714 0.76700002 -0.022861714 7.9169243e-39 337 257
0.024206521 0.76700002 -0.022861714 7.6443087e-39 338 257
0.025551327 0.76700002 -0.022861714 8.6584607e-39 339 257
0.026896132 0.76700002 -0.022861714 9.4896829e-39 340 257
0.02824094 0.76700002 -0.022861714 1.1794572e-38 341 257
-0.037654586 0.76700002 -0.024206521 1.3541194e-38 292 258
-0.036309779 0.76700002 -0.024206521 1.2711794e-38 293 258
-0.034964975 0.76700002 -0.024206521 1.307407e-38 294 258
-0.033620168 0.76700002 -0.024206521 1.2797124e-38 295 258
-0.032233275 0.76599997 -0.024174958 1.2520167e-38 296 258
-0.030809574 0.764 -0.024111839 1.2059189e-38 297 258
-0.029354304 0.76099998 -0.024017159 1.1874082e-38 298 258
-0.028020019 0.76099998 -0.024017159 1.1781528e-38 299 258
-0.026615599 0.759 -0.023954039 1.2055592e-38 300 258
-0.025284819 0.759 -0.023954039 1.1871561e-38 301 258
-0.023954039 0.759 -0.023954039 1.1687886e-38 302 258
-0.02262326 0.759 -0.023954039 1.1503855e-38 303 258
-0.02129248 0.759 -0.023954039 1.1594967e-38 304 258
-0.0199617 0.759 -0.023954039 1.1594967e-38 305 258
-0.01863092 0.759 -0.023954039 1.1319456e-38 306 258
-0.017300138 0.759 -0.023954039 1.1319456e-38 307 258
-0.015969358 0.759 -0.023954039 1.1410225e-38 308 258
-0.014600007 0.75700003 -0.02389092 1.1225836e-38 309 258
-0.013272733 0.75700003 -0.02389092 1.113329e-38 310 258
-0.011913899 0.755 -0.023827799 1.1225485e-38 311 258
-0.010590133 0.755 -0.023827799 1.1134009e-38 312 258
-0.0092663663 0.755 -0.023827799 1.1041813e-38 313 258
-0.0079425992 0.755 -0.023827799 1.1132213e-38 314 258
-0.0066188332 0.755 -0.023827799 1.0947822e-38 315 258
-0.0052950666 0.755 -0.023827799 1.0763802e-38 316 258
-0.0039712996 0.755 -0.023827799 1.0487217e-38 317 258
-0.0026475333 0.755 -0.023827799 1.0670179e-38 318 258
-0.0013272733 0.75700003 -0.02389092 1.0485787e-38 319 258
0 0.755 -0.023827799 1.021028e-38 320 258
0.0013237667 0.755 -0.023827799 9.8414971e-39 321 258
0.0026545466 0.75700003 -0.02389092 9.3819609e-39 322 258
0.0039818203 0.75700003 -0.02389092 9.1057327e-39 323 258
0.0053231199 0.759 -0.023954039 8.7391082e-39 324 258
0.0066714329 0.76099998 -0.024017159 8.8313052e-39 325 258
0.0080057196 0.76099998 -0.024017159 9.1086012e-39 326 258
0.0093400059 0.76099998 -0.024017159 9.1086012e-39 327 258
0.010674292 0.76099998 -0.024017159 9.0171216e-39 328 258
0.01202436 0.76200002 -0.02404872 8.7408948e-39 329 258
0.0133604 0.76200002 -0.02404872 8.5557931e-39 330 258
0.01469644 0.76200002 -0.02404872 8.3714019e-39 331 258
0.01603248 0.76200002 -0.02404872 7.8203987e-39 332 258
0.017414106 0.764 -0.024111839 7.9125943e-39 333 258
0.018753653 0.764 -0.024111839 7.2715437e-39 334 258
0.020145798 0.76599997 -0.024174958 7.6399675e-39 335 258
0.021488851 0.76599997 -0.024174958 7.5492194e-39 336 258
0.022861714 0.76700002 -0.024206521 7.9183621e-39 337 258
0.024206521 0.76700002 -0.024206521 7.8304923e-39 338 258
0.025518013 0.76599997 -0.024174958 8.568416e-39 339 258
0.026861066 0.76599997 -0.024174958 8.5716726e-39 340 258
-0.037654586 0.76700002 -0.025551327 1.3451889e-38 292 259
-0.036309779 0.76700002 -0.025551327 1.2622127e-38 293 259
-0.034964975 0.76700002 -0.025551327 1.2891842e-38 294 259
-0.033620168 0.76700002 -0.025551327 1.2430865e-38 295 259
-0.032233275 0.76599997 -0.025518013 1.2612716e-38 296 259
-0.030890226 0.76599997 -0.025518013 1.2059542e-38 297 259
-0.029392879 0.76200002 -0.02538476 1.1874432e-38 298 259
-0.028020019 0.76099998 -0.025351444 1.1597485e-38 299 259
-0.026685731 0.76099998 -0.025351444 1.1688968e-38 300 259
-0.025284819 0.759 -0.025284819 1.1504218e-38 301 259
-0.023954039 0.759 -0.025284819 1.1320903e-38 302 259
-0.02262326 0.759 -0.025284819 1.1228707e-38 303 259
-0.02129248 0.759 -0.025284819 1.1136863e-38 304 259
-0.0199617 0.759 -0.025284819 1.1044667e-38 305 259
-0.01863092 0.759 -0.025284819 1.0952116e-38 306 259
-0.017300138 0.759 -0.025284819 1.085992e-38 307 259
-0.015969358 0.759 -0.025284819 1.1042163e-38 308 259
-0.014600007 0.75700003 -0.025218192 1.0949968e-38 309 259
-0.013272733 0.75700003 -0.025218192 1.0765586e-38 310 259
-0.011913899 0.755 -0.025151566 1.0765586e-38 311 259
-0.010590133 0.755 -0.025151566 1.0765586e-38 312 259
-0.0092663663 0.755 -0.025151566 1.0580835e-38 313 259
-0.0079425992 0.755 -0.025151566 1.0487938e-38 314 259
-0.0066188332 0.755 -0.025151566 1.0303188e-38 315 259
-0.0052950666 0.755 -0.025151566 9.8436649e-39 316 259
-0.0039712996 0.755 -0.025151566 9.6592722e-39 317 259
-0.0026475333 0.755 -0.025151566 9.3830525e-39 318 259
-0.0013272733 0.75700003 -0.025218192 9.2908568e-39 319 259
0 0.75700003 -0.025218192 8.9235163e-39 320 259
0.0013272733 0.75700003 -0.025218192 8.5550939e-39 321 259
0.0026545466 0.75700003 -0.025218192 8.462178e-39 322 259
0.0039818203 0.75700003 -0.025218192 8.3699824e-39 323 259
0.0053231199 0.759 -0.025284819 7.9118755e-39 324 259
0.0066714329 0.76099998 -0.025351444 8.2802978e-39 325 259
0.0080057196 0.76099998 -0.025351444 8.4657471e-39 326 259
0.0093400059 0.76099998 -0.025351444 8.7423326e-39 327 259
0.01068832 0.76200002 -0.02538476 9.0163999e-39 328 259
0.01202436 0.76200002 -0.02538476 8.8320087e-39 329 259
0.0133604 0.76200002 -0.02538476 8.3714047e-39 330 259
0.01469644 0.76200002 -0.02538476 8.2788503e-39 331 259
0.016074561 0.764 -0.025451386 7.5463299e-39 332 259
0.017414106 0.764 -0.025451386 7.6388843e-39 333 259
0.018753653 0.764 -0.025451386 7.1818634e-39 334 259
0.020145798 0.76599997 -0.025518013 7.3662547e-39 335 259
0.021488851 0.76599997 -0.025518013 7.6435702e-39 336 259
0.022861714 0.76700002 -0.025551327 8.1041897e-39 337 259
0.024206521 0.76700002 -0.025551327 8.0145388e-39 338 259
0.025518013 0.76599997 -0.025518013 8.4751582e-39 339 259
-0.037654586 0.76700002 -0.026896132 1.3729568e-38 292 260
-0.036309779 0.76700002 -0.026896132 1.280797e-38 293 260
-0.034964975 0.76700002 -0.026896132 1.3075882e-38 294 260
-0.033620168 0.76700002 -0.026896132 1.2707098e-38 295 260
-0.03227536 0.76700002 -0.026896132 1.2246101e-38 296 260
-0.030890226 0.76599997 -0.026861066 1.1877319e-38 297 260
-0.029470026 0.764 -0.026790932 1.1691133e-38 298 260
-0.028020019 0.76099998 -0.026685731 1.1506741e-38 299 260
-0.026685731 0.76099998 -0.026685731 1.1504939e-38 300 260
-0.025284819 0.759 -0.026615599 1.1504939e-38 301 260
-0.023954039 0.759 -0.026615599 1.1504571e-38 302 260
-0.02262326 0.759 -0.026615599 1.1412375e-38 303 260
-0.02129248 0.759 -0.026615599 1.104503e-38 304 260
