# .PCD v.7 - Point Cloud Data file format
FIELDS x y z rgb imX imY
SIZE 4 4 4 4 4 4
TYPE F F F F F F
COUNT 1 1 1 1 1 1
WIDTH 848
HEIGHT 1
VIEWPOINT 0 0 0 1 0 0 0
POINTS 848
DATA ascii
-0.023129974 0.77600002 0.029932907 1.7123073e-38 303 218
-0.021769386 0.77600002 0.029932907 1.7214917e-38 304 218
-0.0204088 0.77600002 0.029932907 1.7491503e-38 305 218
-0.019048214 0.77600002 0.029932907 1.7217433e-38 306 218
-0.017687626 0.77600002 0.029932907 1.7309629e-38 307 218
-0.01632704 0.77600002 0.029932907 1.730891e-38 308 218
-0.014966453 0.77600002 0.029932907 1.730891e-38 309 218
-0.013605867 0.77600002 0.029932907 1.7492575e-38 310 218
-0.01224528 0.77600002 0.029932907 1.740038e-38 311 218
-0.010884693 0.77600002 0.029932907 1.7584405e-38 312 218
-0.009524107 0.77600002 0.029932907 1.749221e-38 313 218
-0.0081635201 0.77600002 0.029932907 1.7767718e-38 314 218
-0.0067853997 0.77399999 0.029855758 1.7767718e-38 315 218
-0.0054283198 0.77399999 0.029855758 1.7951033e-38 316 218
-0.0040712398 0.77399999 0.029855758 1.7951033e-38 317 218
-0.0027141599 0.77399999 0.029855758 1.7675522e-38 318 218
-0.0013553266 0.773 0.029817186 1.7214903e-38 319 218
0 0.773 0.029817186 1.7305663e-38 320 218
0.0013553266 0.773 0.029817186 1.7029437e-38 321 218
0.0027106532 0.773 0.029817186 1.6660674e-38 322 218
0.0040659797 0.773 0.029817186 1.6568477e-38 323 218
0.0054213065 0.773 0.029817186 1.5741642e-38 324 218
0.0067766332 0.773 0.029817186 1.6018229e-38 325 218
0.0081319595 0.773 0.029817186 1.5110002e-38 326 218
0.0094872871 0.773 0.029817186 1.7138306e-38 327 218
-0.035375252 0.77600002 0.028572321 1.8896136e-38 294 219
-0.034014668 0.77600002 0.028572321 1.7236973e-38 295 219
-0.032654081 0.77600002 0.028572321 1.7133915e-38 296 219
-0.031293493 0.77600002 0.028572321 1.5197806e-38 297 219
-0.029932907 0.77600002 0.028572321 1.6294402e-38 298 219
-0.028572321 0.77600002 0.028572321 1.6386598e-38 299 219
-0.027211733 0.77600002 0.028572321 1.6846503e-38 300 219
-0.025917772 0.778 0.028645959 1.6754307e-38 301 219
-0.024553679 0.778 0.028645959 1.6937629e-38 302 219
-0.023129974 0.77600002 0.028572321 1.7121662e-38 303 219
-0.021769386 0.77600002 0.028572321 1.7122013e-38 304 219
-0.0204088 0.77600002 0.028572321 1.7306765e-38 305 219
-0.019048214 0.77600002 0.028572321 1.7216367e-38 306 219
-0.017687626 0.77600002 0.028572321 1.7216367e-38 307 219
-0.01632704 0.77600002 0.028572321 1.7399313e-38 308 219
-0.014966453 0.77600002 0.028572321 1.7491509e-38 309 219
-0.013570799 0.77399999 0.028498679 1.7399661e-38 310 219
-0.01221372 0.77399999 0.028498679 1.7491857e-38 311 219
-0.01085664 0.77399999 0.028498679 1.7675878e-38 312 219
-0.0094995592 0.77399999 0.028498679 1.7768074e-38 313 219
-0.0081424797 0.77399999 0.028498679 1.7951383e-38 314 219
-0.0067853997 0.77399999 0.028498679 1.8043937e-38 315 219
-0.0054213065 0.773 0.028461859 1.7952092e-38 316 219
-0.0040659797 0.773 0.028461859 1.7952092e-38 317 219
-0.0027106532 0.773 0.028461859 1.7951368e-38 318 219
-0.0013553266 0.773 0.028461859 1.7766976e-38 319 219
0 0.773 0.028461859 1.7398918e-38 320 219
0.0013553266 0.773 0.028461859 1.7122333e-38 321 219
0.0027106532 0.773 0.028461859 1.7211326e-38 322 219
0.0040659797 0.773 0.028461859 1.7211326e-38 323 219
0.0054213065 0.773 0.028461859 1.6198269e-38 324 219
0.0067766332 0.773 0.028461859 1.5737291e-38 325 219
0.0081319595 0.773 0.028461859 1.4179711e-38 326 219
0.0094872871 0.773 0.028461859 1.6208015e-38 327 219
0.010842613 0.773 0.028461859 1.5485995e-38 328 219
-0.036735836 0.77600002 0.027211733 1.687145e-38 293 220
-0.035375252 0.77600002 0.027211733 1.6491471e-38 294 220
-0.034014668 0.77600002 0.027211733 1.5200732e-38 295 220
-0.032654081 0.77600002 0.027211733 1.6204386e-38 296 220
-0.031293493 0.77600002 0.027211733 1.6111831e-38 297 220
-0.029855758 0.77399999 0.027141599 1.7029449e-38 298 220
-0.028498679 0.77399999 0.027141599 1.7121645e-38 299 220
-0.027141599 0.77399999 0.027141599 1.6937256e-38 300 220
-0.025851147 0.77600002 0.027211733 1.6937256e-38 301 220
-0.024490559 0.77600002 0.027211733 1.7120926e-38 302 220
-0.02307036 0.77399999 0.027141599 1.7305316e-38 303 220
-0.021713279 0.77399999 0.027141599 1.712272e-38 304 220
-0.020356199 0.77399999 0.027141599 1.7307112e-38 305 220
-0.018999118 0.77399999 0.027141599 1.7124519e-38 306 220
-0.01764204 0.77399999 0.027141599 1.7216714e-38 307 220
-0.016284959 0.77399999 0.027141599 1.740003e-38 308 220
-0.014927879 0.77399999 0.027141599 1.740003e-38 309 220
-0.013570799 0.77399999 0.027141599 1.7492222e-38 310 220
-0.01221372 0.77399999 0.027141599 1.7584777e-38 311 220
-0.01085664 0.77399999 0.027141599 1.7860286e-38 312 220
-0.0094995592 0.77399999 0.027141599 1.7860286e-38 313 220
-0.0081424797 0.77399999 0.027141599 1.7860639e-38 314 220
-0.0067766332 0.773 0.027106533 1.7952835e-38 315 220
-0.0054213065 0.773 0.027106533 1.8045737e-38 316 220
-0.0040659797 0.773 0.027106533 1.7860985e-38 317 220
-0.0027106532 0.773 0.027106533 1.7678023e-38 318 220
-0.0013553266 0.773 0.027106533 1.7401436e-38 319 220
0 0.773 0.027106533 1.7125923e-38 320 220
0.0013553266 0.773 0.027106533 1.6665304e-38 321 220
0.0027036399 0.77100003 0.027036399 1.6847544e-38 322 220
0.0040554604 0.77100003 0.027036399 1.6570955e-38 323 220
0.0054072798 0.77100003 0.027036399 1.6477335e-38 324 220
0.0067766332 0.773 0.027106533 1.6385139e-38 325 220
0.0081319595 0.773 0.027106533 1.555686e-38 326 220
0.0094872871 0.773 0.027106533 1.5464664e-38 327 220
0.010842613 0.773 0.027106533 1.4095109e-38 328 220
0.01216638 0.77100003 0.027036399 1.5939022e-38 329 220
-0.038194612 0.778 0.025917772 1.8338646e-38 292 221
-0.036735836 0.77600002 0.025851147 1.6402538e-38 293 221
-0.035375252 0.77600002 0.025851147 1.6023617e-38 294 221
-0.034014668 0.77600002 0.025851147 1.5378247e-38 295 221
-0.032654081 0.77600002 0.025851147 1.6570279e-38 296 221
-0.031212838 0.77399999 0.025784519 1.6477724e-38 297 221
-0.029855758 0.77399999 0.025784519 1.6753591e-38 298 221
-0.028498679 0.77399999 0.025784519 1.6661395e-38 299 221
-0.027141599 0.77399999 0.025784519 1.6570273e-38 300 221
-0.025784519 0.77399999 0.025784519 1.6478077e-38 301 221
-0.02442744 0.77399999 0.025784519 1.7121645e-38 302 221
-0.02307036 0.77399999 0.025784519 1.7306396e-38 303 221
-0.021713279 0.77399999 0.025784519 1.7398945e-38 304 221
-0.020356199 0.77399999 0.025784519 1.7675172e-38 305 221
-0.018999118 0.77399999 0.025784519 1.7584052e-38 306 221
-0.01764204 0.77399999 0.025784519 1.7584052e-38 307 221
-0.016284959 0.77399999 0.025784519 1.7584055e-38 308 221
-0.014927879 0.77399999 0.025784519 1.7768086e-38 309 221
-0.013553266 0.773 0.025751207 1.7769167e-38 310 221
-0.012197939 0.773 0.025751207 1.7861362e-38 311 221
-0.010842613 0.773 0.025751207 1.7861362e-38 312 221
-0.0094872871 0.773 0.025751207 1.7861362e-38 313 221
-0.0081319595 0.773 0.025751207 1.7952838e-38 314 221
-0.0067590997 0.77100003 0.02568458 1.8045033e-38 315 221
-0.0054072798 0.77100003 0.02568458 1.8045737e-38 316 221
-0.0040554604 0.77100003 0.02568458 1.7953182e-38 317 221
-0.0027036399 0.77100003 0.02568458 1.8045718e-38 318 221
-0.00135182 0.77100003 0.02568458 1.776913e-38 319 221
0 0.77100003 0.02568458 1.758473e-38 320 221
0.00135182 0.77100003 0.02568458 1.7124111e-38 321 221
0.0027036399 0.77100003 0.02568458 1.7030488e-38 322 221
0.0040554604 0.77100003 0.02568458 1.6846095e-38 323 221
0.0054072798 0.77100003 0.02568458 1.6476616e-38 324 221
0.0067766332 0.773 0.025751207 1.638442e-38 325 221
0.0081319595 0.773 0.025751207 1.5740512e-38 326 221
0.0094627403 0.77100003 0.02568458 1.5463924e-38 327 221
0.01081456 0.77100003 0.02568458 1.4268657e-38 328 221
0.01216638 0.77100003 0.02568458 1.5559396e-38 329 221
-0.038096428 0.77600002 0.024490559 1.6669384e-38 292 222
-0.036735836 0.77600002 0.024490559 1.5193895e-38 293 222
-0.03528408 0.77399999 0.02442744 1.6294796e-38 294 222
-0.033927001 0.77399999 0.02442744 1.62026e-38 295 222
-0.032569919 0.77399999 0.02442744 1.6568491e-38 296 222
-0.031212838 0.77399999 0.02442744 1.6292262e-38 297 222
-0.029817186 0.773 0.024395877 1.6474859e-38 298 222
-0.028461859 0.773 0.024395877 1.6474859e-38 299 222
-0.027106533 0.773 0.024395877 1.6477727e-38 300 222
-0.025751207 0.773 0.024395877 1.6753954e-38 301 222
-0.024395877 0.773 0.024395877 1.6938698e-38 302 222
-0.023040552 0.773 0.024395877 1.712345e-38 303 222
-0.021629119 0.77100003 0.02433276 1.7399679e-38 304 222
-0.020277301 0.77100003 0.02433276 1.7491875e-38 305 222
-0.018974574 0.773 0.024395877 1.7767739e-38 306 222
-0.017619247 0.773 0.024395877 1.7859936e-38 307 222
-0.016263919 0.773 0.024395877 1.7400758e-38 308 222
-0.014908593 0.773 0.024395877 1.7584791e-38 309 222
-0.013518199 0.77100003 0.02433276 1.7586235e-38 310 222
-0.01216638 0.77100003 0.02433276 1.767879e-38 311 222
-0.01081456 0.77100003 0.02433276 1.7677715e-38 312 222
-0.0094627403 0.77100003 0.02433276 1.7861746e-38 313 222
-0.0081109209 0.77100003 0.02433276 1.7769185e-38 314 222
-0.0067415666 0.76899999 0.024269639 1.786138e-38 315 222
-0.0053932532 0.76899999 0.024269639 1.7862084e-38 316 222
-0.0040449398 0.76899999 0.024269639 1.7769888e-38 317 222
-0.0026966266 0.76899999 0.024269639 1.8045381e-38 318 222
-0.0013483133 0.76899999 0.024269639 1.7768792e-38 319 222
0 0.76899999 0.024269639 1.7400362e-38 320 222
0.0013483133 0.76899999 0.024269639 1.6939742e-38 321 222
0.0026966266 0.76899999 0.024269639 1.6937591e-38 322 222
0.0040449398 0.76899999 0.024269639 1.6753199e-38 323 222
0.0053932532 0.76899999 0.024269639 1.6384064e-38 324 222
0.0067590997 0.77100003 0.02433276 1.6291869e-38 325 222
0.0081109209 0.77100003 0.02433276 1.6107126e-38 326 222
0.0094627403 0.77100003 0.02433276 1.6014571e-38 327 222
0.010786506 0.76899999 0.024269639 1.5187354e-38 328 222
0.012134819 0.76899999 0.024269639 1.5187354e-38 329 222
0.013483133 0.76899999 0.024269639 1.3630168e-38 330 222
-0.039457016 0.77600002 0.023129974 1.4838805e-38 291 223
-0.038096428 0.77600002 0.023129974 1.5653765e-38 292 223
-0.036641158 0.77399999 0.02307036 1.5100591e-38 293 223
-0.03528408 0.77399999 0.02307036 1.6294783e-38 294 223
-0.033927001 0.77399999 0.02307036 1.6110033e-38 295 223
-0.032569919 0.77399999 0.02307036 1.6199714e-38 296 223
-0.03117251 0.773 0.023040552 1.5922768e-38 297 223
-0.029817186 0.773 0.023040552 1.5922771e-38 298 223
-0.028461859 0.773 0.023040552 1.6199717e-38 299 223
-0.027036399 0.77100003 0.02298094 1.6110389e-38 300 223
-0.02568458 0.77100003 0.02298094 1.6294781e-38 301 223
-0.02433276 0.77100003 0.02298094 1.6662843e-38 302 223
-0.02298094 0.77100003 0.02298094 1.675504e-38 303 223
-0.021573013 0.76899999 0.022921326 1.7030551e-38 304 223
-0.0202247 0.76899999 0.022921326 1.7122746e-38 305 223
-0.018925481 0.77100003 0.02298094 1.7123462e-38 306 223
-0.01757366 0.77100003 0.02298094 1.7123462e-38 307 223
-0.016221842 0.77100003 0.02298094 1.6755403e-38 308 223
-0.01487002 0.77100003 0.02298094 1.6940153e-38 309 223
-0.013518199 0.77100003 0.02298094 1.6299832e-38 310 223
-0.01216638 0.77100003 0.02298094 1.6576778e-38 311 223
-0.01081456 0.77100003 0.02298094 1.6759371e-38 312 223
-0.0094627403 0.77100003 0.02298094 1.6667176e-38 313 223
-0.0080898795 0.76899999 0.022921326 1.7217457e-38 314 223
-0.0067415666 0.76899999 0.022921326 1.7310012e-38 315 223
-0.0053932532 0.76899999 0.022921326 1.7586223e-38 316 223
-0.0040449398 0.76899999 0.022921326 1.7586223e-38 317 223
-0.0026966266 0.76899999 0.022921326 1.7770241e-38 318 223
-0.0013483133 0.76899999 0.022921326 1.7401459e-38 319 223
0 0.76700002 0.022861714 1.684684e-38 320 223
0.0013448066 0.76700002 0.022861714 1.6662449e-38 321 223
0.0026896133 0.76700002 0.022861714 1.6752492e-38 322 223
0.00403442 0.76700002 0.022861714 1.6476266e-38 323 223
0.0053792265 0.76700002 0.022861714 1.6291518e-38 324 223
0.0067415666 0.76899999 0.022921326 1.6107126e-38 325 223
0.0080898795 0.76899999 0.022921326 1.6014577e-38 326 223
0.0094381925 0.76899999 0.022921326 1.5830546e-38 327 223
0.010786506 0.76899999 0.022921326 1.5185906e-38 328 223
0.012134819 0.76899999 0.022921326 1.5001874e-38 329 223
0.013483133 0.76899999 0.022921326 1.3807329e-38 330 223
0.014831445 0.76899999 0.022921326 1.4637449e-38 331 223
-0.040712398 0.77399999 0.021713279 1.5756054e-38 290 224
-0.039355319 0.77399999 0.021713279 1.3451522e-38 291 224
-0.037998237 0.77399999 0.021713279 1.5834523e-38 292 224
-0.036641158 0.77399999 0.021713279 1.5834523e-38 293 224
-0.03528408 0.77399999 0.021713279 1.6018191e-38 294 224
-0.033927001 0.77399999 0.021713279 1.5741963e-38 295 224
-0.032527838 0.773 0.021685226 1.5832376e-38 296 224
-0.03117251 0.773 0.021685226 1.5647626e-38 297 224
-0.029740039 0.77100003 0.021629119 1.574018e-38 298 224
-0.028388219 0.77100003 0.021629119 1.5924572e-38 299 224
-0.027036399 0.77100003 0.021629119 1.5834528e-38 300 224
-0.025617953 0.76899999 0.021573013 1.6110755e-38 301 224
-0.024269639 0.76899999 0.021573013 1.6477743e-38 302 224
-0.022921326 0.76899999 0.021573013 1.6569938e-38 303 224
-0.021516906 0.76700002 0.021516906 1.6845449e-38 304 224
-0.020172099 0.76700002 0.021516906 1.6845449e-38 305 224
-0.018876385 0.76899999 0.021573013 1.6386273e-38 306 224
-0.017528072 0.76899999 0.021573013 1.6386273e-38 307 224
-0.016179759 0.76899999 0.021573013 1.5744131e-38 308 224
-0.014831445 0.76899999 0.021573013 1.6020357e-38 309 224
-0.013483133 0.76899999 0.021573013 1.5105961e-38 310 224
-0.012134819 0.76899999 0.021573013 1.5382907e-38 311 224
-0.010786506 0.76899999 0.021573013 1.5198157e-38 312 224
-0.0094381925 0.76899999 0.021573013 1.5013765e-38 313 224
-0.0080898795 0.76899999 0.021573013 1.6390564e-38 314 224
-0.0067415666 0.76899999 0.021573013 1.6667509e-38 315 224
-0.0053932532 0.76899999 0.021573013 1.7310362e-38 316 224
-0.00403442 0.76700002 0.021516906 1.7494393e-38 317 224
-0.0026896133 0.76700002 0.021516906 1.7862096e-38 318 224
-0.0013448066 0.76700002 0.021516906 1.7493674e-38 319 224
0 0.76700002 0.021516906 1.6937254e-38 320 224
0.0013448066 0.76700002 0.021516906 1.6476275e-38 321 224
0.0026896133 0.76700002 0.021516906 1.6476266e-38 322 224
0.00403442 0.76700002 0.021516906 1.6383711e-38 323 224
0.0053792265 0.76700002 0.021516906 1.6382635e-38 324 224
0.006724033 0.76700002 0.021516906 1.6106407e-38 325 224
0.00806884 0.76700002 0.021516906 1.5829464e-38 326 224
0.0094136465 0.76700002 0.021516906 1.5829464e-38 327 224
0.010758453 0.76700002 0.021516906 1.5186258e-38 328 224
0.01210326 0.76700002 0.021516906 1.5002227e-38 329 224
0.013483133 0.76899999 0.021573013 1.4266124e-38 330 224
0.014831445 0.76899999 0.021573013 1.4266124e-38 331 224
-0.0408176 0.77600002 0.0204088 1.5104191e-38 290 225
-0.039355319 0.77399999 0.020356199 1.4274072e-38 291 225
-0.037998237 0.77399999 0.020356199 1.5740162e-38 292 225
-0.036641158 0.77399999 0.020356199 1.5740162e-38 293 225
-0.03528408 0.77399999 0.020356199 1.5922402e-38 294 225
-0.033927001 0.77399999 0.020356199 1.573801e-38 295 225
-0.032527838 0.773 0.0203299 1.564654e-38 296 225
-0.03117251 0.773 0.0203299 1.5830572e-38 297 225
-0.029740039 0.77100003 0.020277301 1.5648332e-38 298 225
-0.028388219 0.77100003 0.020277301 1.5740528e-38 299 225
-0.027036399 0.77100003 0.020277301 1.5925641e-38 300 225
-0.025617953 0.76899999 0.0202247 1.6017838e-38 301 225
-0.024269639 0.76899999 0.0202247 1.6384825e-38 302 225
-0.022861714 0.76700002 0.020172099 1.6477021e-38 303 225
-0.021516906 0.76700002 0.020172099 1.6660692e-38 304 225
-0.020172099 0.76700002 0.020172099 1.6660692e-38 305 225
-0.018827293 0.76700002 0.020172099 1.6384828e-38 306 225
-0.017482487 0.76700002 0.020172099 1.5739459e-38 307 225
-0.01613768 0.76700002 0.020172099 1.3813426e-38 308 225
-0.014792874 0.76700002 0.020172099 1.5104165e-38 309 225
-0.013448066 0.76700002 0.020172099 1.4559277e-38 310 225
-0.01210326 0.76700002 0.020172099 1.3821353e-38 311 225
-0.010758453 0.76700002 0.020172099 1.2350528e-38 312 225
-0.0094136465 0.76700002 0.020172099 1.2165778e-38 313 225
-0.00806884 0.76700002 0.020172099 1.4553491e-38 314 225
-0.006724033 0.76700002 0.020172099 1.519886e-38 315 225
-0.0053792265 0.76700002 0.020172099 1.7125613e-38 316 225
-0.00403442 0.76700002 0.020172099 1.7310006e-38 317 225
-0.0026896133 0.76700002 0.020172099 1.7862099e-38 318 225
-0.0013430532 0.76599997 0.020145798 1.7585873e-38 319 225
0 0.76599997 0.020145798 1.6936182e-38 320 225
0.0013430532 0.76599997 0.020145798 1.6475562e-38 321 225
0.0026861064 0.76599997 0.020145798 1.6476628e-38 322 225
0.0040291594 0.76599997 0.020145798 1.6292237e-38 323 225
0.0053722127 0.76599997 0.020145798 1.6198602e-38 324 225
0.0067152665 0.76599997 0.020145798 1.6106407e-38 325 225
0.00806884 0.76700002 0.020172099 1.5553597e-38 326 225
0.0094136465 0.76700002 0.020172099 1.54614e-38 327 225
0.010758453 0.76700002 0.020172099 1.4910029e-38 328 225
0.01210326 0.76700002 0.020172099 1.4910029e-38 329 225
0.013448066 0.76700002 0.020172099 1.4449786e-38 330 225
0.01487002 0.77100003 0.020277301 1.4449786e-38 331 225
0.016221842 0.77100003 0.020277301 1.2887194e-38 332 225
-0.042069476 0.77399999 0.018999118 1.1892492e-38 289 226
-0.040712398 0.77399999 0.018999118 1.5008379e-38 290 226
-0.039355319 0.77399999 0.018999118 1.4823629e-38 291 226
-0.037998237 0.77399999 0.018999118 1.5279906e-38 292 226
-0.036641158 0.77399999 0.018999118 1.5095156e-38 293 226
-0.035238493 0.773 0.018974574 1.4267574e-38 294 226
-0.033883166 0.773 0.018974574 1.4175378e-38 295 226
-0.032527838 0.773 0.018974574 1.500406e-38 296 226
-0.031091858 0.77100003 0.018925481 1.5188453e-38 297 226
-0.029740039 0.77100003 0.018925481 1.5647982e-38 298 226
-0.028388219 0.77100003 0.018925481 1.5740177e-38 299 226
-0.026966266 0.76899999 0.018876385 1.5649427e-38 300 226
-0.025617953 0.76899999 0.018876385 1.5741622e-38 301 226
-0.024206521 0.76700002 0.018827293 1.6108964e-38 302 226
-0.022831906 0.76599997 0.018802745 1.6292995e-38 303 226
-0.021488851 0.76599997 0.018802745 1.610932e-38 304 226
-0.020145798 0.76599997 0.018802745 1.610932e-38 305 226
-0.018802745 0.76599997 0.018802745 1.546467e-38 306 226
-0.017459691 0.76599997 0.018802745 1.4911496e-38 307 226
-0.016116638 0.76599997 0.018802745 1.3078766e-38 308 226
-0.014773586 0.76599997 0.018802745 1.4093276e-38 309 226
-0.013430533 0.76599997 0.018802745 1.3182138e-38 310 226
-0.012087479 0.76599997 0.018802745 1.1891399e-38 311 226
-0.010744425 0.76599997 0.018802745 1.1336761e-38 312 226
-0.0094136465 0.76700002 0.018827293 1.1428958e-38 313 226
-0.00806884 0.76700002 0.018827293 1.4366228e-38 314 226
-0.006724033 0.76700002 0.018827293 1.5472576e-38 315 226
-0.0053722127 0.76599997 0.018802745 1.7032348e-38 316 226
-0.0040291594 0.76599997 0.018802745 1.7492968e-38 317 226
-0.0026861064 0.76599997 0.018802745 1.7218182e-38 318 226
-0.0013395466 0.764 0.018753653 1.7310377e-38 319 226
0 0.764 0.018753653 1.7029099e-38 320 226
0.0013395466 0.764 0.018753653 1.6475925e-38 321 226
0.0026790933 0.764 0.018753653 1.6383717e-38 322 226
0.0040186401 0.764 0.018753653 1.6198967e-38 323 226
0.0053581866 0.764 0.018753653 1.6014571e-38 324 226
0.0067152665 0.76599997 0.018802745 1.5738345e-38 325 226
0.0080583189 0.76599997 0.018802745 1.555323e-38 326 226
0.0094013726 0.76599997 0.018802745 1.5368839e-38 327 226
0.010758453 0.76700002 0.018827293 1.481783e-38 328 226
0.01210326 0.76700002 0.018827293 1.4725635e-38 329 226
0.013448066 0.76700002 0.018827293 1.4357596e-38 330 226
0.014831445 0.76899999 0.018876385 1.4541987e-38 331 226
0.016221842 0.77100003 0.018925481 1.353002e-38 332 226
0.01757366 0.77100003 0.018925481 1.353002e-38 333 226
-0.043426558 0.77399999 0.01764204 1.4465318e-38 288 227
-0.042069476 0.77399999 0.01764204 1.252921e-38 289 227
-0.040712398 0.77399999 0.01764204 1.5189159e-38 290 227
-0.039304473 0.773 0.017619247 1.4912212e-38 291 227
-0.037949149 0.773 0.017619247 1.4449439e-38 292 227
-0.036593821 0.773 0.017619247 1.3711874e-38 293 227
-0.035238493 0.773 0.017619247 1.407671e-38 294 227
-0.033795502 0.77100003 0.01757366 1.472208e-38 295 227
-0.032443684 0.77100003 0.01757366 1.573801e-38 296 227
-0.031011207 0.76899999 0.017528072 1.6014598e-38 297 227
-0.02966289 0.76899999 0.017528072 1.5740162e-38 298 227
-0.028314579 0.76899999 0.017528072 1.5740162e-38 299 227
-0.026896132 0.76700002 0.017482487 1.5741256e-38 300 227
-0.025551327 0.76700002 0.017482487 1.5925288e-38 301 227
-0.024174958 0.76599997 0.017459691 1.6109683e-38 302 227
-0.022831906 0.76599997 0.017459691 1.6201879e-38 303 227
-0.021432746 0.764 0.017414106 1.6293348e-38 304 227
-0.020093199 0.764 0.017414106 1.5924925e-38 305 227
-0.018753653 0.764 0.017414106 1.4637067e-38 306 227
-0.017414106 0.764 0.017414106 1.436084e-38 307 227
-0.016074561 0.764 0.017414106 1.2525945e-38 308 227
-0.014735013 0.764 0.017414106 1.2433749e-38 309 227
-0.013395466 0.764 0.017414106 1.096403e-38 310 227
-0.01205592 0.764 0.017414106 1.0411215e-38 311 227
-0.010716373 0.764 0.017414106 1.1605418e-38 312 227
-0.0094013726 0.76599997 0.017459691 1.1974199e-38 313 227
-0.0080583189 0.76599997 0.017459691 1.4548103e-38 314 227
-0.0067152665 0.76599997 0.017459691 1.6022873e-38 315 227
-0.0053722127 0.76599997 0.017459691 1.6940872e-38 316 227
-0.0040291594 0.76599997 0.017459691 1.7033067e-38 317 227
-0.0026790933 0.764 0.017414106 1.7308926e-38 318 227
-0.0013395466 0.764 0.017414106 1.6940503e-38 319 227
0 0.76200002 0.01736852 1.712272e-38 320 227
0.00133604 0.76200002 0.01736852 1.647735e-38 321 227
0.00267208 0.76200002 0.01736852 1.6201118e-38 322 227
0.0040081199 0.76200002 0.01736852 1.5832334e-38 323 227
0.0053581866 0.764 0.017414106 1.5921657e-38 324 227
0.006697733 0.764 0.017414106 1.5829461e-38 325 227
0.0080583189 0.76599997 0.017459691 1.518589e-38 326 227
0.0094013726 0.76599997 0.017459691 1.5093694e-38 327 227
0.010758453 0.76700002 0.017482487 1.4725635e-38 328 227
0.01210326 0.76700002 0.017482487 1.4633439e-38 329 227
0.013448066 0.76700002 0.017482487 1.4265381e-38 330 227
0.014831445 0.76899999 0.017528072 1.4265381e-38 331 227
0.016221842 0.77100003 0.01757366 1.4082085e-38 332 227
0.01757366 0.77100003 0.01757366 1.4174281e-38 333 227
0.018925481 0.77100003 0.01757366 1.2520575e-38 334 227
-0.043426558 0.77399999 0.016284959 1.4090775e-38 288 228
-0.042069476 0.77399999 0.016284959 1.335321e-38 289 228
-0.040712398 0.77399999 0.016284959 1.5280274e-38 290 228
-0.039304473 0.773 0.016263919 1.4911493e-38 291 228
-0.037949149 0.773 0.016263919 1.4448369e-38 292 228
-0.036593821 0.773 0.016263919 1.3803e-38 293 228
-0.03514732 0.77100003 0.016221842 1.3529303e-38 294 228
-0.033795502 0.77100003 0.016221842 1.4543096e-38 295 228
-0.032359518 0.76899999 0.016179759 1.5741256e-38 296 228
-0.030930554 0.76700002 0.01613768 1.5649061e-38 297 228
-0.029585747 0.76700002 0.01613768 1.5832005e-38 298 228
-0.02824094 0.76700002 0.01613768 1.59242e-38 299 228
-0.026896132 0.76700002 0.01613768 1.564978e-38 300 228
-0.025518013 0.76599997 0.016116638 1.5834172e-38 301 228
-0.024174958 0.76599997 0.016116638 1.5742342e-38 302 228
-0.022772292 0.764 0.016074561 1.555831e-38 303 228
-0.021432746 0.764 0.016074561 1.5648705e-38 304 228
-0.020093199 0.764 0.016074561 1.5464314e-38 305 228
-0.018753653 0.764 0.016074561 1.4636351e-38 306 228
-0.01736852 0.76200002 0.01603248 1.4175373e-38 307 228
-0.01603248 0.76200002 0.01603248 1.2706726e-38 308 228
-0.01469644 0.76200002 0.01603248 1.2153553e-38 309 228
-0.0133604 0.76200002 0.01603248 1.1051546e-38 310 228
-0.01202436 0.76200002 0.01603248 1.0959351e-38 311 228
-0.010716373 0.764 0.016074561 1.1052613e-38 312 228
-0.0093768267 0.764 0.016074561 1.2251156e-38 313 228
-0.0080372803 0.764 0.016074561 1.5097323e-38 314 228
-0.006697733 0.764 0.016074561 1.620403e-38 315 228
-0.0053581866 0.764 0.016074561 1.6664658e-38 316 228
-0.0040186401 0.764 0.016074561 1.6756853e-38 317 228
-0.00267208 0.76200002 0.01603248 1.6665008e-38 318 228
-0.00133604 0.76200002 0.01603248 1.6480617e-38 319 228
0 0.76200002 0.01603248 1.6570992e-38 320 228
0.00133604 0.76200002 0.01603248 1.5925623e-38 321 228
0.00267208 0.76200002 0.01603248 1.6016008e-38 322 228
0.0040081199 0.76200002 0.01603248 1.5739061e-38 323 228
0.0053441599 0.76200002 0.01603248 1.5553953e-38 324 228
0.006697733 0.764 0.016074561 1.5461756e-38 325 228
0.0080372803 0.764 0.016074561 1.509405e-38 326 228
0.0094013726 0.76599997 0.016116638 1.5001496e-38 327 228
0.010744425 0.76599997 0.016116638 1.4725272e-38 328 228
0.01210326 0.76700002 0.01613768 1.4632716e-38 329 228
0.013448066 0.76700002 0.01613768 1.4265378e-38 330 228
0.014831445 0.76899999 0.016179759 1.4173182e-38 331 228
0.016179759 0.76899999 0.016179759 1.398952e-38 332 228
0.017528072 0.76899999 0.016179759 1.4081716e-38 333 228
0.018876385 0.76899999 0.016179759 1.2979369e-38 334 228
-0.044783637 0.77399999 0.014927879 9.5000931e-39 287 229
-0.043426558 0.77399999 0.014927879 1.3994246e-38 288 229
-0.042069476 0.77399999 0.014927879 1.4178639e-38 289 229
-0.040712398 0.77399999 0.014927879 1.5187004e-38 290 229
-0.039304473 0.773 0.014908593 1.463383e-38 291 229
-0.037850961 0.77100003 0.01487002 1.4539834e-38 292 229
-0.036499143 0.77100003 0.01487002 1.4079214e-38 293 229
-0.035056144 0.76899999 0.014831445 1.389843e-38 294 229
-0.033620168 0.76700002 0.014792874 1.4636354e-38 295 229
-0.03227536 0.76700002 0.014792874 1.5558663e-38 296 229
-0.030890226 0.76599997 0.014773586 1.5373913e-38 297 229
-0.029547172 0.76599997 0.014773586 1.5649058e-38 298 229
-0.028204117 0.76599997 0.014773586 1.5741254e-38 299 229
-0.026861066 0.76599997 0.014773586 1.5741256e-38 300 229
-0.025518013 0.76599997 0.014773586 1.5741256e-38 301 229
-0.024111839 0.764 0.014735013 1.5556512e-38 302 229
-0.02271268 0.76200002 0.01469644 1.5372121e-38 303 229
-0.02137664 0.76200002 0.01469644 1.5371047e-38 304 229
-0.0200406 0.76200002 0.01469644 1.5278852e-38 305 229
-0.01870456 0.76200002 0.01469644 1.4635279e-38 306 229
-0.01736852 0.76200002 0.01469644 1.4266495e-38 307 229
-0.01603248 0.76200002 0.01469644 1.3163034e-38 308 229
-0.01469644 0.76200002 0.01469644 1.2702057e-38 309 229
-0.0133604 0.76200002 0.01469644 1.2059584e-38 310 229
-0.01202436 0.76200002 0.01469644 1.2059584e-38 311 229
-0.01068832 0.76200002 0.01469644 1.2153921e-38 312 229
-0.0093522798 0.76200002 0.01469644 1.3721607e-38 313 229
-0.0080162399 0.76200002 0.01469644 1.5741259e-38 314 229
-0.0066801999 0.76200002 0.01469644 1.6386629e-38 315 229
-0.0053581866 0.764 0.014735013 1.6479191e-38 316 229
-0.0040081199 0.76200002 0.01469644 1.6755418e-38 317 229
-0.00267208 0.76200002 0.01469644 1.6572091e-38 318 229
-0.00133604 0.76200002 0.01469644 1.6387698e-38 319 229
0 0.76200002 0.01469644 1.6294049e-38 320 229
0.00133604 0.76200002 0.01469644 1.5741234e-38 321 229
0.00267208 0.76200002 0.01469644 1.5555754e-38 322 229
0.0040081199 0.76200002 0.01469644 1.5371004e-38 323 229
0.0053441599 0.76200002 0.01469644 1.500258e-38 324 229
0.006697733 0.764 0.014735013 1.500258e-38 325 229
0.0080372803 0.764 0.014735013 1.4818552e-38 326 229
0.0093768267 0.764 0.014735013 1.4726356e-38 327 229
0.010744425 0.76599997 0.014773586 1.4724919e-38 328 229
0.01210326 0.76700002 0.014792874 1.4540526e-38 329 229
0.013448066 0.76700002 0.014792874 1.4264659e-38 330 229
0.014831445 0.76899999 0.014831445 1.4172464e-38 331 229
0.016179759 0.76899999 0.014831445 1.4080281e-38 332 229
0.017528072 0.76899999 0.014831445 1.4265031e-38 333 229
0.018925481 0.77100003 0.01487002 1.3622572e-38 334 229
-0.046081103 0.773 0.013553266 1.3830404e-38 286 230
-0.044725779 0.773 0.013553266 1.0050383e-38 287 230
-0.043426558 0.77399999 0.013570799 1.4637094e-38 288 230
-0.042069476 0.77399999 0.013570799 1.4452701e-38 289 230
-0.040712398 0.77399999 0.013570799 1.5095161e-38 290 230
-0.039304473 0.773 0.013553266 1.4634183e-38 291 230
-0.037850961 0.77100003 0.013518199 1.444907e-38 292 230
-0.036499143 0.77100003 0.013518199 1.4356874e-38 293 230
-0.035056144 0.76899999 0.013483133 1.4083896e-38 294 230
-0.033620168 0.76700002 0.013448066 1.463707e-38 295 230
-0.032233275 0.76599997 0.013430533 1.5189525e-38 296 230
-0.030890226 0.76599997 0.013430533 1.5189525e-38 297 230
-0.029547172 0.76599997 0.013430533 1.5464314e-38 298 230
-0.028204117 0.76599997 0.013430533 1.5464314e-38 299 230
-0.026861066 0.76599997 0.013430533 1.5556512e-38 300 230
-0.025451386 0.764 0.013395466 1.5556512e-38 301 230
-0.024111839 0.764 0.013395466 1.5279571e-38 302 230
-0.02271268 0.76200002 0.0133604 1.491079e-38 303 230
-0.02137664 0.76200002 0.0133604 1.481896e-38 304 230
-0.0200406 0.76200002 0.0133604 1.4911155e-38 305 230
-0.01870456 0.76200002 0.0133604 1.491079e-38 306 230
-0.017345725 0.76099998 0.013342866 1.4818594e-38 307 230
-0.016011439 0.76099998 0.013342866 1.4450532e-38 308 230
-0.01469644 0.76200002 0.0133604 1.4635282e-38 309 230
-0.0133604 0.76200002 0.0133604 1.4360505e-38 310 230
-0.01202436 0.76200002 0.0133604 1.4360505e-38 311 230
-0.01068832 0.76200002 0.0133604 1.4635647e-38 312 230
-0.0093522798 0.76200002 0.0133604 1.5834191e-38 313 230
-0.0080162399 0.76200002 0.0133604 1.5834538e-38 314 230
-0.0066801999 0.76200002 0.0133604 1.6019288e-38 315 230
-0.0053441599 0.76200002 0.0133604 1.6387348e-38 316 230
-0.0040081199 0.76200002 0.0133604 1.6479545e-38 317 230
-0.00267208 0.76200002 0.0133604 1.6479898e-38 318 230
-0.0013342865 0.76099998 0.013342866 1.6202951e-38 319 230
0 0.76099998 0.013342866 1.6108584e-38 320 230
0.0013342865 0.76099998 0.013342866 1.5371019e-38 321 230
0.00267208 0.76200002 0.0133604 1.5092991e-38 322 230
0.0040081199 0.76200002 0.0133604 1.5092991e-38 323 230
0.0053441599 0.76200002 0.0133604 1.4541616e-38 324 230
0.0066801999 0.76200002 0.0133604 1.4541616e-38 325 230
0.0080372803 0.764 0.013395466 1.4450495e-38 326 230
0.0093768267 0.764 0.013395466 1.4357941e-38 327 230
0.010744425 0.76599997 0.013430533 1.4540893e-38 328 230
0.01210326 0.76700002 0.013448066 1.435686e-38 329 230
0.013448066 0.76700002 0.013448066 1.4172466e-38 330 230
0.014792874 0.76700002 0.013448066 1.4079912e-38 331 230
0.016179759 0.76899999 0.013483133 1.3804057e-38 332 230
0.017528072 0.76899999 0.013483133 1.3896252e-38 333 230
0.018925481 0.77100003 0.013518199 1.3529653e-38 334 230
0.020277301 0.77100003 0.013518199 1.3437457e-38 335 230
-0.047436431 0.773 0.012197939 1.4199584e-38 285 231
-0.046081103 0.773 0.012197939 1.2625744e-38 286 231
-0.044725779 0.773 0.012197939 1.0966223e-38 287 231
-0.043426558 0.77399999 0.01221372 1.4452698e-38 288 231
-0.042015124 0.773 0.012197939 1.4268307e-38 289 231
-0.0406598 0.773 0.012197939 1.4727102e-38 290 231
-0.039101087 0.76899999 0.012134819 1.4450515e-38 291 231
-0.037654586 0.76700002 0.01210326 1.426684e-38 292 231
-0.036309779 0.76700002 0.01210326 1.4174644e-38 293 231
-0.034964975 0.76700002 0.01210326 1.3900586e-38 294 231
-0.033620168 0.76700002 0.01210326 1.426901e-38 295 231
-0.032233275 0.76599997 0.012087479 1.4452688e-38 296 231
-0.030890226 0.76599997 0.012087479 1.4636719e-38 297 231
-0.029547172 0.76599997 0.012087479 1.4820395e-38 298 231
-0.028204117 0.76599997 0.012087479 1.4820395e-38 299 231
-0.026861066 0.76599997 0.012087479 1.4913308e-38 300 231
-0.025451386 0.764 0.01205592 1.5005503e-38 301 231
-0.024111839 0.764 0.01205592 1.5002985e-38 302 231
-0.022682872 0.76099998 0.012008579 1.4726398e-38 303 231
-0.021348584 0.76099998 0.012008579 1.44509e-38 304 231
-0.0200406 0.76200002 0.01202436 1.463565e-38 305 231
-0.018680012 0.76099998 0.012008579 1.4727843e-38 306 231
-0.017345725 0.76099998 0.012008579 1.4912236e-38 307 231
-0.016011439 0.76099998 0.012008579 1.5096603e-38 308 231
-0.014677152 0.76099998 0.012008579 1.5281355e-38 309 231
-0.013342866 0.76099998 0.012008579 1.5374622e-38 310 231
-0.012008579 0.76099998 0.012008579 1.5374622e-38 311 231
-0.010674292 0.76099998 0.012008579 1.5556509e-38 312 231
-0.0093400059 0.76099998 0.012008579 1.6109683e-38 313 231
-0.0080057196 0.76099998 0.012008579 1.5834544e-38 314 231
-0.0066714329 0.76099998 0.012008579 1.5926739e-38 315 231
-0.0053441599 0.76200002 0.01202436 1.583562e-38 316 231
-0.0040028598 0.76099998 0.012008579 1.6111847e-38 317 231
-0.0026685731 0.76099998 0.012008579 1.6202598e-38 318 231
-0.0013342865 0.76099998 0.012008579 1.5649424e-38 319 231
0 0.76099998 0.012008579 1.5647263e-38 320 231
0.0013342865 0.76099998 0.012008579 1.5001894e-38 321 231
0.00267208 0.76200002 0.01202436 1.4541271e-38 322 231
0.0040081199 0.76200002 0.01202436 1.4448717e-38 323 231
0.0053441599 0.76200002 0.01202436 1.4173206e-38 324 231
0.0066801999 0.76200002 0.01202436 1.4173206e-38 325 231
0.0080372803 0.764 0.01205592 1.408208e-38 326 231
0.0093768267 0.764 0.01205592 1.3989883e-38 327 231
0.010744425 0.76599997 0.012087479 1.4265028e-38 328 231
0.01210326 0.76700002 0.01210326 1.4080637e-38 329 231
0.013448066 0.76700002 0.01210326 1.3896247e-38 330 231
0.014792874 0.76700002 0.01210326 1.3804051e-38 331 231
0.016179759 0.76899999 0.012134819 1.3528193e-38 332 231
0.017528072 0.76899999 0.012134819 1.380442e-38 333 231
0.018925481 0.77100003 0.01216638 1.3437823e-38 334 231
0.020277301 0.77100003 0.01216638 1.3437823e-38 335 231
0.021769386 0.77600002 0.01224528 1.2519509e-38 336 231
-0.048791755 0.773 0.010842613 1.7518267e-38 284 232
-0.047436431 0.773 0.010842613 1.2170562e-38 285 232
-0.046081103 0.773 0.010842613 1.2525988e-38 286 232
-0.044725779 0.773 0.010842613 1.1788423e-38 287 232
-0.043426558 0.77399999 0.01085664 1.4450537e-38 288 232
-0.042015124 0.773 0.010842613 1.4450537e-38 289 232
-0.0406598 0.773 0.010842613 1.445052e-38 290 232
-0.038999394 0.76700002 0.010758453 1.426577e-38 291 232
-0.037654586 0.76700002 0.010758453 1.4357243e-38 292 232
-0.036309779 0.76700002 0.010758453 1.4357243e-38 293 232
-0.034964975 0.76700002 0.010758453 1.3990628e-38 294 232
-0.033620168 0.76700002 0.010758453 1.4175378e-38 295 232
-0.032233275 0.76599997 0.010744425 1.4358688e-38 296 232
-0.030890226 0.76599997 0.010744425 1.4450883e-38 297 232
-0.029547172 0.76599997 0.010744425 1.4543436e-38 298 232
-0.028204117 0.76599997 0.010744425 1.4543436e-38 299 232
-0.026861066 0.76599997 0.010744425 1.4819666e-38 300 232
-0.025451386 0.764 0.010716373 1.4635635e-38 301 232
-0.02404872 0.76200002 0.01068832 1.4726045e-38 302 232
-0.022682872 0.76099998 0.010674292 1.463385e-38 303 232
-0.021348584 0.76099998 0.010674292 1.4266872e-38 304 232
-0.0200406 0.76200002 0.01068832 1.472749e-38 305 232
-0.018680012 0.76099998 0.010674292 1.4637447e-38 306 232
-0.017345725 0.76099998 0.010674292 1.4913673e-38 307 232
-0.016011439 0.76099998 0.010674292 1.5098052e-38 308 232
-0.014677152 0.76099998 0.010674292 1.5282442e-38 309 232
-0.013342866 0.76099998 0.010674292 1.5466467e-38 310 232
-0.012008579 0.76099998 0.010674292 1.5466467e-38 311 232
-0.010674292 0.76099998 0.010674292 1.5466114e-38 312 232
-0.0093400059 0.76099998 0.010674292 1.5742342e-38 313 232
-0.0080057196 0.76099998 0.010674292 1.5831307e-38 314 232
-0.0066714329 0.76099998 0.010674292 1.6107533e-38 315 232
-0.0053371461 0.76099998 0.010674292 1.5834541e-38 316 232
-0.0040028598 0.76099998 0.010674292 1.5926737e-38 317 232
-0.0026685731 0.76099998 0.010674292 1.601712e-38 318 232
-0.0013342865 0.76099998 0.010674292 1.5371751e-38 319 232
0 0.76099998 0.010674292 1.5462146e-38 320 232
0.0013342865 0.76099998 0.010674292 1.5001526e-38 321 232
0.0026685731 0.76099998 0.010674292 1.4266477e-38 322 232
0.0040081199 0.76200002 0.01068832 1.398953e-38 323 232
0.0053441599 0.76200002 0.01068832 1.3989167e-38 324 232
0.0066801999 0.76200002 0.01068832 1.3989167e-38 325 232
0.0080372803 0.764 0.010716373 1.3897687e-38 326 232
0.0093768267 0.764 0.010716373 1.3897687e-38 327 232
0.010744425 0.76599997 0.010744425 1.4079562e-38 328 232
0.01210326 0.76700002 0.010758453 1.3987366e-38 329 232
0.013448066 0.76700002 0.010758453 1.3895173e-38 330 232
0.014792874 0.76700002 0.010758453 1.3710782e-38 331 232
0.016179759 0.76899999 0.010786506 1.3435643e-38 332 232
0.017528072 0.76899999 0.010786506 1.352784e-38 333 232
0.018974574 0.773 0.010842613 1.3253063e-38 334 232
0.020356199 0.77399999 0.01085664 1.3437455e-38 335 232
0.021769386 0.77600002 0.010884693 1.28872e-38 336 232
-0.048791755 0.773 0.0094872871 1.6503389e-38 284 233
-0.047436431 0.773 0.0094872871 1.0787261e-38 285 233
-0.046081103 0.773 0.0094872871 1.1786976e-38 286 233
-0.044725779 0.773 0.0094872871 1.2156117e-38 287 233
-0.043370452 0.773 0.0094872871 1.3717641e-38 288 233
-0.042015124 0.773 0.0094872871 1.3625086e-38 289 233
-0.0404494 0.76899999 0.0094381925 1.4081379e-38 290 233
-0.038999394 0.76700002 0.0094136465 1.3712955e-38 291 233
-0.037654586 0.76700002 0.0094136465 1.3529653e-38 292 233
-0.036309779 0.76700002 0.0094136465 1.362185e-38 293 233
-0.034919381 0.76599997 0.0094013726 1.3622937e-38 294 233
-0.033576332 0.76599997 0.0094013726 1.3715133e-38 295 233
-0.032233275 0.76599997 0.0094013726 1.4266495e-38 296 233
-0.030890226 0.76599997 0.0094013726 1.4266495e-38 297 233
-0.029470026 0.764 0.0093768267 1.4175378e-38 298 233
-0.028130481 0.764 0.0093768267 1.4082824e-38 299 233
-0.026790932 0.764 0.0093768267 1.4082839e-38 300 233
-0.025451386 0.764 0.0093768267 1.4082839e-38 301 233
-0.024017159 0.76099998 0.0093400059 1.4174675e-38 302 233
-0.022682872 0.76099998 0.0093400059 1.4266872e-38 303 233
-0.021348584 0.76099998 0.0093400059 1.4268307e-38 304 233
-0.020014299 0.76099998 0.0093400059 1.4545252e-38 305 233
-0.018680012 0.76099998 0.0093400059 1.4731083e-38 306 233
-0.017345725 0.76099998 0.0093400059 1.4547052e-38 307 233
-0.016011439 0.76099998 0.0093400059 1.5005509e-38 308 233
-0.014677152 0.76099998 0.0093400059 1.5005509e-38 309 233
-0.013342866 0.76099998 0.0093400059 1.5191325e-38 310 233
-0.012008579 0.76099998 0.0093400059 1.5375718e-38 311 233
-0.010674292 0.76099998 0.0093400059 1.5651226e-38 312 233
-0.0093400059 0.76099998 0.0093400059 1.5282442e-38 313 233
-0.0080057196 0.76099998 0.0093400059 1.5463263e-38 314 233
-0.0066714329 0.76099998 0.0093400059 1.5278513e-38 315 233
-0.0053371461 0.76099998 0.0093400059 1.500697e-38 316 233
-0.0040028598 0.76099998 0.0093400059 1.5375393e-38 317 233
-0.0026685731 0.76099998 0.0093400059 1.5003691e-38 318 233
-0.0013342865 0.76099998 0.0093400059 1.4634549e-38 319 233
0 0.76099998 0.0093400059 1.4727802e-38 320 233
0.0013342865 0.76099998 0.0093400059 1.4359379e-38 321 233
0.0026685731 0.76099998 0.0093400059 1.4357946e-38 322 233
0.0040081199 0.76200002 0.0093522798 1.408136e-38 323 233
0.0053441599 0.76200002 0.0093522798 1.3714019e-38 324 233
0.0066801999 0.76200002 0.0093522798 1.3621823e-38 325 233
0.0080372803 0.764 0.0093768267 1.3896252e-38 326 233
0.0093768267 0.764 0.0093768267 1.3896252e-38 327 233
0.010744425 0.76599997 0.0094013726 1.3896252e-38 328 233
0.01210326 0.76700002 0.0094136465 1.3804057e-38 329 233
0.013448066 0.76700002 0.0094136465 1.3436713e-38 330 233
0.014792874 0.76700002 0.0094136465 1.3344516e-38 331 233
0.016179759 0.76899999 0.0094381925 1.3160495e-38 332 233
0.017528072 0.76899999 0.0094381925 1.3253051e-38 333 233
0.018925481 0.77100003 0.0094627403 1.3070114e-38 334 233
0.020277301 0.77100003 0.0094627403 1.3254864e-38 335 233
0.021713279 0.77399999 0.0094995592 1.2888269e-38 336 233
0.023249198 0.77999997 0.0095731998 1.4086812e-38 337 233
-0.04885488 0.77399999 0.0081424797 1.502789e-38 284 234
-0.047497798 0.77399999 0.0081424797 9.8649352e-39 285 234
-0.046081103 0.773 0.0081319595 1.15093e-38 286 234
-0.044725779 0.773 0.0081319595 1.2523092e-38 287 234
-0.043370452 0.773 0.0081319595 1.3715118e-38 288 234
-0.042015124 0.773 0.0081319595 1.3715118e-38 289 234
-0.0404494 0.76899999 0.0080898795 1.3712955e-38 290 234
-0.038999394 0.76700002 0.00806884 1.3343813e-38 291 234
-0.037654586 0.76700002 0.00806884 1.3527136e-38 292 234
-0.036309779 0.76700002 0.00806884 1.3988113e-38 293 234
-0.034919381 0.76599997 0.0080583189 1.3622202e-38 294 234
-0.033576332 0.76599997 0.0080583189 1.3990984e-38 295 234
-0.032233275 0.76599997 0.0080583189 1.4173925e-38 296 234
-0.030809574 0.764 0.0080372803 1.4173925e-38 297 234
-0.029470026 0.764 0.0080372803 1.4356521e-38 298 234
-0.028130481 0.764 0.0080372803 1.4264324e-38 299 234
-0.026790932 0.764 0.0080372803 1.4263974e-38 300 234
-0.025451386 0.764 0.0080372803 1.4356171e-38 301 234
-0.024017159 0.76099998 0.0080057196 1.4173227e-38 302 234
-0.022682872 0.76099998 0.0080057196 1.4357619e-38 303 234
-0.021348584 0.76099998 0.0080057196 1.4175392e-38 304 234
-0.020014299 0.76099998 0.0080057196 1.4359784e-38 305 234
-0.018680012 0.76099998 0.0080057196 1.4912239e-38 306 234
-0.017345725 0.76099998 0.0080057196 1.509627e-38 307 234
-0.016011439 0.76099998 0.0080057196 1.472749e-38 308 234
-0.014677152 0.76099998 0.0080057196 1.4543099e-38 309 234
-0.013342866 0.76099998 0.0080057196 1.4637449e-38 310 234
-0.012008579 0.76099998 0.0080057196 1.5005872e-38 311 234
-0.010674292 0.76099998 0.0080057196 1.5375365e-38 312 234
-0.0093400059 0.76099998 0.0080057196 1.5283168e-38 313 234
-0.0080057196 0.76099998 0.0080057196 1.500371e-38 314 234
-0.0066714329 0.76099998 0.0080057196 1.4542733e-38 315 234
-0.0053231199 0.759 0.0079846792 1.4729295e-38 316 234
-0.0039923396 0.759 0.0079846792 1.5189913e-38 317 234
-0.0026685731 0.76099998 0.0080057196 1.4635282e-38 318 234
-0.0013342865 0.76099998 0.0080057196 1.4358335e-38 319 234
0 0.76099998 0.0080057196 1.4634536e-38 320 234
0.0013342865 0.76099998 0.0080057196 1.4542341e-38 321 234
0.00267208 0.76200002 0.0080162399 1.4174278e-38 322 234
0.0040081199 0.76200002 0.0080162399 1.3989886e-38 323 234
0.0053441599 0.76200002 0.0080162399 1.3713656e-38 324 234
0.0066801999 0.76200002 0.0080162399 1.362146e-38 325 234
0.0080372803 0.764 0.0080372803 1.3896968e-38 326 234
0.0093768267 0.764 0.0080372803 1.3804773e-38 327 234
0.010744425 0.76599997 0.0080583189 1.3621458e-38 328 234
0.01210326 0.76700002 0.00806884 1.3529262e-38 329 234
0.013448066 0.76700002 0.00806884 1.3253398e-38 330 234
0.014792874 0.76700002 0.00806884 1.3161201e-38 331 234
0.01613768 0.76700002 0.00806884 1.3067936e-38 332 234
0.017528072 0.76899999 0.0080898795 1.3251967e-38 333 234
0.018925481 0.77100003 0.0081109209 1.3161218e-38 334 234
0.020277301 0.77100003 0.0081109209 1.3438164e-38 335 234
0.021629119 0.77100003 0.0081109209 1.2979016e-38 336 234
0.023249198 0.77999997 0.0082055992 1.3624385e-38 337 234
0.024648361 0.78100002 0.0082161194 1.2441723e-38 338 234
-0.04885488 0.77399999 0.0067853997 1.3644587e-38 284 235
-0.047497798 0.77399999 0.0067853997 9.5876196e-39 285 235
-0.046140719 0.77399999 0.0067853997 1.2425859e-38 286 235
-0.044783637 0.77399999 0.0067853997 1.3071228e-38 287 235
-0.043426558 0.77399999 0.0067853997 1.3347064e-38 288 235
-0.042015124 0.773 0.0067766332 1.3254508e-38 289 235
-0.0404494 0.76899999 0.0067415666 1.3711521e-38 290 235
-0.038999394 0.76700002 0.006724033 1.3711521e-38 291 235
-0.037654586 0.76700002 0.006724033 1.3344187e-38 292 235
-0.036309779 0.76700002 0.006724033 1.3528577e-38 293 235
-0.034964975 0.76700002 0.006724033 1.3347064e-38 294 235
-0.033576332 0.76599997 0.0067152665 1.3347064e-38 295 235
-0.032233275 0.76599997 0.0067152665 1.3713321e-38 296 235
-0.030809574 0.764 0.006697733 1.3621126e-38 297 235
-0.029470026 0.764 0.006697733 1.3803719e-38 298 235
-0.028130481 0.764 0.006697733 1.3803719e-38 299 235
-0.026790932 0.764 0.006697733 1.3712246e-38 300 235
-0.025451386 0.764 0.006697733 1.3712246e-38 301 235
-0.024017159 0.76099998 0.0066714329 1.3712618e-38 302 235
-0.022682872 0.76099998 0.0066714329 1.3804815e-38 303 235
-0.021348584 0.76099998 0.0066714329 1.3988858e-38 304 235
-0.020014299 0.76099998 0.0066714329 1.4265085e-38 305 235
-0.018680012 0.76099998 0.0066714329 1.4542395e-38 306 235
-0.017345725 0.76099998 0.0066714329 1.4634591e-38 307 235
-0.016011439 0.76099998 0.0066714329 1.4266166e-38 308 235
-0.014638579 0.759 0.0066538998 1.4450197e-38 309 235
-0.0133078 0.759 0.0066538998 1.4269033e-38 310 235
-0.01197702 0.759 0.0066538998 1.4730011e-38 311 235
-0.01064624 0.759 0.0066538998 1.5098777e-38 312 235
-0.0093400059 0.76099998 0.0066714329 1.5098777e-38 313 235
-0.0080057196 0.76099998 0.0066714329 1.5279219e-38 314 235
-0.0066714329 0.76099998 0.0066714329 1.5002991e-38 315 235
-0.0053231199 0.759 0.0066538998 1.417684e-38 316 235
-0.0039923396 0.759 0.0066538998 1.417684e-38 317 235
-0.0026685731 0.76099998 0.0066714329 1.4450534e-38 318 235
-0.0013342865 0.76099998 0.0066714329 1.4266142e-38 319 235
0 0.76099998 0.0066714329 1.4449439e-38 320 235
0.0013342865 0.76099998 0.0066714329 1.4173212e-38 321 235
0.00267208 0.76200002 0.0066801999 1.4081009e-38 322 235
0.0040081199 0.76200002 0.0066801999 1.3896618e-38 323 235
0.0053441599 0.76200002 0.0066801999 1.3528912e-38 324 235
0.006697733 0.764 0.006697733 1.3528912e-38 325 235
0.0080372803 0.764 0.006697733 1.3528909e-38 326 235
0.0093768267 0.764 0.006697733 1.3436713e-38 327 235
0.010744425 0.76599997 0.0067152665 1.343671e-38 328 235
0.01210326 0.76700002 0.006724033 1.343671e-38 329 235
0.013448066 0.76700002 0.006724033 1.306865e-38 330 235
0.014792874 0.76700002 0.006724033 1.2976454e-38 331 235
0.01613768 0.76700002 0.006724033 1.2792794e-38 332 235
0.017528072 0.76899999 0.0067415666 1.2792794e-38 333 235
0.018876385 0.76899999 0.0067415666 1.2885007e-38 334 235
0.020277301 0.77100003 0.0067590997 1.3161594e-38 335 235
0.021629119 0.77100003 0.0067590997 1.2886464e-38 336 235
0.023129974 0.77600002 0.0068029333 1.3255607e-38 337 235
0.024553679 0.778 0.0068204664 1.2713268e-38 338 235
-0.050341707 0.77600002 0.0054423464 1.5214094e-38 283 236
-0.048981119 0.77600002 0.0054423464 1.2627186e-38 284 236
-0.047497798 0.77399999 0.0054283198 9.861317e-39 285 236
-0.046140719 0.77399999 0.0054283198 1.3253807e-38 286 236
-0.044783637 0.77399999 0.0054283198 1.3253807e-38 287 236
-0.043426558 0.77399999 0.0054283198 1.3253066e-38 288 236
-0.042015124 0.773 0.0054213065 1.3253066e-38 289 236
-0.0404494 0.76899999 0.0053932532 1.3710802e-38 290 236
-0.038999394 0.76700002 0.0053792265 1.3710802e-38 291 236
-0.037654586 0.76700002 0.0053792265 1.3435659e-38 292 236
-0.036309779 0.76700002 0.0053792265 1.3527855e-38 293 236
-0.034964975 0.76700002 0.0053792265 1.3344187e-38 294 236
-0.033576332 0.76599997 0.0053722127 1.3344187e-38 295 236
-0.032233275 0.76599997 0.0053722127 1.3527136e-38 296 236
-0.030890226 0.76599997 0.0053722127 1.3434941e-38 297 236
-0.029470026 0.764 0.0053581866 1.3618253e-38 298 236
-0.028130481 0.764 0.0053581866 1.3618253e-38 299 236
-0.026790932 0.764 0.0053581866 1.3434941e-38 300 236
-0.025451386 0.764 0.0053581866 1.3527136e-38 301 236
-0.024017159 0.76099998 0.0053371461 1.3527505e-38 302 236
-0.022682872 0.76099998 0.0053371461 1.36197e-38 303 236
-0.021348584 0.76099998 0.0053371461 1.3987056e-38 304 236
-0.020014299 0.76099998 0.0053371461 1.4171449e-38 305 236
-0.018680012 0.76099998 0.0053371461 1.4355836e-38 306 236
-0.017345725 0.76099998 0.0053371461 1.4540227e-38 307 236
-0.015969358 0.759 0.0053231199 1.4264717e-38 308 236
-0.014638579 0.759 0.0053231199 1.4449467e-38 309 236
-0.0133078 0.759 0.0053231199 1.4084992e-38 310 236
-0.01197702 0.759 0.0053231199 1.454597e-38 311 236
-0.01064624 0.759 0.0053231199 1.5098052e-38 312 236
-0.00931546 0.759 0.0053231199 1.5098052e-38 313 236
-0.0079846792 0.759 0.0053231199 1.5005859e-38 314 236
-0.0066538998 0.759 0.0053231199 1.4452685e-38 315 236
-0.0053371461 0.76099998 0.0053371461 1.4266869e-38 316 236
-0.0040028598 0.76099998 0.0053371461 1.3990281e-38 317 236
-0.0026685731 0.76099998 0.0053371461 1.4172155e-38 318 236
-0.0013342865 0.76099998 0.0053371461 1.4172155e-38 319 236
0 0.76099998 0.0053371461 1.4172506e-38 320 236
0.0013342865 0.76099998 0.0053371461 1.3988113e-38 321 236
0.0026685731 0.76099998 0.0053371461 1.3803716e-38 322 236
0.0040028598 0.76099998 0.0053371461 1.3711521e-38 323 236
0.0053441599 0.76200002 0.0053441599 1.3436363e-38 324 236
