# .PCD v.7 - Point Cloud Data file format
FIELDS x y z rgb imX imY
SIZE 4 4 4 4 4 4
TYPE F F F F F F
COUNT 1 1 1 1 1 1
WIDTH 837
HEIGHT 1
VIEWPOINT 0 0 0 1 0 0 0
POINTS 837
DATA ascii
0.011061779 0.70099998 -0.025810819 1.8689328e-38 329 261
0.012290866 0.70099998 -0.025810819 1.8965545e-38 330 261
0.013616386 0.70599997 -0.025994917 1.8965545e-38 331 261
0.014854239 0.70599997 -0.025994917 1.8965189e-38 332 261
0.016092092 0.70599997 -0.025994917 1.8872993e-38 333 261
0.017354494 0.70700002 -0.02603174 1.8782946e-38 334 261
0.018594101 0.70700002 -0.02603174 1.8598555e-38 335 261
0.019833706 0.70700002 -0.02603174 1.8505636e-38 336 261
0.021073313 0.70700002 -0.02603174 1.8045018e-38 337 261
0.022312919 0.70700002 -0.02603174 1.8318729e-38 338 261
0.023552528 0.70700002 -0.02603174 1.8318729e-38 339 261
0.024792133 0.70700002 -0.02603174 1.7860269e-38 340 261
0.02603174 0.70700002 -0.02603174 1.7675878e-38 341 261
0.027271347 0.70700002 -0.02603174 1.7398212e-38 342 261
0.028510952 0.70700002 -0.02603174 1.6937235e-38 343 261
0.029750559 0.70700002 -0.02603174 1.6292234e-38 344 261
0.031034 0.708 -0.026068559 1.5739061e-38 345 261
0.032366529 0.70999998 -0.026142199 1.4637094e-38 346 261
0.033611398 0.70999998 -0.026142199 1.6665397e-38 347 261
0.00124662 0.71100003 -0.027425639 1.7307856e-38 321 262
0.0024932399 0.71100003 -0.027425639 1.7584058e-38 322 262
0.0037398601 0.71100003 -0.027425639 1.7952482e-38 323 262
0.0049514128 0.70599997 -0.027232772 1.8045033e-38 324 262
0.0061892662 0.70599997 -0.027232772 1.8229424e-38 325 262
0.0074271196 0.70599997 -0.027232772 1.8413456e-38 326 262
0.0086404262 0.704 -0.027155625 1.8413456e-38 327 262
0.0098326923 0.70099998 -0.027039904 1.8689681e-38 328 262
0.011061779 0.70099998 -0.027039904 1.8873712e-38 329 262
0.012290866 0.70099998 -0.027039904 1.8690047e-38 330 262
0.013616386 0.70599997 -0.027232772 1.8597851e-38 331 262
0.014854239 0.70599997 -0.027232772 1.8505305e-38 332 262
0.016092092 0.70599997 -0.027232772 1.8597501e-38 333 262
0.017329946 0.70599997 -0.027232772 1.8507466e-38 334 262
0.018567799 0.70599997 -0.027232772 1.860002e-38 335 262
0.019833706 0.70700002 -0.027271347 1.8414186e-38 336 262
0.021073313 0.70700002 -0.027271347 1.8045043e-38 337 262
0.022312919 0.70700002 -0.027271347 1.8410939e-38 338 262
0.023552528 0.70700002 -0.027271347 1.8318743e-38 339 262
0.024792133 0.70700002 -0.027271347 1.7859916e-38 340 262
0.02603174 0.70700002 -0.027271347 1.7675525e-38 341 262
0.027271347 0.70700002 -0.027271347 1.7490412e-38 342 262
0.028510952 0.70700002 -0.027271347 1.7121629e-38 343 262
0.029750559 0.70700002 -0.027271347 1.6937256e-38 344 262
0.030990168 0.70700002 -0.027271347 1.6660671e-38 345 262
0.03227536 0.708 -0.027309919 1.6107515e-38 346 262
0.033516716 0.708 -0.027309919 1.5830928e-38 347 262
0.034856264 0.70999998 -0.027387066 1.3719104e-38 348 262
-0.0024932399 0.71100003 -0.028672259 1.8052611e-38 318 263
-0.00124662 0.71100003 -0.028672259 1.6945904e-38 319 263
0 0.70999998 -0.028631933 1.740038e-38 320 263
0.0012448666 0.70999998 -0.028631933 1.7584771e-38 321 263
0.00248272 0.708 -0.02855128 1.7860283e-38 322 263
0.0037188199 0.70700002 -0.028510952 1.8045033e-38 323 263
0.0049514128 0.70599997 -0.028470624 1.8136873e-38 324 263
0.0061717331 0.704 -0.028389972 1.8413458e-38 325 263
0.0074060797 0.704 -0.028389972 1.8506004e-38 326 263
0.0086404262 0.704 -0.028389972 1.8598201e-38 327 263
0.0098326923 0.70099998 -0.028268991 1.8691119e-38 328 263
0.011061779 0.70099998 -0.028268991 1.8691119e-38 329 263
0.012290866 0.70099998 -0.028268991 1.7954648e-38 330 263
0.013519952 0.70099998 -0.028268991 1.7862452e-38 331 263
0.014812159 0.704 -0.028389972 1.6852992e-38 332 263
0.016046507 0.704 -0.028389972 1.6852992e-38 333 263
0.017329946 0.70599997 -0.028470624 1.7037388e-38 334 263
0.018567799 0.70599997 -0.028470624 1.7129583e-38 335 263
0.019805651 0.70599997 -0.028470624 1.8045774e-38 336 263
0.021043506 0.70599997 -0.028470624 1.7861383e-38 337 263
0.022281358 0.70599997 -0.028470624 1.8227273e-38 338 263
0.023519212 0.70599997 -0.028470624 1.8135078e-38 339 263
0.024757065 0.70599997 -0.028470624 1.7951036e-38 340 263
0.025994917 0.70599997 -0.028470624 1.767445e-38 341 263
0.027232772 0.70599997 -0.028470624 1.7397862e-38 342 263
0.028470624 0.70599997 -0.028470624 1.7029081e-38 343 263
0.029708479 0.70599997 -0.028470624 1.6660671e-38 344 263
0.030946331 0.70599997 -0.028470624 1.6568474e-38 345 263
0.03227536 0.708 -0.02855128 1.6292963e-38 346 263
0.033516716 0.708 -0.02855128 1.6016376e-38 347 263
0.034758076 0.708 -0.02855128 1.5278108e-38 348 263
0.03599944 0.708 -0.02855128 1.5923477e-38 349 263
-0.0049514128 0.70599997 -0.029708479 1.7958615e-38 316 264
-0.0037030398 0.704 -0.029624319 1.6852268e-38 317 264
-0.0024932399 0.71100003 -0.029918881 1.7679119e-38 318 264
-0.00124662 0.71100003 -0.029918881 1.7955705e-38 319 264
0 0.70700002 -0.029750559 1.7861365e-38 320 264
0.0012396066 0.70700002 -0.029750559 1.8045396e-38 321 264
0.0024757064 0.70599997 -0.029708479 1.8227992e-38 322 264
0.0037030398 0.704 -0.029624319 1.8227992e-38 323 264
0.0049373866 0.704 -0.029624319 1.8320541e-38 324 264
0.0061717331 0.704 -0.029624319 1.8412737e-38 325 264
0.0073955595 0.70300001 -0.029582238 1.8506009e-38 326 264
0.0086281532 0.70300001 -0.029582238 1.8506009e-38 327 264
0.0098186666 0.69999999 -0.029455997 1.8231595e-38 328 264
0.011045999 0.69999999 -0.029455997 1.8046845e-38 329 264
0.012273333 0.69999999 -0.029455997 1.6210869e-38 330 264
0.013500666 0.69999999 -0.029455997 1.6394901e-38 331 264
0.014791119 0.70300001 -0.029582238 1.5384719e-38 332 264
0.016046507 0.704 -0.029624319 1.5108132e-38 333 264
0.017280852 0.704 -0.029624319 1.5289649e-38 334 264
0.018515198 0.704 -0.029624319 1.5658431e-38 335 264
0.019749546 0.704 -0.029624319 1.7678807e-38 336 264
0.020983893 0.704 -0.029624319 1.7678807e-38 337 264
0.022218239 0.704 -0.029624319 1.7676989e-38 338 264
0.023452586 0.704 -0.029624319 1.7400402e-38 339 264
0.024651866 0.70300001 -0.029582238 1.7674819e-38 340 264
0.025884461 0.70300001 -0.029582238 1.7306396e-38 341 264
0.027117053 0.70300001 -0.029582238 1.7121279e-38 342 264
0.028349647 0.70300001 -0.029582238 1.6844692e-38 343 264
0.029582238 0.70300001 -0.029582238 1.6476631e-38 344 264
0.030858666 0.704 -0.029624319 1.6384436e-38 345 264
0.032093015 0.704 -0.029624319 1.6108572e-38 346 264
0.03332736 0.704 -0.029624319 1.6108572e-38 347 264
0.034659892 0.70599997 -0.029708479 1.6108572e-38 348 264
0.035897743 0.70599997 -0.029708479 1.5831625e-38 349 264
0.037135597 0.70599997 -0.029708479 1.4729618e-38 350 264
-0.0074376399 0.70700002 -0.030990168 1.7778934e-38 314 265
-0.0061980332 0.70700002 -0.030990168 1.6303445e-38 315 265
-0.0049514128 0.70599997 -0.030946331 1.7679488e-38 316 265
-0.0037030398 0.704 -0.030858666 1.7587292e-38 317 265
-0.0024686933 0.704 -0.030858666 1.8137948e-38 318 265
-0.0012343467 0.704 -0.030858666 1.8045752e-38 319 265
0 0.70599997 -0.030946331 1.8044683e-38 320 265
0.0012378532 0.70599997 -0.030946331 1.8044683e-38 321 265
0.0024686933 0.704 -0.030858666 1.8319472e-38 322 265
0.0036977797 0.70300001 -0.030814834 1.8411668e-38 323 265
0.0049163462 0.70099998 -0.030727165 1.8229424e-38 324 265
0.0061454331 0.70099998 -0.030727165 1.8229424e-38 325 265
0.0073955595 0.70300001 -0.030814834 1.8137229e-38 326 265
0.0086036054 0.70099998 -0.030727165 1.7860283e-38 327 265
0.0098186666 0.69999999 -0.030683333 1.684867e-38 328 265
0.011045999 0.69999999 -0.030683333 1.6295497e-38 329 265
0.012273333 0.69999999 -0.030683333 1.4100464e-38 330 265
0.013500666 0.69999999 -0.030683333 1.4838029e-38 331 265
0.014727999 0.69999999 -0.030683333 1.3362551e-38 332 265
0.016046507 0.704 -0.030858666 1.2071812e-38 333 265
0.017256306 0.70300001 -0.030814834 1.3265667e-38 334 265
0.018488899 0.70300001 -0.030814834 1.3911036e-38 335 265
0.019721493 0.70300001 -0.030814834 1.6298396e-38 336 265
0.020954086 0.70300001 -0.030814834 1.6574624e-38 337 265
0.02218668 0.70300001 -0.030814834 1.7400056e-38 338 265
0.023352645 0.70099998 -0.030727165 1.7307859e-38 339 265
0.024581732 0.70099998 -0.030727165 1.7397888e-38 340 265
0.025810819 0.70099998 -0.030727165 1.7305693e-38 341 265
0.027039904 0.70099998 -0.030727165 1.7029455e-38 342 265
0.028268991 0.70099998 -0.030727165 1.6660674e-38 343 265
0.029498078 0.70099998 -0.030727165 1.6476281e-38 344 265
0.030727165 0.70099998 -0.030727165 1.6291531e-38 345 265
0.031956252 0.70099998 -0.030727165 1.6108219e-38 346 265
0.033280019 0.70300001 -0.030814834 1.6016023e-38 347 265
0.034561705 0.704 -0.030858666 1.6016729e-38 348 265
0.035796054 0.704 -0.030858666 1.6016729e-38 349 265
0.037030395 0.704 -0.030858666 1.5649033e-38 350 265
0.038264744 0.704 -0.030858666 1.5003663e-38 351 265
0.039499093 0.704 -0.030858666 1.3996424e-38 352 265
0.040907022 0.70700002 -0.030990168 1.5656306e-38 353 265
-0.008677247 0.70700002 -0.032229774 1.5297252e-38 313 266
-0.0074376399 0.70700002 -0.032229774 1.6205452e-38 314 266
-0.0061980332 0.70700002 -0.032229774 1.6482399e-38 315 266
-0.0049514128 0.70599997 -0.032184184 1.7679122e-38 316 266
-0.0037030398 0.704 -0.032093015 1.7679122e-38 317 266
-0.0024651866 0.70300001 -0.032047424 1.7860308e-38 318 266
-0.0012325933 0.70300001 -0.032047424 1.7768113e-38 319 266
0 0.70300001 -0.032047424 1.8043258e-38 320 266
0.0012325933 0.70300001 -0.032047424 1.8043258e-38 321 266
0.0024581731 0.70099998 -0.031956252 1.8319116e-38 322 266
0.0036872597 0.70099998 -0.031956252 1.841167e-38 323 266
0.0049093333 0.69999999 -0.031910665 1.8320188e-38 324 266
0.0061366665 0.69999999 -0.031910665 1.8227992e-38 325 266
0.0073639993 0.69999999 -0.031910665 1.804433e-38 326 266
0.0085913334 0.69999999 -0.031910665 1.7306765e-38 327 266
0.0098186666 0.69999999 -0.031910665 1.5927793e-38 328 266
0.011045999 0.69999999 -0.031910665 1.5282424e-38 329 266
0.012273333 0.69999999 -0.031910665 1.3362898e-38 330 266
0.013500666 0.69999999 -0.031910665 1.4469245e-38 331 266
0.014727999 0.69999999 -0.031910665 1.2807589e-38 332 266
0.015955333 0.69999999 -0.031910665 1.1148427e-38 333 266
0.017207211 0.70099998 -0.031956252 1.2435903e-38 334 266
0.018436298 0.70099998 -0.031956252 1.3081273e-38 335 266
0.019637333 0.69999999 -0.031910665 1.6020007e-38 336 266
0.020864666 0.69999999 -0.031910665 1.6388791e-38 337 266
0.02218668 0.70300001 -0.032047424 1.7032711e-38 338 266
0.023352645 0.70099998 -0.031956252 1.684832e-38 339 266
0.024546666 0.69999999 -0.031910665 1.7031264e-38 340 266
0.025773998 0.69999999 -0.031910665 1.666284e-38 341 266
0.027001332 0.69999999 -0.031910665 1.6478796e-38 342 266
0.028228667 0.69999999 -0.031910665 1.6110373e-38 343 266
0.029455997 0.69999999 -0.031910665 1.6200414e-38 344 266
0.030727165 0.70099998 -0.031956252 1.6108219e-38 345 266
0.031956252 0.70099998 -0.031956252 1.5832361e-38 346 266
0.03318534 0.70099998 -0.031956252 1.5832361e-38 347 266
0.034512613 0.70300001 -0.032047424 1.5923825e-38 348 266
0.035796054 0.704 -0.032093015 1.5923825e-38 349 266
0.037030395 0.704 -0.032093015 1.5740531e-38 350 266
0.038264744 0.704 -0.032093015 1.5463945e-38 351 266
0.039667413 0.70700002 -0.032229774 1.4451239e-38 352 266
0.040907022 0.70700002 -0.032229774 1.3713674e-38 353 266
0.042146627 0.70700002 -0.032229774 1.3181782e-38 354 266
-0.0099168532 0.70700002 -0.033469379 1.6762631e-38 312 267
-0.008677247 0.70700002 -0.033469379 1.5471892e-38 313 267
-0.0074376399 0.70700002 -0.033469379 1.6850453e-38 314 267
-0.0061980332 0.70700002 -0.033469379 1.712704e-38 315 267
-0.0049514128 0.70599997 -0.033422034 1.7677339e-38 316 267
-0.0037030398 0.704 -0.03332736 1.7401111e-38 317 267
-0.0024651866 0.70300001 -0.033280019 1.7949982e-38 318 267
-0.0012290865 0.70099998 -0.03318534 1.8042177e-38 319 267
0 0.70099998 -0.03318534 1.8134007e-38 320 267
0.0012273333 0.69999999 -0.033137999 1.8410235e-38 321 267
0.0024476533 0.69800001 -0.033043321 1.8043964e-38 322 267
0.0036714801 0.69800001 -0.033043321 1.8227995e-38 323 267
0.0048953067 0.69800001 -0.033043321 1.822692e-38 324 267
0.006119133 0.69800001 -0.033043321 1.8134725e-38 325 267
0.0073429602 0.69800001 -0.033043321 1.7308207e-38 326 267
0.0085545136 0.69700003 -0.03299598 1.6662837e-38 327 267
0.0097765867 0.69700003 -0.03299598 1.5557919e-38 328 267
0.01101444 0.69800001 -0.033043321 1.3898038e-38 329 267
0.012238266 0.69800001 -0.033043321 1.2156763e-38 330 267
0.013462093 0.69800001 -0.033043321 1.2156763e-38 331 267
0.01468592 0.69800001 -0.033043321 1.1330978e-38 332 267
0.015909746 0.69800001 -0.033043321 1.1146587e-38 333 267
0.017182667 0.69999999 -0.033137999 1.3076588e-38 334 267
0.0183574 0.69800001 -0.033043321 1.409038e-38 335 267
0.019581227 0.69800001 -0.033043321 1.5835986e-38 336 267
0.020805053 0.69800001 -0.033043321 1.6204768e-38 337 267
0.02202888 0.69800001 -0.033043321 1.6755418e-38 338 267
0.023252707 0.69800001 -0.033043321 1.6755418e-38 339 267
0.024476532 0.69800001 -0.033043321 1.6569219e-38 340 267
0.025700359 0.69800001 -0.033043321 1.5831654e-38 341 267
0.026924185 0.69800001 -0.033043321 1.5649058e-38 342 267
0.028148014 0.69800001 -0.033043321 1.5925644e-38 343 267
0.029371841 0.69800001 -0.033043321 1.6107515e-38 344 267
0.030683333 0.69999999 -0.033137999 1.5923124e-38 345 267
0.031910665 0.69999999 -0.033137999 1.5922755e-38 346 267
0.03318534 0.70099998 -0.03318534 1.5922755e-38 347 267
0.034414422 0.70099998 -0.03318534 1.5923104e-38 348 267
0.035745207 0.70300001 -0.033280019 1.5923104e-38 349 267
0.036977798 0.70300001 -0.033280019 1.5831625e-38 350 267
0.038264744 0.704 -0.03332736 1.5831625e-38 351 267
0.039611302 0.70599997 -0.033422034 1.5464651e-38 352 267
0.040849157 0.70599997 -0.033422034 1.4542335e-38 353 267
0.042087011 0.70599997 -0.033422034 1.3445052e-38 354 267
0.043386232 0.70700002 -0.033469379 1.5473356e-38 355 267
-0.011140679 0.70599997 -0.034659892 1.4929187e-38 311 268
-0.0099028256 0.70599997 -0.034659892 1.6388418e-38 312 268
-0.0086649731 0.70599997 -0.034659892 1.6480614e-38 313 268
-0.0074271196 0.70599997 -0.034659892 1.7309629e-38 314 268
-0.0061892662 0.70599997 -0.034659892 1.7217433e-38 315 268
-0.0049373866 0.704 -0.034561705 1.7583717e-38 316 268
-0.0036977797 0.70300001 -0.034512613 1.7399326e-38 317 268
-0.0024651866 0.70300001 -0.034512613 1.7674121e-38 318 268
-0.0012290865 0.70099998 -0.034414422 1.7766316e-38 319 268
0 0.70099998 -0.034414422 1.7858865e-38 320 268
0.0012238267 0.69800001 -0.034267146 1.7858865e-38 321 268
0.0024476533 0.69800001 -0.034267146 1.7858862e-38 322 268
0.0036714801 0.69800001 -0.034267146 1.7951059e-38 323 268
0.0048882933 0.69700003 -0.034218054 1.7767386e-38 324 268
0.0061103669 0.69700003 -0.034218054 1.7583354e-38 325 268
0.00733244 0.69700003 -0.034218054 1.7306765e-38 326 268
0.0085422397 0.69599998 -0.034168959 1.6845787e-38 327 268
0.0097625591 0.69599998 -0.034168959 1.6659225e-38 328 268
0.01101444 0.69800001 -0.034267146 1.5552877e-38 329 268
0.012238266 0.69800001 -0.034267146 1.3990571e-38 330 268
0.013423519 0.69599998 -0.034168959 1.3713984e-38 331 268
0.014643839 0.69599998 -0.034168959 1.3348091e-38 332 268
0.015864158 0.69599998 -0.034168959 1.3624678e-38 333 268
0.017133573 0.69800001 -0.034267146 1.5006926e-38 334 268
0.018331099 0.69700003 -0.034218054 1.5376068e-38 335 268
0.019525118 0.69599998 -0.034168959 1.6018938e-38 336 268
0.020745439 0.69599998 -0.034168959 1.6387362e-38 337 268
0.021965759 0.69599998 -0.034168959 1.6938017e-38 338 268
0.023186078 0.69599998 -0.034168959 1.666143e-38 339 268
0.024441468 0.69700003 -0.034218054 1.6934775e-38 340 268
0.025663542 0.69700003 -0.034218054 1.6750383e-38 341 268
0.026885614 0.69700003 -0.034218054 1.601677e-38 342 268
0.028107686 0.69700003 -0.034218054 1.5924216e-38 343 268
0.02932976 0.69700003 -0.034218054 1.5647263e-38 344 268
0.030595668 0.69800001 -0.034267146 1.5462512e-38 345 268
0.031819493 0.69800001 -0.034267146 1.5462868e-38 346 268
0.033137999 0.69999999 -0.034365334 1.5462868e-38 347 268
0.034365334 0.69999999 -0.034365334 1.5463215e-38 348 268
0.035745207 0.70300001 -0.034512613 1.5555769e-38 349 268
0.036977798 0.70300001 -0.034512613 1.5555767e-38 350 268
0.038264744 0.704 -0.034561705 1.5463571e-38 351 268
0.039499093 0.704 -0.034561705 1.5279202e-38 352 268
0.040849157 0.70599997 -0.034659892 1.5279202e-38 353 268
0.042087011 0.70599997 -0.034659892 1.371478e-38 354 268
0.043386232 0.70700002 -0.034708988 1.389953e-38 355 268
0.044625837 0.70700002 -0.034708988 1.5296549e-38 356 268
-0.012378532 0.70599997 -0.035897743 1.6582927e-38 310 269
-0.011140679 0.70599997 -0.035897743 1.4646819e-38 311 269
-0.0099028256 0.70599997 -0.035897743 1.6663909e-38 312 269
-0.0086649731 0.70599997 -0.035897743 1.6940856e-38 313 269
-0.0074271196 0.70599997 -0.035897743 1.7400032e-38 314 269
-0.0061892662 0.70599997 -0.035897743 1.7215642e-38 315 269
-0.0049373866 0.704 -0.035796054 1.7398604e-38 316 269
-0.0036977797 0.70300001 -0.035745207 1.7398604e-38 317 269
-0.0024581731 0.70099998 -0.035643511 1.7581919e-38 318 269
-0.0012273333 0.69999999 -0.035592664 1.7581919e-38 319 269
0 0.69999999 -0.035592664 1.7491159e-38 320 269
0.0012238267 0.69800001 -0.035490975 1.7491159e-38 321 269
0.0024441467 0.69700003 -0.035440128 1.7581919e-38 322 269
0.00366622 0.69700003 -0.035440128 1.7674115e-38 323 269
0.0048882933 0.69700003 -0.035440128 1.739861e-38 324 269
0.0061103669 0.69700003 -0.035440128 1.739861e-38 325 269
0.0073219193 0.69599998 -0.035389278 1.721386e-38 326 269
0.0085054198 0.69300002 -0.035236739 1.6937632e-38 327 269
0.0097204801 0.69300002 -0.035236739 1.6843986e-38 328 269
0.01101444 0.69800001 -0.035490975 1.6290812e-38 329 269
0.012220734 0.69700003 -0.035440128 1.5923811e-38 330 269
0.013384946 0.69400001 -0.035287585 1.5739061e-38 331 269
0.01460176 0.69400001 -0.035287585 1.5371373e-38 332 269
0.015818574 0.69400001 -0.035287585 1.5740515e-38 333 269
0.017035386 0.69400001 -0.035287585 1.6111484e-38 334 269
0.018304799 0.69599998 -0.035389278 1.6111484e-38 335 269
0.019469013 0.69400001 -0.035287585 1.620225e-38 336 269
0.020685827 0.69400001 -0.035287585 1.6386641e-38 337 269
0.021902639 0.69400001 -0.035287585 1.6845101e-38 338 269
0.023119451 0.69400001 -0.035287585 1.6845101e-38 339 269
0.024336265 0.69400001 -0.035287585 1.6477392e-38 340 269
0.025553079 0.69400001 -0.035287585 1.6385197e-38 341 269
0.026847038 0.69599998 -0.035389278 1.6017841e-38 342 269
0.027986705 0.69400001 -0.035287585 1.5741254e-38 343 269
0.029203519 0.69400001 -0.035287585 1.5646893e-38 344 269
0.030507999 0.69599998 -0.035389278 1.5462502e-38 345 269
0.031728316 0.69599998 -0.035389278 1.5462499e-38 346 269
0.03299598 0.69700003 -0.035440128 1.5462499e-38 347 269
0.034267146 0.69800001 -0.035490975 1.5371019e-38 348 269
0.035592664 0.69999999 -0.035592664 1.5463215e-38 349 269
0.036977798 0.70300001 -0.035745207 1.5463568e-38 350 269
0.038210396 0.70300001 -0.035745207 1.5371373e-38 351 269
0.039442986 0.70300001 -0.035745207 1.5278105e-38 352 269
0.040675577 0.70300001 -0.035745207 1.5278105e-38 353 269
0.041908171 0.70300001 -0.035745207 1.4727102e-38 354 269
0.042956665 0.69999999 -0.035592664 1.4081732e-38 355 269
0.044183996 0.69999999 -0.035592664 1.3909996e-38 356 269
-0.013616386 0.70599997 -0.037135597 1.5487421e-38 309 270
-0.012378532 0.70599997 -0.037135597 1.5931058e-38 310 270
-0.011140679 0.70599997 -0.037135597 1.5746308e-38 311 270
-0.0099028256 0.70599997 -0.037135597 1.7307112e-38 312 270
-0.0086649731 0.70599997 -0.037135597 1.7399308e-38 313 270
-0.0074060797 0.704 -0.037030395 1.7306762e-38 314 270
-0.0061717331 0.704 -0.037030395 1.7398958e-38 315 270
-0.0049303733 0.70300001 -0.036977798 1.7306412e-38 316 270
-0.0036872597 0.70099998 -0.036872596 1.7121662e-38 317 270
-0.0024546667 0.69999999 -0.036819998 1.7213144e-38 318 270
-0.0012273333 0.69999999 -0.036819998 1.730534e-38 319 270
0 0.69800001 -0.0367148 1.7213863e-38 320 270
0.0012220733 0.69700003 -0.036662199 1.7213863e-38 321 270
0.0024406398 0.69599998 -0.036609598 1.7121667e-38 322 270
0.0036609597 0.69599998 -0.036609598 1.7213863e-38 323 270
0.0048812795 0.69599998 -0.036609598 1.7213863e-38 324 270
0.0061015999 0.69599998 -0.036609598 1.7306058e-38 325 270
0.0073008798 0.69400001 -0.036504399 1.7121667e-38 326 270
0.008480873 0.69099998 -0.036346599 1.6937635e-38 327 270
0.0096924258 0.69099998 -0.036346599 1.6660686e-38 328 270
0.01090398 0.69099998 -0.036346599 1.6292262e-38 329 270
0.012115533 0.69099998 -0.036346599 1.5925625e-38 330 270
0.01336566 0.69300002 -0.036451802 1.5741234e-38 331 270
0.014580719 0.69300002 -0.036451802 1.5557216e-38 332 270
0.015795778 0.69300002 -0.036451802 1.5741607e-38 333 270
0.01701084 0.69300002 -0.036451802 1.6110052e-38 334 270
0.018225901 0.69300002 -0.036451802 1.6202247e-38 335 270
0.01944096 0.69300002 -0.036451802 1.6385922e-38 336 270
0.020656019 0.69300002 -0.036451802 1.6385922e-38 337 270
0.021871079 0.69300002 -0.036451802 1.5834188e-38 338 270
0.02308614 0.69300002 -0.036451802 1.5926383e-38 339 270
0.024301201 0.69300002 -0.036451802 1.5926737e-38 340 270
0.02551626 0.69300002 -0.036451802 1.6111128e-38 341 270
0.026769891 0.69400001 -0.036504399 1.6203304e-38 342 270
0.027946379 0.69300002 -0.036451802 1.5742326e-38 343 270
0.029161438 0.69300002 -0.036451802 1.5464651e-38 344 270
0.030420333 0.69400001 -0.036504399 1.5280259e-38 345 270
0.031637147 0.69400001 -0.036504399 1.5095512e-38 346 270
0.032853961 0.69400001 -0.036504399 1.5187707e-38 347 270
0.034070771 0.69400001 -0.036504399 1.5280259e-38 348 270
0.035440128 0.69700003 -0.036662199 1.5280259e-38 349 270
0.036662199 0.69700003 -0.036662199 1.5463924e-38 350 270
0.038047329 0.69999999 -0.036819998 1.537137e-38 351 270
0.039274666 0.69999999 -0.036819998 1.5278458e-38 352 270
0.040502001 0.69999999 -0.036819998 1.5186262e-38 353 270
0.041729331 0.69999999 -0.036819998 1.4819285e-38 354 270
0.042956665 0.69999999 -0.036819998 1.4634533e-38 355 270
0.044183996 0.69999999 -0.036819998 1.3442885e-38 356 270
-0.014854239 0.70599997 -0.038373452 1.7048964e-38 308 271
-0.013616386 0.70599997 -0.038373452 1.4467486e-38 309 271
-0.012378532 0.70599997 -0.038373452 1.63859e-38 310 271
-0.011109119 0.704 -0.038264744 1.7031269e-38 311 271
-0.0098747732 0.704 -0.038264744 1.7398945e-38 312 271
-0.0086404262 0.704 -0.038264744 1.7398945e-38 313 271
-0.0074060797 0.704 -0.038264744 1.7306762e-38 314 271
-0.0061717331 0.704 -0.038264744 1.7214566e-38 315 271
-0.0049303733 0.70300001 -0.038210396 1.7121667e-38 316 271
-0.0036872597 0.70099998 -0.038101684 1.684508e-38 317 271
-0.0024546667 0.69999999 -0.038047329 1.675325e-38 318 271
-0.0012273333 0.69999999 -0.038047329 1.6845805e-38 319 271
0 0.69800001 -0.037938625 1.675325e-38 320 271
0.0012220733 0.69700003 -0.037884273 1.6569219e-38 321 271
0.0024406398 0.69599998 -0.037829921 1.6386629e-38 322 271
0.0036609597 0.69599998 -0.037829921 1.657066e-38 323 271
0.0048672534 0.69400001 -0.037721213 1.6938002e-38 324 271
0.0060840664 0.69400001 -0.037721213 1.6938002e-38 325 271
0.0072903596 0.69300002 -0.037666857 1.7121317e-38 326 271
0.0084686 0.69 -0.037503798 1.6936926e-38 327 271
0.0096783992 0.69 -0.037503798 1.6659983e-38 328 271
0.010888199 0.69 -0.037503798 1.6291559e-38 329 271
0.012097999 0.69 -0.037503798 1.5649427e-38 330 271
0.0133078 0.69 -0.037503798 1.5557231e-38 331 271
0.014517599 0.69 -0.037503798 1.5649073e-38 332 271
0.015727401 0.69 -0.037503798 1.5741269e-38 333 271
0.0169372 0.69 -0.037503798 1.5743427e-38 334 271
0.0181733 0.69099998 -0.03755815 1.6019654e-38 335 271
0.01944096 0.69300002 -0.037666857 1.6294443e-38 336 271
0.020656019 0.69300002 -0.037666857 1.6110052e-38 337 271
0.021807959 0.69099998 -0.03755815 1.5557608e-38 338 271
0.023019511 0.69099998 -0.03755815 1.5465411e-38 339 271
0.024301201 0.69300002 -0.037666857 1.555833e-38 340 271
0.02551626 0.69300002 -0.037666857 1.5834916e-38 341 271
0.02673132 0.69300002 -0.037666857 1.6112203e-38 342 271
0.027946379 0.69300002 -0.037666857 1.5374638e-38 343 271
0.029161438 0.69300002 -0.037666857 1.5464651e-38 344 271
0.0303765 0.69300002 -0.037666857 1.5187704e-38 345 271
0.031591557 0.69300002 -0.037666857 1.5186985e-38 346 271
0.032853961 0.69400001 -0.037721213 1.5186985e-38 347 271
0.034070771 0.69400001 -0.037721213 1.5280259e-38 348 271
0.035389278 0.69599998 -0.037829921 1.5280259e-38 349 271
0.036609598 0.69599998 -0.037829921 1.5370651e-38 350 271
0.037938625 0.69800001 -0.037938625 1.5278455e-38 351 271
0.039162453 0.69800001 -0.037938625 1.5369935e-38 352 271
0.040386278 0.69800001 -0.037938625 1.5369935e-38 353 271
0.041610107 0.69800001 -0.037938625 1.500296e-38 354 271
0.042833932 0.69800001 -0.037938625 1.500296e-38 355 271
0.04405776 0.69800001 -0.037938625 1.3714786e-38 356 271
0.045476202 0.70099998 -0.038101684 1.4360155e-38 357 271
-0.016092092 0.70599997 -0.039611302 1.7146589e-38 307 272
-0.014854239 0.70599997 -0.039611302 1.5381501e-38 308 272
-0.013616386 0.70599997 -0.039611302 1.4920163e-38 309 272
-0.012343466 0.704 -0.039499093 1.7214563e-38 310 272
-0.011109119 0.704 -0.039499093 1.7306759e-38 311 272
-0.0098747732 0.704 -0.039499093 1.7307468e-38 312 272
-0.0086404262 0.704 -0.039499093 1.7307468e-38 313 272
-0.0074060797 0.704 -0.039499093 1.7031251e-38 314 272
-0.0061629666 0.70300001 -0.039442986 1.6846859e-38 315 272
-0.0049163462 0.70099998 -0.039330769 1.6936197e-38 316 272
-0.0036872597 0.70099998 -0.039330769 1.6844001e-38 317 272
-0.0024546667 0.69999999 -0.039274666 1.6752532e-38 318 272
-0.0012273333 0.69999999 -0.039274666 1.6752532e-38 319 272
0 0.69599998 -0.039050236 1.5741622e-38 320 272
0.0012168133 0.69400001 -0.038938027 1.5741622e-38 321 272
0.0024336267 0.69400001 -0.038938027 1.6017134e-38 322 272
0.0036504399 0.69400001 -0.038938027 1.629408e-38 323 272
0.00486024 0.69300002 -0.03888192 1.6480263e-38 324 272
0.0060753003 0.69300002 -0.03888192 1.6203677e-38 325 272
0.0072693196 0.69099998 -0.038769703 1.675398e-38 326 272
0.0084686 0.69 -0.038713597 1.675398e-38 327 272
0.0096783992 0.69 -0.038713597 1.6294446e-38 328 272
0.010888199 0.69 -0.038713597 1.5925665e-38 329 272
0.012097999 0.69 -0.038713597 1.5465408e-38 330 272
0.0133078 0.69 -0.038713597 1.5373212e-38 331 272
0.014517599 0.69 -0.038713597 1.5740553e-38 332 272
0.015727401 0.69 -0.038713597 1.6016781e-38 333 272
0.0169372 0.69 -0.038713597 1.5925665e-38 334 272
0.018146999 0.69 -0.038713597 1.6478838e-38 335 272
0.019384852 0.69099998 -0.038769703 1.6020381e-38 336 272
0.020596405 0.69099998 -0.038769703 1.5928184e-38 337 272
0.021807959 0.69099998 -0.038769703 1.5557605e-38 338 272
0.023019511 0.69099998 -0.038769703 1.5557605e-38 339 272
0.024231065 0.69099998 -0.038769703 1.5280301e-38 340 272
0.025442619 0.69099998 -0.038769703 1.5003354e-38 341 272
0.026654173 0.69099998 -0.038769703 1.4730714e-38 342 272
0.027865725 0.69099998 -0.038769703 1.482291e-38 343 272
0.029077278 0.69099998 -0.038769703 1.5647616e-38 344 272
0.030288832 0.69099998 -0.038769703 1.5370669e-38 345 272
0.031500384 0.69099998 -0.038769703 1.5095512e-38 346 272
0.03280662 0.69300002 -0.03888192 1.5095512e-38 347 272
0.034021679 0.69300002 -0.03888192 1.5370301e-38 348 272
0.035236739 0.69300002 -0.03888192 1.5370301e-38 349 272
0.036504399 0.69400001 -0.038938027 1.5553613e-38 350 272
0.037938625 0.69800001 -0.039162453 1.5553613e-38 351 272
0.039162453 0.69800001 -0.039162453 1.5185912e-38 352 272
0.040386278 0.69800001 -0.039162453 1.5185912e-38 353 272
0.041610107 0.69800001 -0.039162453 1.4818932e-38 354 272
0.042833932 0.69800001 -0.039162453 1.4818932e-38 355 272
0.044183996 0.69999999 -0.039274666 1.4448016e-38 356 272
0.045476202 0.70099998 -0.039330769 1.4448016e-38 357 272
0.046838548 0.70300001 -0.039442986 1.4004362e-38 358 272
-0.016092092 0.70599997 -0.040849157 1.5668923e-38 307 273
-0.014854239 0.70599997 -0.040849157 1.5466477e-38 308 273
-0.013577812 0.704 -0.040733438 1.583562e-38 309 273
-0.012343466 0.704 -0.040733438 1.7307468e-38 310 273
-0.01109334 0.70300001 -0.040675577 1.7307468e-38 311 273
-0.0098607466 0.70300001 -0.040675577 1.7399658e-38 312 273
-0.0086281532 0.70300001 -0.040675577 1.7215267e-38 313 273
-0.0073955595 0.70300001 -0.040675577 1.7306396e-38 314 273
-0.0061454331 0.70099998 -0.040559858 1.7029449e-38 315 273
-0.0049093333 0.69999999 -0.040502001 1.6660689e-38 316 273
-0.0036819996 0.69999999 -0.040502001 1.6660689e-38 317 273
-0.0024406398 0.69599998 -0.040270556 1.6294074e-38 318 273
-0.0012203199 0.69599998 -0.040270556 1.6294074e-38 319 273
0 0.69400001 -0.040154841 1.6385191e-38 320 273
0.00121506 0.69300002 -0.04009698 1.6385191e-38 321 273
0.00243012 0.69300002 -0.04009698 1.610933e-38 322 273
0.0036346598 0.69099998 -0.039981257 1.629408e-38 323 273
0.0048462129 0.69099998 -0.039981257 1.6203329e-38 324 273
0.0060577663 0.69099998 -0.039981257 1.6203329e-38 325 273
0.0072587994 0.69 -0.0399234 1.6478838e-38 326 273
0.0084440531 0.68800002 -0.039807681 1.6478838e-38 327 273
0.0096503468 0.68800002 -0.039807681 1.6386276e-38 328 273
0.010856641 0.68800002 -0.039807681 1.610933e-38 329 273
0.012062933 0.68800002 -0.039807681 1.5741269e-38 330 273
0.013269227 0.68800002 -0.039807681 1.5556878e-38 331 273
0.014475521 0.68800002 -0.039807681 1.555653e-38 332 273
0.015681813 0.68800002 -0.039807681 1.5648726e-38 333 273
0.016888106 0.68800002 -0.039807681 1.5742015e-38 334 273
0.018146999 0.69 -0.0399234 1.60186e-38 335 273
0.019384852 0.69099998 -0.039981257 1.5836005e-38 336 273
0.020566599 0.69 -0.0399234 1.5467223e-38 337 273
0.021776399 0.69 -0.0399234 1.5466134e-38 338 273
0.022986198 0.69 -0.0399234 1.5005156e-38 339 273
0.024195999 0.69 -0.0399234 1.4912239e-38 340 273
0.025405798 0.69 -0.0399234 1.3897726e-38 341 273
0.026615599 0.69 -0.0399234 1.3622219e-38 342 273
0.027825398 0.69 -0.0399234 1.4451979e-38 343 273
0.029035198 0.69 -0.0399234 1.4635647e-38 344 273
0.030244999 0.69 -0.0399234 1.4543452e-38 345 273
0.031454802 0.69 -0.0399234 1.5002259e-38 346 273
0.032711938 0.69099998 -0.039981257 1.5002259e-38 347 273
0.033923492 0.69099998 -0.039981257 1.5094089e-38 348 273
0.035135046 0.69099998 -0.039981257 1.5094089e-38 349 273
0.036346599 0.69099998 -0.039981257 1.5369231e-38 350 273
0.037884273 0.69700003 -0.040328421 1.5277036e-38 351 273
0.039106347 0.69700003 -0.040328421 1.5185556e-38 352 273
0.040328421 0.69700003 -0.040328421 1.5001524e-38 353 273
0.041610107 0.69800001 -0.040386278 1.4817142e-38 354 273
0.042833932 0.69800001 -0.040386278 1.4817142e-38 355 273
0.04405776 0.69800001 -0.040386278 1.4358691e-38 356 273
0.04541133 0.69999999 -0.040502001 1.3897714e-38 357 273
0.046705291 0.70099998 -0.040559858 1.2891884e-38 358 273
0.047934376 0.70099998 -0.040559858 1.6303123e-38 359 273
-0.017329946 0.70599997 -0.042087011 1.5389798e-38 306 274
-0.016092092 0.70599997 -0.042087011 1.3822114e-38 307 274
-0.014854239 0.70599997 -0.042087011 1.6386623e-38 308 274
-0.013577812 0.704 -0.041967787 1.6755406e-38 309 274
-0.012325933 0.70300001 -0.041908171 1.7306749e-38 310 274
-0.01109334 0.70300001 -0.041908171 1.7306749e-38 311 274
-0.0098326923 0.70099998 -0.041788943 1.7490408e-38 312 274
-0.0086036054 0.70099998 -0.041788943 1.7398212e-38 313 274
-0.0073639993 0.69999999 -0.041729331 1.6938686e-38 314 274
-0.0061366665 0.69999999 -0.041729331 1.684649e-38 315 274
-0.0048953067 0.69800001 -0.041610107 1.6568844e-38 316 274
-0.0036714801 0.69800001 -0.041610107 1.6476648e-38 317 274
-0.0024336267 0.69400001 -0.041371655 1.6202229e-38 318 274
-0.0012168133 0.69400001 -0.041371655 1.657101e-38 319 274
0 0.69400001 -0.041371655 1.6295502e-38 320 274
0.00121506 0.69300002 -0.041312039 1.6110752e-38 321 274
0.0024231065 0.69099998 -0.041192811 1.6202951e-38 322 274
0.0036346598 0.69099998 -0.041192811 1.6202951e-38 323 274
0.0048391996 0.69 -0.041133199 1.6294796e-38 324 274
0.0060489997 0.69 -0.041133199 1.6110405e-38 325 274
0.0072587994 0.69 -0.041133199 1.6293727e-38 326 274
0.0084440531 0.68800002 -0.041013971 1.6569954e-38 327 274
0.0096503468 0.68800002 -0.041013971 1.6111496e-38 328 274
0.010856641 0.68800002 -0.041013971 1.5743074e-38 329 274
0.012062933 0.68800002 -0.041013971 1.5557608e-38 330 274
0.013269227 0.68800002 -0.041013971 1.5373215e-38 331 274
0.014475521 0.68800002 -0.041013971 1.5463976e-38 332 274
0.015681813 0.68800002 -0.041013971 1.5279945e-38 333 274
0.016888106 0.68800002 -0.041013971 1.5555811e-38 334 274
0.018146999 0.69 -0.041133199 1.5555811e-38 335 274
0.019356798 0.69 -0.041133199 1.5738771e-38 336 274
0.020566599 0.69 -0.041133199 1.5462544e-38 337 274
0.021776399 0.69 -0.041133199 1.5370711e-38 338 274
0.022919573 0.68800002 -0.041013971 1.5002287e-38 339 274
0.024125867 0.68800002 -0.041013971 1.4540581e-38 340 274
0.025405798 0.69 -0.041133199 1.3434234e-38 341 274
0.026615599 0.69 -0.041133199 1.2975053e-38 342 274
0.027744746 0.68800002 -0.041013971 1.3527868e-38 343 274
0.028951041 0.68800002 -0.041013971 1.4262554e-38 344 274
0.030244999 0.69 -0.041133199 1.4630978e-38 345 274
0.031454802 0.69 -0.041133199 1.4723161e-38 346 274
0.032664597 0.69 -0.041133199 1.5091584e-38 347 274
0.0338744 0.69 -0.041133199 1.5184483e-38 348 274
0.035084199 0.69 -0.041133199 1.5277039e-38 349 274
0.036346599 0.69099998 -0.041192811 1.5277036e-38 350 274
0.037721213 0.69400001 -0.041371655 1.5277036e-38 351 274
0.039050236 0.69599998 -0.041490879 1.5001894e-38 352 274
0.040328421 0.69700003 -0.041550495 1.4909697e-38 353 274
0.041550495 0.69700003 -0.041550495 1.4724947e-38 354 274
0.042772565 0.69700003 -0.041550495 1.4724947e-38 355 274
0.04405776 0.69800001 -0.041610107 1.4449086e-38 356 274
0.04541133 0.69999999 -0.041729331 1.435689e-38 357 274
0.046705291 0.70099998 -0.041788943 1.2425505e-38 358 274
0.047934376 0.70099998 -0.041788943 1.4822952e-38 359 274
-0.018567799 0.70599997 -0.043324865 1.7516463e-38 305 275
-0.017329946 0.70599997 -0.043324865 1.5198199e-38 306 275
-0.016092092 0.70599997 -0.043324865 1.4460634e-38 307 275
-0.014854239 0.70599997 -0.043324865 1.6939419e-38 308 275
-0.013558527 0.70300001 -0.043140765 1.6755386e-38 309 275
-0.012325933 0.70300001 -0.043140765 1.6938688e-38 310 275
-0.011061779 0.70099998 -0.043018032 1.6938688e-38 311 275
-0.0098186666 0.69999999 -0.042956665 1.7029802e-38 312 275
-0.0085913334 0.69999999 -0.042956665 1.7029802e-38 313 275
-0.00733244 0.69700003 -0.042772565 1.6845784e-38 314 275
-0.0061103669 0.69700003 -0.042772565 1.6569197e-38 315 275
-0.0048812795 0.69599998 -0.042711195 1.5372471e-38 316 275
-0.0036504399 0.69400001 -0.042588469 1.4819297e-38 317 275
-0.00243012 0.69300002 -0.042527102 1.4640314e-38 318 275
-0.00121506 0.69300002 -0.042527102 1.5470433e-38 319 275
0 0.69300002 -0.042527102 1.6019285e-38 320 275
0.00121506 0.69300002 -0.042527102 1.6019285e-38 321 275
0.0024231065 0.69099998 -0.042404365 1.6293348e-38 322 275
0.0036293997 0.69 -0.042342998 1.6293348e-38 323 275
0.0048251734 0.68800002 -0.042220265 1.6016781e-38 324 275
0.0060314666 0.68800002 -0.042220265 1.5924584e-38 325 275
0.0072377604 0.68800002 -0.042220265 1.5740567e-38 326 275
0.0084440531 0.68800002 -0.042220265 1.5556174e-38 327 275
0.0096503468 0.68800002 -0.042220265 1.5556177e-38 328 275
0.010840859 0.68699998 -0.042158898 1.5556177e-38 329 275
0.012045399 0.68699998 -0.042158898 1.5096998e-38 330 275
0.013249939 0.68699998 -0.042158898 1.5004803e-38 331 275
0.014475521 0.68800002 -0.042220265 1.5095203e-38 332 275
0.015681813 0.68800002 -0.042220265 1.5095203e-38 333 275
0.016888106 0.68800002 -0.042220265 1.4910455e-38 334 275
0.0180944 0.68800002 -0.042220265 1.4910455e-38 335 275
0.019356798 0.69 -0.042342998 1.4910455e-38 336 275
0.020566599 0.69 -0.042342998 1.4818259e-38 337 275
0.021713281 0.68800002 -0.042220265 1.4818607e-38 338 275
0.022919573 0.68800002 -0.042220265 1.4450184e-38 339 275
0.024125867 0.68800002 -0.042220265 1.4355821e-38 340 275
0.02533216 0.68800002 -0.042220265 1.3710451e-38 341 275
0.026538454 0.68800002 -0.042220265 1.3066174e-38 342 275
0.027744746 0.68800002 -0.042220265 1.3250563e-38 343 275
0.028951041 0.68800002 -0.042220265 1.3158742e-38 344 275
0.030157333 0.68800002 -0.042220265 1.3619719e-38 345 275
0.031454802 0.69 -0.042342998 1.398741e-38 346 275
0.032664597 0.69 -0.042342998 1.4355833e-38 347 275
0.0338744 0.69 -0.042342998 1.472388e-38 348 275
0.035084199 0.69 -0.042342998 1.472388e-38 349 275
0.036346599 0.69099998 -0.042404365 1.4816429e-38 350 275
0.037666857 0.69300002 -0.042527102 1.4908625e-38 351 275
0.038938027 0.69400001 -0.042588469 1.463383e-38 352 275
0.040154841 0.69400001 -0.042588469 1.463383e-38 353 275
0.041490879 0.69599998 -0.042711195 1.4541634e-38 354 275
0.042711195 0.69599998 -0.042711195 1.4449439e-38 355 275
0.04405776 0.69800001 -0.042833932 1.4540565e-38 356 275
0.045281585 0.69800001 -0.042833932 1.4448369e-38 357 275
0.046638668 0.69999999 -0.042956665 1.3158389e-38 358 275
0.047865998 0.69999999 -0.042956665 1.4172539e-38 359 275
0.049093332 0.69999999 -0.042956665 1.5946247e-38 360 275
-0.018567799 0.70599997 -0.044562716 1.548779e-38 305 276
-0.017329946 0.70599997 -0.044562716 1.5285701e-38 306 276
-0.016092092 0.70599997 -0.044562716 1.5285701e-38 307 276
-0.014812159 0.704 -0.044436477 1.6846856e-38 308 276
-0.013558527 0.70300001 -0.04437336 1.675466e-38 309 276
-0.012290866 0.70099998 -0.044247117 1.6754294e-38 310 276
-0.011045999 0.69999999 -0.044183996 1.6662099e-38 311 276
-0.0098186666 0.69999999 -0.044183996 1.6937604e-38 312 276
-0.0085667865 0.69800001 -0.04405776 1.6845408e-38 313 276
-0.0073219193 0.69599998 -0.043931518 1.6385176e-38 314 276
-0.0061015999 0.69599998 -0.043931518 1.6108587e-38 315 276
-0.0048672534 0.69400001 -0.043805279 1.4451256e-38 316 276
-0.0036504399 0.69400001 -0.043805279 1.3160517e-38 317 276
-0.00243012 0.69300002 -0.043742158 1.3534705e-38 318 276
-0.0012115532 0.69099998 -0.043615919 1.4641412e-38 319 276
0 0.69099998 -0.043615919 1.5834191e-38 320 276
0.0012097999 0.69 -0.043552797 1.6018582e-38 321 276
0.0024195998 0.69 -0.043552797 1.592529e-38 322 276
0.0036188802 0.68800002 -0.043426562 1.5648705e-38 323 276
0.0048251734 0.68800002 -0.043426562 1.5739824e-38 324 276
0.0060314666 0.68800002 -0.043426562 1.5647629e-38 325 276
0.0072377604 0.68800002 -0.043426562 1.5370693e-38 326 276
0.0084440531 0.68800002 -0.043426562 1.5278496e-38 327 276
0.0096503468 0.68800002 -0.043426562 1.5094836e-38 328 276
0.010840859 0.68699998 -0.043363437 1.5094836e-38 329 276
0.012045399 0.68699998 -0.043363437 1.5003006e-38 330 276
0.013249939 0.68699998 -0.043363437 1.4910452e-38 331 276
0.014454478 0.68699998 -0.043363437 1.4818612e-38 332 276
0.015659019 0.68699998 -0.043363437 1.4542027e-38 333 276
0.01686356 0.68699998 -0.043363437 1.4633496e-38 334 276
0.0180944 0.68800002 -0.043426562 1.4633496e-38 335 276
0.019300694 0.68800002 -0.043426562 1.4633494e-38 336 276
0.020506985 0.68800002 -0.043426562 1.4633494e-38 337 276
0.021713281 0.68800002 -0.043426562 1.4357619e-38 338 276
0.022919573 0.68800002 -0.043426562 1.4080673e-38 339 276
0.024125867 0.68800002 -0.043426562 1.3895196e-38 340 276
0.02533216 0.68800002 -0.043426562 1.361825e-38 341 276
0.026538454 0.68800002 -0.043426562 1.3157996e-38 342 276
0.027744746 0.68800002 -0.043426562 1.288177e-38 343 276
0.028951041 0.68800002 -0.043426562 1.306545e-38 344 276
0.030157333 0.68800002 -0.043426562 1.352643e-38 345 276
0.031363625 0.68800002 -0.043426562 1.3710451e-38 346 276
0.032569919 0.68800002 -0.043426562 1.4078874e-38 347 276
0.0338744 0.69 -0.043552797 1.4262899e-38 348 276
0.035084199 0.69 -0.043552797 1.4262899e-38 349 276
0.036346599 0.69099998 -0.043615919 1.4539483e-38 350 276
0.037666857 0.69300002 -0.043742158 1.4631679e-38 351 276
0.03888192 0.69300002 -0.043742158 1.4541634e-38 352 276
0.04009698 0.69300002 -0.043742158 1.4541634e-38 353 276
0.041371655 0.69400001 -0.043805279 1.4449436e-38 354 276
0.042711195 0.69599998 -0.043931518 1.4449436e-38 355 276
0.043994639 0.69700003 -0.043994639 1.4265773e-38 356 276
0.045281585 0.69800001 -0.04405776 1.4265773e-38 357 276
0.046638668 0.69999999 -0.044183996 1.3802662e-38 358 276
0.047865998 0.69999999 -0.044183996 1.4171805e-38 359 276
0.049093332 0.69999999 -0.044183996 1.4192719e-38 360 276
-0.019833706 0.70700002 -0.045865446 1.6777437e-38 304 277
-0.018567799 0.70599997 -0.04580057 1.4103764e-38 305 277
-0.017329946 0.70599997 -0.04580057 1.5102021e-38 306 277
-0.016046507 0.704 -0.045670826 1.5286052e-38 307 277
-0.014812159 0.704 -0.045670826 1.6753938e-38 308 277
-0.013558527 0.70300001 -0.04560595 1.6569547e-38 309 277
-0.012290866 0.70099998 -0.045476202 1.6568824e-38 310 277
-0.011045999 0.69999999 -0.04541133 1.6568824e-38 311 277
-0.0097906133 0.69800001 -0.045281585 1.6477347e-38 312 277
-0.0085545136 0.69700003 -0.045216713 1.6477347e-38 313 277
-0.0073219193 0.69599998 -0.045151837 1.610859e-38 314 277
-0.0060840664 0.69400001 -0.045022093 1.5370666e-38 315 277
-0.0048672534 0.69400001 -0.045022093 1.3990647e-38 316 277
-0.0036451798 0.69300002 -0.044957221 1.3161246e-38 317 277
-0.00243012 0.69300002 -0.044957221 1.3439643e-38 318 277
-0.0012097999 0.69 -0.0447626 1.4269404e-38 319 277
0 0.69 -0.0447626 1.4915121e-38 320 277
0.0012062934 0.68800002 -0.044632856 1.4915121e-38 321 277
0.0024125867 0.68800002 -0.044632856 1.5463598e-38 322 277
0.0036188802 0.68800002 -0.044632856 1.4818228e-38 323 277
0.0048251734 0.68800002 -0.044632856 1.5001894e-38 324 277
0.0060314666 0.68800002 -0.044632856 1.5094089e-38 325 277
0.0072377604 0.68800002 -0.044632856 1.4911145e-38 326 277
0.0084440531 0.68800002 -0.044632856 1.4911145e-38 327 277
0.0096363192 0.68699998 -0.044567976 1.4543452e-38 328 277
0.010840859 0.68699998 -0.044567976 1.4451256e-38 329 277
0.012027865 0.68599999 -0.044503104 1.4542383e-38 330 277
0.013230653 0.68599999 -0.044503104 1.4450187e-38 331 277
0.01443344 0.68599999 -0.044503104 1.4357987e-38 332 277
0.015636226 0.68599999 -0.044503104 1.4265791e-38 333 277
0.01686356 0.68699998 -0.044567976 1.4173593e-38 334 277
0.018068098 0.68699998 -0.044567976 1.4173593e-38 335 277
0.019272638 0.68699998 -0.044567976 1.3989206e-38 336 277
0.020477179 0.68699998 -0.044567976 1.389701e-38 337 277
0.021681719 0.68699998 -0.044567976 1.398848e-38 338 277
0.022886258 0.68699998 -0.044567976 1.3619698e-38 339 277
0.024090799 0.68699998 -0.044567976 1.3342388e-38 340 277
0.025295338 0.68699998 -0.044567976 1.3157996e-38 341 277
0.026499879 0.68699998 -0.044567976 1.2972533e-38 342 277
0.027704418 0.68699998 -0.044567976 1.2972533e-38 343 277
0.028908957 0.68699998 -0.044567976 1.2698467e-38 344 277
0.030157333 0.68800002 -0.044632856 1.2975053e-38 345 277
0.031363625 0.68800002 -0.044632856 1.3250195e-38 346 277
0.032569919 0.68800002 -0.044632856 1.3250195e-38 347 277
0.0338744 0.69 -0.0447626 1.3800126e-38 348 277
0.035084199 0.69 -0.0447626 1.4076713e-38 349 277
0.036293998 0.69 -0.0447626 1.4079583e-38 350 277
0.03755815 0.69099998 -0.044827472 1.4263974e-38 351 277
0.038769703 0.69099998 -0.044827472 1.4173575e-38 352 277
0.039981257 0.69099998 -0.044827472 1.4173575e-38 353 277
0.041312039 0.69300002 -0.044957221 1.4174647e-38 354 277
0.042588469 0.69400001 -0.045022093 1.4174647e-38 355 277
0.043994639 0.69700003 -0.045216713 1.3990263e-38 356 277
0.045216713 0.69700003 -0.045216713 1.3990263e-38 357 277
0.046638668 0.69999999 -0.04541133 1.389593e-38 358 277
0.047865998 0.69999999 -0.04541133 1.3988127e-38 359 277
0.049163464 0.70099998 -0.045476202 1.3080608e-38 360 277
-0.019833706 0.70700002 -0.047105055 1.5762193e-38 304 278
-0.018567799 0.70599997 -0.047038425 1.3272911e-38 305 278
-0.017280852 0.704 -0.046905171 1.547043e-38 306 278
-0.016046507 0.704 -0.046905171 1.5286039e-38 307 278
-0.014791119 0.70300001 -0.046838548 1.6385879e-38 308 278
-0.013519952 0.70099998 -0.046705291 1.6201486e-38 309 278
-0.012273333 0.69999999 -0.046638668 1.6293319e-38 310 278
-0.011045999 0.69999999 -0.046638668 1.6201123e-38 311 278
-0.0097906133 0.69800001 -0.046505414 1.6293316e-38 312 278
-0.0085545136 0.69700003 -0.046438783 1.6201121e-38 313 278
-0.0073008798 0.69400001 -0.046238903 1.6014954e-38 314 278
-0.0060840664 0.69400001 -0.046238903 1.5092637e-38 315 278
-0.00486024 0.69300002 -0.04617228 1.3712971e-38 316 278
-0.0036346598 0.69099998 -0.046039023 1.3897364e-38 317 278
-0.0024231065 0.69099998 -0.046039023 1.3805909e-38 318 278
-0.0012097999 0.69 -0.045972396 1.4266887e-38 319 278
0 0.68800002 -0.045839146 1.4268332e-38 320 278
0.0012062934 0.68800002 -0.045839146 1.4360529e-38 321 278
0.0024125867 0.68800002 -0.045839146 1.481789e-38 322 278
0.0036188802 0.68800002 -0.045839146 1.4449467e-38 323 278
0.0048251734 0.68800002 -0.045839146 1.4357616e-38 324 278
0.0060314666 0.68800002 -0.045839146 1.4634203e-38 325 278
0.0072272392 0.68699998 -0.045772515 1.4543083e-38 326 278
0.0084317802 0.68699998 -0.045772515 1.4543083e-38 327 278
0.0096222926 0.68599999 -0.045705888 1.4267225e-38 328 278
0.010825079 0.68599999 -0.045705888 1.4082474e-38 329 278
0.0119928 0.68400002 -0.045572639 1.4173243e-38 330 278
0.01319208 0.68400002 -0.045572639 1.3988853e-38 331 278
0.01439136 0.68400002 -0.045572639 1.3804818e-38 332 278
0.01559064 0.68400002 -0.045572639 1.3897013e-38 333 278
0.016839013 0.68599999 -0.045705888 1.3621147e-38 334 278
0.018041799 0.68599999 -0.045705888 1.3621147e-38 335 278
0.019244585 0.68599999 -0.045705888 1.3621149e-38 336 278
0.020447372 0.68599999 -0.045705888 1.3436757e-38 337 278
0.021650158 0.68599999 -0.045705888 1.3344555e-38 338 278
0.022886258 0.68699998 -0.045772515 1.3160164e-38 339 278
0.024090799 0.68699998 -0.045772515 1.3157643e-38 340 278
0.025258519 0.68599999 -0.045705888 1.2789221e-38 341 278
0.026461305 0.68599999 -0.045705888 1.2697744e-38 342 278
0.027704418 0.68699998 -0.045772515 1.2697744e-38 343 278
0.028908957 0.68699998 -0.045772515 1.269882e-38 344 278
0.030113498 0.68699998 -0.045772515 1.2606625e-38 345 278
0.031318039 0.68699998 -0.045772515 1.2880336e-38 346 278
0.032569919 0.68800002 -0.045839146 1.2880336e-38 347 278
0.033776212 0.68800002 -0.045839146 1.297218e-38 348 278
0.035084199 0.69 -0.045972396 1.3249126e-38 349 278
0.036293998 0.69 -0.045972396 1.3251641e-38 350 278
0.037503798 0.69 -0.045972396 1.3620422e-38 351 278
0.038713597 0.69 -0.045972396 1.3530373e-38 352 278
0.0399234 0.69 -0.045972396 1.3714765e-38 353 278
0.041192811 0.69099998 -0.046039023 1.3898786e-38 354 278
0.042527102 0.69300002 -0.04617228 1.3898786e-38 355 278
0.043805279 0.69400001 -0.046238903 1.3989909e-38 356 278
0.045151837 0.69599998 -0.046372157 1.3897714e-38 357 278
0.046438783 0.69700003 -0.046438783 1.389701e-38 358 278
0.047729239 0.69800001 -0.046505414 1.4173237e-38 359 278
0.048953064 0.69800001 -0.046505414 1.2706065e-38 360 278
0.050176892 0.69800001 -0.046505414 1.6947063e-38 361 278
-0.019805651 0.70599997 -0.048276275 1.5114656e-38 304 279
-0.018515198 0.704 -0.048139516 1.3178548e-38 305 279
-0.017280852 0.704 -0.048139516 1.5559383e-38 306 279
-0.016046507 0.704 -0.048139516 1.5559383e-38 307 279
-0.014791119 0.70300001 -0.048071139 1.6201121e-38 308 279
-0.013519952 0.70099998 -0.047934376 1.6108925e-38 309 279
-0.012273333 0.69999999 -0.047865998 1.6292234e-38 310 279
-0.01101444 0.69800001 -0.047729239 1.6200039e-38 311 279
-0.0097906133 0.69800001 -0.047729239 1.6292237e-38 312 279
-0.0085422397 0.69599998 -0.047592476 1.6200042e-38 313 279
-0.0073008798 0.69400001 -0.047455717 1.5922753e-38 314 279
-0.0060753003 0.69300002 -0.047387339 1.5185186e-38 315 279
-0.00486024 0.69300002 -0.047387339 1.3807313e-38 316 279
-0.0036346598 0.69099998 -0.047250576 1.4083899e-38 317 279
-0.0024231065 0.69099998 -0.047250576 1.3716935e-38 318 279
-0.0012097999 0.69 -0.047182199 1.3716935e-38 319 279
0 0.68800002 -0.047045439 1.4267591e-38 320 279
0.0012062934 0.68800002 -0.047045439 1.4175395e-38 321 279
0.0024125867 0.68800002 -0.047045439 1.4540934e-38 322 279
0.0036188802 0.68800002 -0.047045439 1.4540934e-38 323 279
