# .PCD v.7 - Point Cloud Data file format
FIELDS x y z rgb imX imY
SIZE 4 4 4 4 4 4
TYPE F F F F F F
COUNT 1 1 1 1 1 1
WIDTH 847
HEIGHT 1
VIEWPOINT 0 0 0 1 0 0 0
POINTS 847
DATA ascii
0.0026685731 0.76099998 0.010674292 1.4541619e-38 322 232
0.0040081199 0.76200002 0.01068832 1.4449423e-38 323 232
0.0053441599 0.76200002 0.01068832 1.4264306e-38 324 232
0.006697733 0.764 0.010716373 1.417211e-38 325 232
0.0080372803 0.764 0.010716373 1.3989514e-38 326 232
0.0094013726 0.76599997 0.010744425 1.3897319e-38 327 232
0.010758453 0.76700002 0.010758453 1.3805126e-38 328 232
0.01210326 0.76700002 0.010758453 1.371293e-38 329 232
0.013483133 0.76899999 0.010786506 1.3436346e-38 330 232
0.014831445 0.76899999 0.010786506 1.3436346e-38 331 232
0.016179759 0.76899999 0.010786506 1.343564e-38 332 232
0.01757366 0.77100003 0.01081456 1.3712227e-38 333 232
0.018974574 0.773 0.010842613 1.3437104e-38 334 232
0.0203299 0.773 0.010842613 1.3990278e-38 335 232
0.021713279 0.77399999 0.01085664 1.2894418e-38 336 232
-0.047497798 0.77399999 0.0094995592 1.2171621e-38 285 233
-0.046140719 0.77399999 0.0094995592 1.3629074e-38 286 233
-0.044783637 0.77399999 0.0094995592 1.3352487e-38 287 233
-0.043370452 0.773 0.0094872871 1.5005856e-38 288 233
-0.042015124 0.773 0.0094872871 1.4637073e-38 289 233
-0.040554602 0.77100003 0.0094627403 1.4818576e-38 290 233
-0.039101087 0.76899999 0.0094381925 1.4449792e-38 291 233
-0.03775277 0.76899999 0.0094381925 1.3343461e-38 292 233
-0.036309779 0.76700002 0.0094136465 1.3067233e-38 293 233
-0.034964975 0.76700002 0.0094136465 1.343747e-38 294 233
-0.033576332 0.76599997 0.0094013726 1.4175395e-38 295 233
-0.032233275 0.76599997 0.0094013726 1.5465761e-38 296 233
-0.030809574 0.764 0.0093768267 1.5465761e-38 297 233
-0.029470026 0.764 0.0093768267 1.5464314e-38 298 233
-0.028130481 0.764 0.0093768267 1.5372118e-38 299 233
-0.026790932 0.764 0.0093768267 1.5372121e-38 300 233
-0.02538476 0.76200002 0.0093522798 1.5372121e-38 301 233
-0.024017159 0.76099998 0.0093400059 1.5279216e-38 302 233
-0.022682872 0.76099998 0.0093400059 1.5095184e-38 303 233
-0.021348584 0.76099998 0.0093400059 1.445055e-38 304 233
-0.0200406 0.76200002 0.0093522798 1.4542746e-38 305 233
-0.018680012 0.76099998 0.0093400059 1.4360152e-38 306 233
-0.017345725 0.76099998 0.0093400059 1.4360152e-38 307 233
-0.016011439 0.76099998 0.0093400059 1.4637796e-38 308 233
-0.014677152 0.76099998 0.0093400059 1.4729993e-38 309 233
-0.013342866 0.76099998 0.0093400059 1.500621e-38 310 233
-0.012008579 0.76099998 0.0093400059 1.5098405e-38 311 233
-0.010674292 0.76099998 0.0093400059 1.5373916e-38 312 233
-0.0093400059 0.76099998 0.0093400059 1.5466112e-38 313 233
-0.0080057196 0.76099998 0.0093400059 1.5648708e-38 314 233
-0.0066714329 0.76099998 0.0093400059 1.5464316e-38 315 233
-0.0053371461 0.76099998 0.0093400059 1.5003001e-38 316 233
-0.0040028598 0.76099998 0.0093400059 1.4910805e-38 317 233
-0.0026685731 0.76099998 0.0093400059 1.4546699e-38 318 233
-0.0013342865 0.76099998 0.0093400059 1.4362307e-38 319 233
0 0.76099998 0.0093400059 1.4634905e-38 320 233
0.0013342865 0.76099998 0.0093400059 1.4450515e-38 321 233
0.0026685731 0.76099998 0.0093400059 1.4450139e-38 322 233
0.0040081199 0.76200002 0.0093522798 1.4173913e-38 323 233
0.0053441599 0.76200002 0.0093522798 1.4264309e-38 324 233
0.0066801999 0.76200002 0.0093522798 1.4079918e-38 325 233
0.0080162399 0.76200002 0.0093522798 1.3896247e-38 326 233
0.0093768267 0.764 0.0093768267 1.3896247e-38 327 233
0.010744425 0.76599997 0.0094013726 1.3712221e-38 328 233
0.01210326 0.76700002 0.0094136465 1.352819e-38 329 233
0.013448066 0.76700002 0.0094136465 1.3343444e-38 330 233
0.014831445 0.76899999 0.0094381925 1.3251249e-38 331 233
0.016179759 0.76899999 0.0094381925 1.306723e-38 332 233
0.01757366 0.77100003 0.0094627403 1.3343458e-38 333 233
0.018925481 0.77100003 0.0094627403 1.2886449e-38 334 233
0.020277301 0.77100003 0.0094627403 1.3163034e-38 335 233
0.021713279 0.77399999 0.0094995592 1.2339429e-38 336 233
-0.047743265 0.778 0.0081845606 1.097163e-38 285 234
-0.046140719 0.77399999 0.0081424797 1.289042e-38 286 234
-0.044783637 0.77399999 0.0081424797 1.3627985e-38 287 234
-0.043370452 0.773 0.0081319595 1.4911496e-38 288 234
-0.042015124 0.773 0.0081319595 1.48193e-38 289 234
-0.040554602 0.77100003 0.0081109209 1.4817848e-38 290 234
-0.039101087 0.76899999 0.0080898795 1.4449426e-38 291 234
-0.037654586 0.76700002 0.00806884 1.3344166e-38 292 234
-0.036309779 0.76700002 0.00806884 1.2975385e-38 293 234
-0.034964975 0.76700002 0.00806884 1.3345627e-38 294 234
-0.033576332 0.76599997 0.0080583189 1.417539e-38 295 234
-0.032233275 0.76599997 0.0080583189 1.4636363e-38 296 234
-0.030809574 0.764 0.0080372803 1.4636363e-38 297 234
-0.029392879 0.76200002 0.0080162399 1.5369963e-38 298 234
-0.028056841 0.76200002 0.0080162399 1.5185932e-38 299 234
-0.0267208 0.76200002 0.0080162399 1.5094455e-38 300 234
-0.025351444 0.76099998 0.0080057196 1.5094455e-38 301 234
-0.024017159 0.76099998 0.0080057196 1.4911508e-38 302 234
-0.022682872 0.76099998 0.0080057196 1.4819313e-38 303 234
-0.021348584 0.76099998 0.0080057196 1.4084995e-38 304 234
-0.020014299 0.76099998 0.0080057196 1.3808048e-38 305 234
-0.018680012 0.76099998 0.0080057196 1.4266516e-38 306 234
-0.017345725 0.76099998 0.0080057196 1.4727493e-38 307 234
-0.016011439 0.76099998 0.0080057196 1.4820041e-38 308 234
-0.014638579 0.759 0.0079846792 1.509627e-38 309 234
-0.0133078 0.759 0.0079846792 1.509662e-38 310 234
-0.01197702 0.759 0.0079846792 1.509662e-38 311 234
-0.010674292 0.76099998 0.0080057196 1.5464682e-38 312 234
-0.0093400059 0.76099998 0.0080057196 1.5649073e-38 313 234
-0.0080057196 0.76099998 0.0080057196 1.5374282e-38 314 234
-0.0066538998 0.759 0.0079846792 1.5005859e-38 315 234
-0.0053231199 0.759 0.0079846792 1.4911511e-38 316 234
-0.0039923396 0.759 0.0079846792 1.4634926e-38 317 234
-0.00266156 0.759 0.0079846792 1.4636719e-38 318 234
-0.00133078 0.759 0.0079846792 1.4452688e-38 319 234
0 0.76099998 0.0080057196 1.4541634e-38 320 234
0.0013342865 0.76099998 0.0080057196 1.4080656e-38 321 234
0.00267208 0.76200002 0.0080162399 1.4540187e-38 322 234
0.0040081199 0.76200002 0.0080162399 1.4356154e-38 323 234
0.0053441599 0.76200002 0.0080162399 1.4355428e-38 324 234
0.0066801999 0.76200002 0.0080162399 1.4078843e-38 325 234
0.0080162399 0.76200002 0.0080162399 1.3895173e-38 326 234
0.0093768267 0.764 0.0080372803 1.3895173e-38 327 234
0.010716373 0.764 0.0080372803 1.3435993e-38 328 234
0.01210326 0.76700002 0.00806884 1.3343797e-38 329 234
0.013448066 0.76700002 0.00806884 1.3434914e-38 330 234
0.014792874 0.76700002 0.00806884 1.3250883e-38 331 234
0.016179759 0.76899999 0.0080898795 1.3066501e-38 332 234
0.017528072 0.76899999 0.0080898795 1.3158697e-38 333 234
0.018876385 0.76899999 0.0080898795 1.2792091e-38 334 234
0.0202247 0.76899999 0.0080898795 1.3160515e-38 335 234
0.021629119 0.77100003 0.0081109209 1.2154682e-38 336 234
0.02298094 0.77100003 0.0081109209 1.4920551e-38 337 234
-0.047620531 0.77600002 0.0068029333 1.07858e-38 285 235
-0.046140719 0.77399999 0.0067853997 1.2981183e-38 286 235
-0.044783637 0.77399999 0.0067853997 1.3718748e-38 287 235
-0.043370452 0.773 0.0067766332 1.4544155e-38 288 235
-0.042015124 0.773 0.0067766332 1.4267568e-38 289 235
-0.040554602 0.77100003 0.0067590997 1.4542335e-38 290 235
-0.038999394 0.76700002 0.006724033 1.4173913e-38 291 235
-0.037654586 0.76700002 0.006724033 1.4172476e-38 292 235
-0.036262438 0.76599997 0.0067152665 1.3896249e-38 293 235
-0.034919381 0.76599997 0.0067152665 1.3622202e-38 294 235
-0.033488665 0.764 0.006697733 1.408318e-38 295 235
-0.032149121 0.764 0.006697733 1.3899883e-38 296 235
-0.030728921 0.76200002 0.0066801999 1.399208e-38 297 235
-0.029392879 0.76200002 0.0066801999 1.4266869e-38 298 235
-0.028056841 0.76200002 0.0066801999 1.4082476e-38 299 235
-0.0267208 0.76200002 0.0066801999 1.4357984e-38 300 235
-0.025351444 0.76099998 0.0066714329 1.4357984e-38 301 235
-0.024017159 0.76099998 0.0066714329 1.4267225e-38 302 235
-0.02262326 0.759 0.0066538998 1.4451256e-38 303 235
-0.02129248 0.759 0.0066538998 1.399208e-38 304 235
-0.020014299 0.76099998 0.0066714329 1.3899883e-38 305 235
-0.018680012 0.76099998 0.0066714329 1.390025e-38 306 235
-0.017300138 0.759 0.0066538998 1.4176837e-38 307 235
-0.015969358 0.759 0.0066538998 1.4820409e-38 308 235
-0.014638579 0.759 0.0066538998 1.4820409e-38 309 235
-0.0133078 0.759 0.0066538998 1.4820044e-38 310 235
-0.01197702 0.759 0.0066538998 1.4635294e-38 311 235
-0.01064624 0.759 0.0066538998 1.4727496e-38 312 235
-0.00931546 0.759 0.0066538998 1.5188115e-38 313 235
-0.0079846792 0.759 0.0066538998 1.5373931e-38 314 235
-0.0066538998 0.759 0.0066538998 1.5005509e-38 315 235
-0.0053231199 0.759 0.0066538998 1.4912943e-38 316 235
-0.0039923396 0.759 0.0066538998 1.4728193e-38 317 235
-0.00266156 0.759 0.0066538998 1.4084995e-38 318 235
-0.0013272733 0.75700003 0.0066363667 1.3531821e-38 319 235
0 0.75700003 0.0066363667 1.408031e-38 320 235
0.0013342865 0.76099998 0.0066714329 1.408031e-38 321 235
0.0026685731 0.76099998 0.0066714329 1.4172129e-38 322 235
0.0040028598 0.76099998 0.0066714329 1.4079933e-38 323 235
0.0053441599 0.76200002 0.0066801999 1.3987016e-38 324 235
0.0066801999 0.76200002 0.0066801999 1.3987016e-38 325 235
0.0080162399 0.76200002 0.0066801999 1.352819e-38 326 235
0.0093522798 0.76200002 0.0066801999 1.3435993e-38 327 235
0.010716373 0.764 0.006697733 1.3343795e-38 328 235
0.01210326 0.76700002 0.006724033 1.3251599e-38 329 235
0.013448066 0.76700002 0.006724033 1.3159406e-38 330 235
0.014792874 0.76700002 0.006724033 1.3066852e-38 331 235
0.016179759 0.76899999 0.0067415666 1.279064e-38 332 235
0.017528072 0.76899999 0.0067415666 1.279064e-38 333 235
0.018876385 0.76899999 0.0067415666 1.2516227e-38 334 235
0.0202247 0.76899999 0.0067415666 1.2792454e-38 335 235
0.021629119 0.77100003 0.0067590997 1.2243997e-38 336 235
0.02298094 0.77100003 0.0067590997 1.4640724e-38 337 235
-0.049107358 0.778 0.0054563731 1.4471467e-38 284 236
-0.047620531 0.77600002 0.0054423464 1.0599251e-38 285 236
-0.046140719 0.77399999 0.0054283198 1.2797868e-38 286 236
-0.044783637 0.77399999 0.0054283198 1.3443238e-38 287 236
-0.043370452 0.773 0.0054213065 1.4267571e-38 288 236
-0.042015124 0.773 0.0054213065 1.408318e-38 289 236
-0.040344197 0.76700002 0.0053792265 1.4450142e-38 290 236
-0.038948543 0.76599997 0.0053722127 1.4357946e-38 291 236
-0.037605491 0.76599997 0.0053722127 1.3990963e-38 292 236
-0.036262438 0.76599997 0.0053722127 1.3806571e-38 293 236
-0.034919381 0.76599997 0.0053722127 1.3622199e-38 294 236
-0.033488665 0.764 0.0053581866 1.380659e-38 295 236
-0.032064959 0.76200002 0.0053441599 1.3897361e-38 296 236
-0.030728921 0.76200002 0.0053441599 1.3805165e-38 297 236
-0.029392879 0.76200002 0.0053441599 1.4080676e-38 298 236
-0.028056841 0.76200002 0.0053441599 1.3896283e-38 299 236
-0.026685731 0.76099998 0.0053371461 1.398848e-38 300 236
-0.025351444 0.76099998 0.0053371461 1.398848e-38 301 236
-0.024017159 0.76099998 0.0053371461 1.4172518e-38 302 236
-0.02262326 0.759 0.0053231199 1.4265073e-38 303 236
-0.02129248 0.759 0.0053231199 1.371478e-38 304 236
-0.020014299 0.76099998 0.0053371461 1.371478e-38 305 236
-0.018680012 0.76099998 0.0053371461 1.3808053e-38 306 236
-0.017300138 0.759 0.0053231199 1.3992446e-38 307 236
-0.015969358 0.759 0.0053231199 1.4636016e-38 308 236
-0.014638579 0.759 0.0053231199 1.4636016e-38 309 236
-0.0133078 0.759 0.0053231199 1.4542383e-38 310 236
-0.01197702 0.759 0.0053231199 1.4450187e-38 311 236
-0.01064624 0.759 0.0053231199 1.4173971e-38 312 236
-0.00931546 0.759 0.0053231199 1.4634591e-38 313 236
-0.0079846792 0.759 0.0053231199 1.445415e-38 314 236
-0.0066538998 0.759 0.0053231199 1.4730377e-38 315 236
-0.0053231199 0.759 0.0053231199 1.4730717e-38 316 236
-0.0039923396 0.759 0.0053231199 1.4177543e-38 317 236
-0.0026545466 0.75700003 0.0053090933 1.4175025e-38 318 236
-0.0013272733 0.75700003 0.0053090933 1.3621853e-38 319 236
0 0.75700003 0.0053090933 1.3895917e-38 320 236
0.0013272733 0.75700003 0.0053090933 1.3895917e-38 321 236
0.0026685731 0.76099998 0.0053371461 1.4078861e-38 322 236
0.0040028598 0.76099998 0.0053371461 1.3986665e-38 323 236
0.0053441599 0.76200002 0.0053441599 1.3711155e-38 324 236
0.0066801999 0.76200002 0.0053441599 1.3711155e-38 325 236
0.0080162399 0.76200002 0.0053441599 1.334416e-38 326 236
0.0093522798 0.76200002 0.0053441599 1.3251965e-38 327 236
0.01068832 0.76200002 0.0053441599 1.3067931e-38 328 236
0.012087479 0.76599997 0.0053722127 1.2883539e-38 329 236
0.013448066 0.76700002 0.0053792265 1.2882823e-38 330 236
0.014792874 0.76700002 0.0053792265 1.2882823e-38 331 236
0.016179759 0.76899999 0.0053932532 1.2790638e-38 332 236
0.017528072 0.76899999 0.0053932532 1.2698441e-38 333 236
0.018876385 0.76899999 0.0053932532 1.2515148e-38 334 236
0.0202247 0.76899999 0.0053932532 1.2791735e-38 335 236
0.021629119 0.77100003 0.0054072798 1.2149998e-38 336 236
0.02298094 0.77100003 0.0054072798 1.3901713e-38 337 236
-0.049107358 0.778 0.0040922803 1.3180365e-38 284 237
-0.047497798 0.77399999 0.0040712398 1.0321942e-38 285 237
-0.045961879 0.77100003 0.0040554604 1.3255609e-38 286 237
-0.044610061 0.77100003 0.0040554604 1.3624032e-38 287 237
-0.043146025 0.76899999 0.0040449398 1.3898436e-38 288 237
-0.041797712 0.76899999 0.0040449398 1.3805881e-38 289 237
-0.040344197 0.76700002 0.00403442 1.4357596e-38 290 237
-0.038948543 0.76599997 0.0040291594 1.4173206e-38 291 237
-0.037605491 0.76599997 0.0040291594 1.4081009e-38 292 237
-0.036262438 0.76599997 0.0040291594 1.3804422e-38 293 237
-0.034828212 0.764 0.0040186401 1.3711523e-38 294 237
-0.033488665 0.764 0.0040186401 1.3803719e-38 295 237
-0.032064959 0.76200002 0.0040081199 1.3620054e-38 296 237
-0.030688593 0.76099998 0.0040028598 1.3712249e-38 297 237
-0.029354304 0.76099998 0.0040028598 1.362077e-38 298 237
-0.028020019 0.76099998 0.0040028598 1.3528574e-38 299 237
-0.026685731 0.76099998 0.0040028598 1.3712246e-38 300 237
-0.025351444 0.76099998 0.0040028598 1.3527855e-38 301 237
-0.023954039 0.759 0.0039923396 1.36197e-38 302 237
-0.02262326 0.759 0.0039923396 1.3711896e-38 303 237
-0.02129248 0.759 0.0039923396 1.3620422e-38 304 237
-0.020014299 0.76099998 0.0040028598 1.3620422e-38 305 237
-0.018680012 0.76099998 0.0040028598 1.3804818e-38 306 237
-0.017300138 0.759 0.0039923396 1.3989209e-38 307 237
-0.015969358 0.759 0.0039923396 1.4264364e-38 308 237
-0.014638579 0.759 0.0039923396 1.4264364e-38 309 237
-0.0133078 0.759 0.0039923396 1.4172524e-38 310 237
-0.01197702 0.759 0.0039923396 1.4172524e-38 311 237
-0.01064624 0.759 0.0039923396 1.3807334e-38 312 237
-0.00931546 0.759 0.0039923396 1.3991727e-38 313 237
-0.0079846792 0.759 0.0039923396 1.4177193e-38 314 237
-0.0066538998 0.759 0.0039923396 1.4637812e-38 315 237
-0.0053231199 0.759 0.0039923396 1.4821111e-38 316 237
-0.0039923396 0.759 0.0039923396 1.4175743e-38 317 237
-0.0026545466 0.75700003 0.0039818203 1.4173225e-38 318 237
-0.0013272733 0.75700003 0.0039818203 1.3896636e-38 319 237
0 0.75700003 0.0039818203 1.3712246e-38 320 237
0.0013272733 0.75700003 0.0039818203 1.3712246e-38 321 237
0.0026685731 0.76099998 0.0040028598 1.3895193e-38 322 237
0.0040028598 0.76099998 0.0040028598 1.3802997e-38 323 237
0.0053371461 0.76099998 0.0040028598 1.3435287e-38 324 237
0.0066714329 0.76099998 0.0040028598 1.3343091e-38 325 237
0.0080057196 0.76099998 0.0040028598 1.3067936e-38 326 237
0.0093522798 0.76200002 0.0040081199 1.2975741e-38 327 237
0.01068832 0.76200002 0.0040081199 1.3066857e-38 328 237
0.01205592 0.764 0.0040186401 1.2882467e-38 329 237
0.013430533 0.76599997 0.0040291594 1.2882823e-38 330 237
0.014773586 0.76599997 0.0040291594 1.2882823e-38 331 237
0.01613768 0.76700002 0.00403442 1.2515481e-38 332 237
0.017528072 0.76899999 0.0040449398 1.2607678e-38 333 237
0.018876385 0.76899999 0.0040449398 1.2239634e-38 334 237
0.0202247 0.76899999 0.0040449398 1.251658e-38 335 237
0.021629119 0.77100003 0.0040554604 1.1965955e-38 336 237
0.02298094 0.77100003 0.0040554604 1.3348891e-38 337 237
0.02442744 0.77399999 0.0040712398 1.3272208e-38 338 237
-0.047497798 0.77399999 0.0027141599 1.0503452e-38 285 238
-0.045961879 0.77100003 0.0027036399 1.3071584e-38 286 238
-0.044610061 0.77100003 0.0027036399 1.316378e-38 287 238
-0.043146025 0.76899999 0.0026966266 1.36215e-38 288 238
-0.041689005 0.76700002 0.0026896133 1.36215e-38 289 238
-0.040344197 0.76700002 0.0026896133 1.398883e-38 290 238
-0.038948543 0.76599997 0.0026861064 1.3896633e-38 291 238
-0.037605491 0.76599997 0.0026861064 1.3802644e-38 292 238
-0.036262438 0.76599997 0.0026861064 1.3618253e-38 293 238
-0.034828212 0.764 0.0026790933 1.3066892e-38 294 238
-0.033488665 0.764 0.0026790933 1.3159448e-38 295 238
-0.032064959 0.76200002 0.00267208 1.3344193e-38 296 238
-0.030688593 0.76099998 0.0026685731 1.3344193e-38 297 238
-0.029354304 0.76099998 0.0026685731 1.3344543e-38 298 238
-0.028020019 0.76099998 0.0026685731 1.3252347e-38 299 238
-0.026685731 0.76099998 0.0026685731 1.3435306e-38 300 238
-0.025351444 0.76099998 0.0026685731 1.3343111e-38 301 238
-0.023954039 0.759 0.00266156 1.3434234e-38 302 238
-0.02262326 0.759 0.00266156 1.3434234e-38 303 238
-0.02129248 0.759 0.00266156 1.3342404e-38 304 238
-0.020014299 0.76099998 0.0026685731 1.3342404e-38 305 238
-0.018680012 0.76099998 0.0026685731 1.3433531e-38 306 238
-0.017300138 0.759 0.00266156 1.3710116e-38 307 238
-0.015969358 0.759 0.00266156 1.3984552e-38 308 238
-0.014638579 0.759 0.00266156 1.4076748e-38 309 238
-0.0133078 0.759 0.00266156 1.3894505e-38 310 238
-0.01197702 0.759 0.00266156 1.3894505e-38 311 238
-0.01064624 0.759 0.00266156 1.3530026e-38 312 238
-0.00931546 0.759 0.00266156 1.343747e-38 313 238
-0.0079846792 0.759 0.00266156 1.2979366e-38 314 238
-0.0066538998 0.759 0.00266156 1.3716932e-38 315 238
-0.0053231199 0.759 0.00266156 1.4726396e-38 316 238
-0.0039923396 0.759 0.00266156 1.4357972e-38 317 238
-0.00266156 0.759 0.00266156 1.4172856e-38 318 238
-0.0013272733 0.75700003 0.0026545466 1.3988463e-38 319 238
0 0.75700003 0.0026545466 1.3621126e-38 320 238
0.0013272733 0.75700003 0.0026545466 1.3621126e-38 321 238
0.0026685731 0.76099998 0.0026685731 1.3712955e-38 322 238
0.0040028598 0.76099998 0.0026685731 1.3528205e-38 323 238
0.0053371461 0.76099998 0.0026685731 1.3251612e-38 324 238
0.0066714329 0.76099998 0.0026685731 1.306758e-38 325 238
0.0080057196 0.76099998 0.0026685731 1.3066501e-38 326 238
0.0093522798 0.76200002 0.00267208 1.288247e-38 327 238
0.01068832 0.76200002 0.00267208 1.2882467e-38 328 238
0.01202436 0.76200002 0.00267208 1.2882467e-38 329 238
0.013395466 0.764 0.0026790933 1.2791347e-38 330 238
0.014735013 0.764 0.0026790933 1.2791347e-38 331 238
0.016074561 0.764 0.0026790933 1.2515126e-38 332 238
0.017482487 0.76700002 0.0026896133 1.2607681e-38 333 238
0.018876385 0.76899999 0.0026966266 1.2148874e-38 334 238
0.0202247 0.76899999 0.0026966266 1.24251e-38 335 238
0.021629119 0.77100003 0.0027036399 1.1965952e-38 336 238
0.023040552 0.773 0.0027106532 1.2980464e-38 337 238
0.02442744 0.77399999 0.0027141599 1.2810507e-38 338 238
-0.047497798 0.77399999 0.0013570799 1.1145575e-38 285 239
-0.046081103 0.773 0.0013553266 1.3161259e-38 286 239
-0.044610061 0.77100003 0.00135182 1.3161259e-38 287 239
-0.043146025 0.76899999 0.0013483133 1.3710814e-38 288 239
-0.041689005 0.76700002 0.0013448066 1.3803369e-38 289 239
-0.040344197 0.76700002 0.0013448066 1.4079583e-38 290 239
-0.038948543 0.76599997 0.0013430532 1.3802997e-38 291 239
-0.037605491 0.76599997 0.0013430532 1.3526053e-38 292 239
-0.036167759 0.764 0.0013395466 1.2788488e-38 293 239
-0.034828212 0.764 0.0013395466 1.2881414e-38 294 239
-0.033401001 0.76200002 0.00133604 1.3157999e-38 295 239
-0.032022879 0.76099998 0.0013342865 1.3251264e-38 296 239
-0.030688593 0.76099998 0.0013342865 1.3251264e-38 297 239
-0.029392879 0.76200002 0.00133604 1.3434213e-38 298 239
-0.028020019 0.76099998 0.0013342865 1.3249823e-38 299 239
-0.026685731 0.76099998 0.0013342865 1.3157278e-38 300 239
-0.025351444 0.76099998 0.0013342865 1.3065082e-38 301 239
-0.023954039 0.759 0.00133078 1.3340593e-38 302 239
-0.02262326 0.759 0.00133078 1.3340593e-38 303 239
-0.02129248 0.759 0.00133078 1.3339871e-38 304 239
-0.020014299 0.76099998 0.0013342865 1.3432067e-38 305 239
-0.018680012 0.76099998 0.0013342865 1.3432072e-38 306 239
-0.017345725 0.76099998 0.0013342865 1.3616103e-38 307 239
-0.015969358 0.759 0.00133078 1.3707227e-38 308 239
-0.014638579 0.759 0.00133078 1.3983812e-38 309 239
-0.0133078 0.759 0.00133078 1.3618256e-38 310 239
-0.01197702 0.759 0.00133078 1.3618256e-38 311 239
-0.01064624 0.759 0.00133078 1.306688e-38 312 239
-0.00931546 0.759 0.00133078 1.2697739e-38 313 239
-0.0079846792 0.759 0.00133078 1.2881779e-38 314 239
-0.0066363667 0.75700003 0.0013272733 1.389593e-38 315 239
-0.0053090933 0.75700003 0.0013272733 1.4263619e-38 316 239
-0.0039818203 0.75700003 0.0013272733 1.4356174e-38 317 239
-0.0026545466 0.75700003 0.0013272733 1.3988816e-38 318 239
-0.0013272733 0.75700003 0.0013272733 1.3711871e-38 319 239
0 0.75700003 0.0013272733 1.3620757e-38 320 239
0.0013272733 0.75700003 0.0013272733 1.3896984e-38 321 239
0.00266156 0.759 0.00133078 1.3713306e-38 322 239
0.0039923396 0.759 0.00133078 1.343636e-38 323 239
0.0053371461 0.76099998 0.0013342865 1.2975735e-38 324 239
0.0066714329 0.76099998 0.0013342865 1.2975735e-38 325 239
0.0080057196 0.76099998 0.0013342865 1.3066138e-38 326 239
0.0093400059 0.76099998 0.0013342865 1.3066138e-38 327 239
0.01068832 0.76200002 0.00133604 1.2698794e-38 328 239
0.01202436 0.76200002 0.00133604 1.2790991e-38 329 239
0.013395466 0.764 0.0013395466 1.2698072e-38 330 239
0.014735013 0.764 0.0013395466 1.2698072e-38 331 239
0.016074561 0.764 0.0013395466 1.2422933e-38 332 239
0.017459691 0.76599997 0.0013430532 1.2515128e-38 333 239
0.018802745 0.76599997 0.0013430532 1.2423303e-38 334 239
0.020172099 0.76700002 0.0013448066 1.2607694e-38 335 239
0.021573013 0.76899999 0.0013483133 1.1965234e-38 336 239
0.02298094 0.77100003 0.00135182 1.2795354e-38 337 239
0.02442744 0.77399999 0.0013570799 1.2440642e-38 338 239
-0.047497798 0.77399999 -0 1.0684594e-38 285 240
-0.045961879 0.77100003 -0 1.2517691e-38 286 240
-0.044494338 0.76899999 -0 1.2425496e-38 287 240
-0.043146025 0.76899999 -0 1.2976496e-38 288 240
-0.041689005 0.76700002 -0 1.2976496e-38 289 240
-0.040291596 0.76599997 -0 1.3160515e-38 290 240
-0.038948543 0.76599997 -0 1.2976483e-38 291 240
-0.037605491 0.76599997 -0 1.3157278e-38 292 240
-0.036167759 0.764 -0 1.3065082e-38 293 240
-0.034828212 0.764 -0 1.2239281e-38 294 240
-0.033357166 0.76099998 -0 1.2424031e-38 295 240
-0.032022879 0.76099998 -0 1.2882851e-38 296 240
-0.030688593 0.76099998 -0 1.269882e-38 297 240
-0.029354304 0.76099998 -0 1.3064726e-38 298 240
-0.028020019 0.76099998 -0 1.297253e-38 299 240
-0.026685731 0.76099998 -0 1.2789221e-38 300 240
-0.025351444 0.76099998 -0 1.2697024e-38 301 240
-0.023954039 0.759 -0 1.2697744e-38 302 240
-0.02262326 0.759 -0 1.2605188e-38 303 240
-0.02129248 0.759 -0 1.2789221e-38 304 240
-0.020014299 0.76099998 -0 1.2881417e-38 305 240
-0.018680012 0.76099998 -0 1.288071e-38 306 240
-0.017345725 0.76099998 -0 1.288071e-38 307 240
-0.015969358 0.759 -0 1.269812e-38 308 240
-0.014638579 0.759 -0 1.2882151e-38 309 240
-0.0133078 0.759 -0 1.2882504e-38 310 240
-0.01197702 0.759 -0 1.2605918e-38 311 240
-0.01064624 0.759 -0 1.2604136e-38 312 240
-0.00931546 0.759 -0 1.2143517e-38 313 240
-0.0079846792 0.759 -0 1.1502829e-38 314 240
-0.0066363667 0.75700003 -0 1.2148198e-38 315 240
-0.0053090933 0.75700003 -0 1.2976499e-38 316 240
-0.0039818203 0.75700003 -0 1.2976499e-38 317 240
-0.0026545466 0.75700003 -0 1.3527139e-38 318 240
-0.0013272733 0.75700003 -0 1.371117e-38 319 240
0 0.759 -0 1.343781e-38 320 240
0.00133078 0.759 -0 1.3345615e-38 321 240
0.00266156 0.759 -0 1.352784e-38 322 240
0.0039923396 0.759 -0 1.3343447e-38 323 240
0.0053371461 0.76099998 -0 1.2975385e-38 324 240
0.0066714329 0.76099998 -0 1.2883189e-38 325 240
0.0080057196 0.76099998 -0 1.2606972e-38 326 240
0.0093400059 0.76099998 -0 1.2514777e-38 327 240
0.01068832 0.76200002 -0 1.2605892e-38 328 240
0.01202436 0.76200002 -0 1.2421861e-38 329 240
0.013395466 0.764 -0 1.2330384e-38 330 240
0.014735013 0.764 -0 1.2330384e-38 331 240
0.016074561 0.764 -0 1.2147791e-38 332 240
0.017414106 0.764 -0 1.2147791e-38 333 240
0.018802745 0.76599997 -0 1.2055972e-38 334 240
0.020172099 0.76700002 -0 1.2332199e-38 335 240
0.021573013 0.76899999 -0 1.1598978e-38 336 240
0.022921326 0.76899999 -0 1.2152151e-38 337 240
0.024395877 0.773 -0 1.2530321e-38 338 240
-0.047436431 0.773 -0.0013553266 1.0408007e-38 285 241
-0.045961879 0.77100003 -0.00135182 1.2881432e-38 286 241
-0.044494338 0.76899999 -0.0013483133 1.3065823e-38 287 241
-0.043146025 0.76899999 -0.0013483133 1.2699536e-38 288 241
-0.041689005 0.76700002 -0.0013448066 1.2792091e-38 289 241
-0.040291596 0.76599997 -0.0013430532 1.3250542e-38 290 241
-0.038948543 0.76599997 -0.0013430532 1.3158347e-38 291 241
-0.037605491 0.76599997 -0.0013430532 1.2881764e-38 292 241
-0.036167759 0.764 -0.0013395466 1.2605176e-38 293 241
-0.034828212 0.764 -0.0013395466 1.2422582e-38 294 241
-0.033357166 0.76099998 -0.0013342865 1.2422582e-38 295 241
-0.032022879 0.76099998 -0.0013342865 1.2880689e-38 296 241
-0.030688593 0.76099998 -0.0013342865 1.2788135e-38 297 241
-0.029354304 0.76099998 -0.0013342865 1.287997e-38 298 241
-0.028020019 0.76099998 -0.0013342865 1.287997e-38 299 241
-0.026685731 0.76099998 -0.0013342865 1.2605176e-38 300 241
-0.025351444 0.76099998 -0.0013342865 1.2605176e-38 301 241
-0.024017159 0.76099998 -0.0013342865 1.2512624e-38 302 241
-0.022682872 0.76099998 -0.0013342865 1.2512624e-38 303 241
-0.021348584 0.76099998 -0.0013342865 1.2604107e-38 304 241
-0.020014299 0.76099998 -0.0013342865 1.2788138e-38 305 241
-0.018680012 0.76099998 -0.0013342865 1.2787787e-38 306 241
-0.017345725 0.76099998 -0.0013342865 1.2787787e-38 307 241
-0.015969358 0.759 -0.00133078 1.2696315e-38 308 241
-0.014638579 0.759 -0.00133078 1.2604119e-38 309 241
-0.0133078 0.759 -0.00133078 1.2603753e-38 310 241
-0.01194546 0.75700003 -0.0013272733 1.2511558e-38 311 241
-0.010618187 0.75700003 -0.0013272733 1.2051301e-38 312 241
-0.0092909131 0.75700003 -0.0013272733 1.1866551e-38 313 241
-0.0079636406 0.75700003 -0.0013272733 1.1591409e-38 314 241
-0.0066363667 0.75700003 -0.0013272733 1.1960552e-38 315 241
-0.0053090933 0.75700003 -0.0013272733 1.2788868e-38 316 241
-0.0039818203 0.75700003 -0.0013272733 1.3065095e-38 317 241
-0.0026545466 0.75700003 -0.0013272733 1.3616451e-38 318 241
-0.00133078 0.759 -0.00133078 1.3893398e-38 319 241
0 0.759 -0.00133078 1.3711874e-38 320 241
0.00133078 0.759 -0.00133078 1.3343091e-38 321 241
0.0026685731 0.76099998 -0.0013342865 1.3341293e-38 322 241
0.0040028598 0.76099998 -0.0013342865 1.3249098e-38 323 241
0.0053371461 0.76099998 -0.0013342865 1.2881037e-38 324 241
0.0066714329 0.76099998 -0.0013342865 1.2881037e-38 325 241
0.0080057196 0.76099998 -0.0013342865 1.2422217e-38 326 241
0.0093522798 0.76200002 -0.00133604 1.2329662e-38 327 241
0.01068832 0.76200002 -0.00133604 1.2420779e-38 328 241
0.01202436 0.76200002 -0.00133604 1.2236748e-38 329 241
0.0133604 0.76200002 -0.00133604 1.2145274e-38 330 241
0.014735013 0.764 -0.0013395466 1.2145274e-38 331 241
0.016074561 0.764 -0.0013395466 1.2237113e-38 332 241
0.017414106 0.764 -0.0013395466 1.2329668e-38 333 241
0.018802745 0.76599997 -0.0013430532 1.1871223e-38 334 241
0.020172099 0.76700002 -0.0013448066 1.214817e-38 335 241
0.021573013 0.76899999 -0.0013483133 1.1966688e-38 336 241
0.022921326 0.76899999 -0.0013483133 1.2427306e-38 337 241
0.024395877 0.773 -0.0013553266 1.2070065e-38 338 241
-0.04885488 0.77399999 -0.0027141599 1.1882418e-38 284 242
-0.047436431 0.773 -0.0027106532 1.0775711e-38 285 242
-0.046081103 0.773 -0.0027106532 1.2608438e-38 286 242
-0.044725779 0.773 -0.0027106532 1.2516242e-38 287 242
-0.043146025 0.76899999 -0.0026966266 1.2515871e-38 288 242
-0.041689005 0.76700002 -0.0026896133 1.2423675e-38 289 242
-0.040291596 0.76599997 -0.0026861064 1.2698823e-38 290 242
-0.038948543 0.76599997 -0.0026861064 1.2606627e-38 291 242
-0.037605491 0.76599997 -0.0026861064 1.2514782e-38 292 242
-0.036167759 0.764 -0.0026790933 1.2422226e-38 293 242
-0.034828212 0.764 -0.0026790933 1.2421861e-38 294 242
-0.033401001 0.76200002 -0.00267208 1.2605892e-38 295 242
-0.032022879 0.76099998 -0.0026685731 1.2604823e-38 296 242
-0.030688593 0.76099998 -0.0026685731 1.2604823e-38 297 242
-0.029354304 0.76099998 -0.0026685731 1.251263e-38 298 242
-0.028020019 0.76099998 -0.0026685731 1.251263e-38 299 242
-0.026685731 0.76099998 -0.0026685731 1.2329312e-38 300 242
-0.025351444 0.76099998 -0.0026685731 1.2329312e-38 301 242
-0.024017159 0.76099998 -0.0026685731 1.2420431e-38 302 242
-0.022682872 0.76099998 -0.0026685731 1.22364e-38 303 242
-0.021348584 0.76099998 -0.0026685731 1.2235694e-38 304 242
-0.020014299 0.76099998 -0.0026685731 1.2419725e-38 305 242
-0.018680012 0.76099998 -0.0026685731 1.223606e-38 306 242
-0.017300138 0.759 -0.00266156 1.2328255e-38 307 242
-0.015969358 0.759 -0.00266156 1.2236416e-38 308 242
-0.014638579 0.759 -0.00266156 1.2236416e-38 309 242
-0.0133078 0.759 -0.00266156 1.2144217e-38 310 242
-0.01194546 0.75700003 -0.0026545466 1.1775435e-38 311 242
-0.010618187 0.75700003 -0.0026545466 1.1866554e-38 312 242
-0.0092909131 0.75700003 -0.0026545466 1.1774358e-38 313 242
-0.0079636406 0.75700003 -0.0026545466 1.1224787e-38 314 242
-0.0066363667 0.75700003 -0.0026545466 1.1593211e-38 315 242
-0.0053090933 0.75700003 -0.0026545466 1.2146015e-38 316 242
-0.0039818203 0.75700003 -0.0026545466 1.2514798e-38 317 242
-0.0026545466 0.75700003 -0.0026545466 1.3065798e-38 318 242
-0.00133078 0.759 -0.00266156 1.3250548e-38 319 242
0 0.759 -0.00266156 1.343386e-38 320 242
0.00133078 0.759 -0.00266156 1.3065079e-38 321 242
0.0026685731 0.76099998 -0.0026685731 1.3155831e-38 322 242
0.0040028598 0.76099998 -0.0026685731 1.3155831e-38 323 242
0.0053371461 0.76099998 -0.0026685731 1.2604454e-38 324 242
0.0066714329 0.76099998 -0.0026685731 1.2604454e-38 325 242
0.0080057196 0.76099998 -0.0026685731 1.2237469e-38 326 242
0.0093522798 0.76200002 -0.00267208 1.2145274e-38 327 242
0.01068832 0.76200002 -0.00267208 1.2052722e-38 328 242
0.01202436 0.76200002 -0.00267208 1.1960525e-38 329 242
0.0133604 0.76200002 -0.00267208 1.1960172e-38 330 242
0.014735013 0.764 -0.0026790933 1.1960172e-38 331 242
0.016074561 0.764 -0.0026790933 1.177723e-38 332 242
0.017414106 0.764 -0.0026790933 1.1961621e-38 333 242
0.018802745 0.76599997 -0.0026861064 1.1595728e-38 334 242
0.020172099 0.76700002 -0.0026896133 1.1964871e-38 335 242
0.021573013 0.76899999 -0.0026966266 1.159971e-38 336 242
0.022921326 0.76899999 -0.0026966266 1.1968852e-38 337 242
0.024395877 0.773 -0.0027106532 1.234593e-38 338 242
-0.050601196 0.77999997 -0.0041027996 1.3644234e-38 283 243
-0.04885488 0.77399999 -0.0040712398 1.1973166e-38 284 243
-0.047497798 0.77399999 -0.0040712398 1.12356e-38 285 243
-0.046081103 0.773 -0.0040659797 1.2976496e-38 286 243
-0.044725779 0.773 -0.0040659797 1.2699908e-38 287 243
-0.043146025 0.76899999 -0.0040449398 1.269882e-38 288 243
-0.041689005 0.76700002 -0.00403442 1.2514429e-38 289 243
-0.040291596 0.76599997 -0.0040291594 1.2422229e-38 290 243
-0.038948543 0.76599997 -0.0040291594 1.2514426e-38 291 243
-0.037605491 0.76599997 -0.0040291594 1.2422582e-38 292 243
-0.036167759 0.764 -0.0040186401 1.2422582e-38 293 243
-0.034828212 0.764 -0.0040186401 1.2422217e-38 294 243
-0.033401001 0.76200002 -0.0040081199 1.2422217e-38 295 243
-0.032022879 0.76099998 -0.0040028598 1.251298e-38 296 243
-0.030688593 0.76099998 -0.0040028598 1.251298e-38 297 243
-0.029354304 0.76099998 -0.0040028598 1.2420078e-38 298 243
-0.028020019 0.76099998 -0.0040028598 1.2236047e-38 299 243
-0.026685731 0.76099998 -0.0040028598 1.223605e-38 300 243
-0.025351444 0.76099998 -0.0040028598 1.223605e-38 301 243
-0.024017159 0.76099998 -0.0040028598 1.2051299e-38 302 243
-0.022682872 0.76099998 -0.0040028598 1.2051299e-38 303 243
-0.021348584 0.76099998 -0.0040028598 1.2234614e-38 304 243
-0.020014299 0.76099998 -0.0040028598 1.2326811e-38 305 243
-0.018680012 0.76099998 -0.0040028598 1.2052022e-38 306 243
-0.017300138 0.759 -0.0039923396 1.2052022e-38 307 243
-0.015969358 0.759 -0.0039923396 1.1959825e-38 308 243
-0.014638579 0.759 -0.0039923396 1.1959825e-38 309 243
-0.0133078 0.759 -0.0039923396 1.1683239e-38 310 243
-0.01194546 0.75700003 -0.0039818203 1.1683239e-38 311 243
-0.010618187 0.75700003 -0.0039818203 1.1408084e-38 312 243
-0.0092909131 0.75700003 -0.0039818203 1.1408084e-38 313 243
-0.0079636406 0.75700003 -0.0039818203 1.1409153e-38 314 243
-0.0066188332 0.755 -0.0039712996 1.1777577e-38 315 243
-0.0052950666 0.755 -0.0039712996 1.2053804e-38 316 243
-0.0039712996 0.755 -0.0039712996 1.2422226e-38 317 243
-0.0026545466 0.75700003 -0.0039818203 1.2698094e-38 318 243
-0.00133078 0.759 -0.0039923396 1.279029e-38 319 243
0 0.759 -0.0039923396 1.3247672e-38 320 243
0.00133078 0.759 -0.0039923396 1.306328e-38 321 243
0.0026685731 0.76099998 -0.0040028598 1.2970363e-38 322 243
0.0040028598 0.76099998 -0.0040028598 1.2970363e-38 323 243
0.0053371461 0.76099998 -0.0040028598 1.2512258e-38 324 243
0.0066714329 0.76099998 -0.0040028598 1.2420063e-38 325 243
0.0080057196 0.76099998 -0.0040028598 1.2144552e-38 326 243
0.0093522798 0.76200002 -0.0040081199 1.2052355e-38 327 243
0.01068832 0.76200002 -0.0040081199 1.2052358e-38 328 243
0.01202436 0.76200002 -0.0040081199 1.1959804e-38 329 243
0.0133604 0.76200002 -0.0040081199 1.1683589e-38 330 243
0.014735013 0.764 -0.0040186401 1.1776144e-38 331 243
0.016074561 0.764 -0.0040186401 1.1592846e-38 332 243
0.017414106 0.764 -0.0040186401 1.1869072e-38 333 243
0.018802745 0.76599997 -0.0040291594 1.1503535e-38 334 243
0.020172099 0.76700002 -0.00403442 1.1872319e-38 335 243
0.021573013 0.76899999 -0.0040449398 1.1781937e-38 336 243
0.02298094 0.77100003 -0.0040554604 1.2612058e-38 337 243
0.02433276 0.77100003 -0.0040554604 1.2807264e-38 338 243
-0.050601196 0.77999997 -0.0054703997 1.3552039e-38 283 244
-0.04885488 0.77399999 -0.0054283198 1.2064637e-38 284 244
-0.047497798 0.77399999 -0.0054283198 1.1511465e-38 285 244
-0.046081103 0.773 -0.0054213065 1.3069048e-38 286 244
-0.044725779 0.773 -0.0054213065 1.2699905e-38 287 244
-0.043258239 0.77100003 -0.0054072798 1.2606625e-38 288 244
-0.041689005 0.76700002 -0.0053792265 1.2422232e-38 289 244
-0.040344197 0.76700002 -0.0053792265 1.2055242e-38 290 244
-0.038948543 0.76599997 -0.0053722127 1.2055242e-38 291 244
-0.037605491 0.76599997 -0.0053722127 1.2330387e-38 292 244
-0.036167759 0.764 -0.0053581866 1.2330387e-38 293 244
-0.034828212 0.764 -0.0053581866 1.2512977e-38 294 244
-0.033401001 0.76200002 -0.0053441599 1.2512977e-38 295 244
-0.032022879 0.76099998 -0.0053371461 1.2512261e-38 296 244
-0.030688593 0.76099998 -0.0053371461 1.2420066e-38 297 244
-0.029354304 0.76099998 -0.0053371461 1.2143851e-38 298 244
-0.028020019 0.76099998 -0.0053371461 1.19591e-38 299 244
-0.026685731 0.76099998 -0.0053371461 1.1865832e-38 300 244
-0.025351444 0.76099998 -0.0053371461 1.1865832e-38 301 244
-0.024017159 0.76099998 -0.0053371461 1.2049503e-38 302 244
-0.022682872 0.76099998 -0.0053371461 1.2141699e-38 303 244
-0.021348584 0.76099998 -0.0053371461 1.1958387e-38 304 244
-0.020014299 0.76099998 -0.0053371461 1.2142418e-38 305 244
-0.018680012 0.76099998 -0.0053371461 1.1775435e-38 306 244
-0.017345725 0.76099998 -0.0053371461 1.1683239e-38 307 244
-0.015969358 0.759 -0.0053231199 1.159069e-38 308 244
-0.014638579 0.759 -0.0053231199 1.159069e-38 309 244
-0.013272733 0.75700003 -0.0053090933 1.131518e-38 310 244
-0.01194546 0.75700003 -0.0053090933 1.131518e-38 311 244
-0.010618187 0.75700003 -0.0053090933 1.1315883e-38 312 244
-0.0092909131 0.75700003 -0.0053090933 1.1408079e-38 313 244
-0.0079636406 0.75700003 -0.0053090933 1.1409151e-38 314 244
-0.0066188332 0.755 -0.0052950666 1.1593901e-38 315 244
-0.0052950666 0.755 -0.0052950666 1.2052005e-38 316 244
-0.0039712996 0.755 -0.0052950666 1.2236397e-38 317 244
-0.0026545466 0.75700003 -0.0053090933 1.2694502e-38 318 244
-0.00133078 0.759 -0.0053231199 1.2971087e-38 319 244
0 0.759 -0.0053231199 1.2970365e-38 320 244
0.00133078 0.759 -0.0053231199 1.287817e-38 321 244
0.0026685731 0.76099998 -0.0053371461 1.2602303e-38 322 244
0.0040028598 0.76099998 -0.0053371461 1.2602303e-38 323 244
0.0053371461 0.76099998 -0.0053371461 1.2326794e-38 324 244
0.0066714329 0.76099998 -0.0053371461 1.2234598e-38 325 244
0.0080057196 0.76099998 -0.0053371461 1.1959806e-38 326 244
0.0093522798 0.76200002 -0.0053441599 1.1959806e-38 327 244
0.01068832 0.76200002 -0.0053441599 1.1684298e-38 328 244
0.01202436 0.76200002 -0.0053441599 1.1591744e-38 329 244
0.0133604 0.76200002 -0.0053441599 1.1315889e-38 330 244
0.014735013 0.764 -0.0053581866 1.1408084e-38 331 244
0.016074561 0.764 -0.0053581866 1.1224782e-38 332 244
0.017414106 0.764 -0.0053581866 1.1501369e-38 333 244
0.018802745 0.76599997 -0.0053722127 1.1319148e-38 334 244
0.020172099 0.76700002 -0.0053792265 1.1687931e-38 335 244
0.021629119 0.77100003 -0.0054072798 1.1322038e-38 336 244
0.023040552 0.773 -0.0054213065 1.3257787e-38 337 244
-0.050601196 0.77999997 -0.0068379994 1.3460562e-38 283 245
-0.04885488 0.77399999 -0.0067853997 1.2247231e-38 284 245
-0.047497798 0.77399999 -0.0067853997 1.1601861e-38 285 245
-0.046081103 0.773 -0.0067766332 1.325236e-38 286 245
-0.044725779 0.773 -0.0067766332 1.2791382e-38 287 245
-0.043258239 0.77100003 -0.0067590997 1.2514426e-38 288 245
-0.041797712 0.76899999 -0.0067415666 1.2330034e-38 289 245
-0.040344197 0.76700002 -0.006724033 1.1870855e-38 290 245
-0.038948543 0.76599997 -0.0067152665 1.1686463e-38 291 245
-0.037605491 0.76599997 -0.0067152665 1.1686113e-38 292 245
-0.036167759 0.764 -0.006697733 1.1686113e-38 293 245
-0.034828212 0.764 -0.006697733 1.1685757e-38 294 245
-0.033401001 0.76200002 -0.0066801999 1.1593562e-38 295 245
-0.032022879 0.76099998 -0.0066714329 1.1868704e-38 296 245
-0.030688593 0.76099998 -0.0066714329 1.1776507e-38 297 245
-0.029354304 0.76099998 -0.0066714329 1.1591762e-38 298 245
-0.028020019 0.76099998 -0.0066714329 1.1407731e-38 299 245
-0.026685731 0.76099998 -0.0066714329 1.122335e-38 300 245
-0.025284819 0.759 -0.0066538998 1.0947123e-38 301 245
-0.023954039 0.759 -0.0066538998 1.1222987e-38 302 245
-0.022682872 0.76099998 -0.0066714329 1.1407378e-38 303 245
-0.021348584 0.76099998 -0.0066714329 1.1407731e-38 304 245
-0.020014299 0.76099998 -0.0066714329 1.1407731e-38 305 245
-0.018680012 0.76099998 -0.0066714329 1.1224782e-38 306 245
-0.017300138 0.759 -0.0066538998 1.1132586e-38 307 245
-0.015969358 0.759 -0.0066538998 1.122335e-38 308 245
-0.014638579 0.759 -0.0066538998 1.122335e-38 309 245
-0.013272733 0.75700003 -0.0066363667 1.0855999e-38 310 245
-0.01194546 0.75700003 -0.0066363667 1.0948195e-38 311 245
-0.010618187 0.75700003 -0.0066363667 1.1041094e-38 312 245
-0.0092909131 0.75700003 -0.0066363667 1.1225485e-38 313 245
-0.0079636406 0.75700003 -0.0066363667 1.1592466e-38 314 245
-0.0066188332 0.755 -0.0066188332 1.1408435e-38 315 245
-0.0052950666 0.755 -0.0066188332 1.1774358e-38 316 245
-0.0039818203 0.75700003 -0.0066363667 1.1866554e-38 317 245
-0.0026545466 0.75700003 -0.0066363667 1.1866201e-38 318 245
-0.00133078 0.759 -0.0066538998 1.2050952e-38 319 245
0 0.759 -0.0066538998 1.2051299e-38 320 245
0.0013342865 0.76099998 -0.0066714329 1.1959103e-38 321 245
0.0026685731 0.76099998 -0.0066714329 1.2234601e-38 322 245
0.0040028598 0.76099998 -0.0066714329 1.2326797e-38 323 245
0.0053371461 0.76099998 -0.0066714329 1.2234245e-38 324 245
0.0066714329 0.76099998 -0.0066714329 1.2049854e-38 325 245
0.0080057196 0.76099998 -0.0066714329 1.1683589e-38 326 245
0.0093522798 0.76200002 -0.0066801999 1.1591394e-38 327 245
0.01068832 0.76200002 -0.0066801999 1.1315883e-38 328 245
0.01202436 0.76200002 -0.0066801999 1.1315883e-38 329 245
0.0133604 0.76200002 -0.0066801999 1.1040741e-38 330 245
0.014735013 0.764 -0.006697733 1.1132937e-38 331 245
0.016074561 0.764 -0.006697733 1.1133308e-38 332 245
0.017459691 0.76599997 -0.0067152665 1.1225504e-38 333 245
0.018827293 0.76700002 -0.006724033 1.1136199e-38 334 245
0.020172099 0.76700002 -0.006724033 1.1412786e-38 335 245
0.021629119 0.77100003 -0.0067590997 1.1229486e-38 336 245
0.023040552 0.773 -0.0067766332 1.3626933e-38 337 245
-0.050601196 0.77999997 -0.0082055992 1.3276894e-38 283 246
-0.04885488 0.77399999 -0.0081424797 1.2246878e-38 284 246
-0.047497798 0.77399999 -0.0081424797 1.1601508e-38 285 246
-0.046081103 0.773 -0.0081319595 1.2883583e-38 286 246
-0.044725779 0.773 -0.0081319595 1.2698833e-38 287 246
-0.043258239 0.77100003 -0.0081109209 1.2238564e-38 288 246
-0.041797712 0.76899999 -0.0080898795 1.2054173e-38 289 246
-0.040344197 0.76700002 -0.00806884 1.1776507e-38 290 246
-0.038999394 0.76700002 -0.00806884 1.1592115e-38 291 246
-0.037605491 0.76599997 -0.0080583189 1.1683239e-38 292 246
-0.036262438 0.76599997 -0.0080583189 1.1406652e-38 293 246
-0.034828212 0.764 -0.0080372803 1.1498848e-38 294 246
-0.033401001 0.76200002 -0.0080162399 1.1591043e-38 295 246
-0.032022879 0.76099998 -0.0080057196 1.1591397e-38 296 246
-0.030688593 0.76099998 -0.0080057196 1.1499201e-38 297 246
-0.029354304 0.76099998 -0.0080057196 1.1406652e-38 298 246
-0.028020019 0.76099998 -0.0080057196 1.1130065e-38 299 246
-0.026685731 0.76099998 -0.0080057196 1.0854923e-38 300 246
-0.025284819 0.759 -0.0079846792 1.0854923e-38 301 246
-0.023954039 0.759 -0.0079846792 1.1038591e-38 302 246
-0.022682872 0.76099998 -0.0080057196 1.1222984e-38 303 246
-0.021348584 0.76099998 -0.0080057196 1.122334e-38 304 246
-0.020014299 0.76099998 -0.0080057196 1.1407731e-38 305 246
-0.01863092 0.759 -0.0079846792 1.1132942e-38 306 246
-0.017300138 0.759 -0.0079846792 1.1040388e-38 307 246
-0.015969358 0.759 -0.0079846792 1.0948911e-38 308 246
-0.014638579 0.759 -0.0079846792 1.076488e-38 309 246
-0.0133078 0.759 -0.0079846792 1.0856348e-38 310 246
-0.01194546 0.75700003 -0.0079636406 1.0764153e-38 311 246
-0.010618187 0.75700003 -0.0079636406 1.1315159e-38 312 246
-0.0092909131 0.75700003 -0.0079636406 1.1407356e-38 313 246
-0.0079636406 0.75700003 -0.0079636406 1.1408432e-38 314 246
-0.0066363667 0.75700003 -0.0079636406 1.1131844e-38 315 246
-0.0053090933 0.75700003 -0.0079636406 1.1497402e-38 316 246
-0.0039818203 0.75700003 -0.0079636406 1.1589597e-38 317 246
-0.00266156 0.759 -0.0079846792 1.1681794e-38 318 246
-0.00133078 0.759 -0.0079846792 1.177399e-38 319 246
0 0.759 -0.0079846792 1.2049488e-38 320 246
0.0013342865 0.76099998 -0.0080057196 1.2325715e-38 321 246
0.0026685731 0.76099998 -0.0080057196 1.2142403e-38 322 246
0.0040028598 0.76099998 -0.0080057196 1.2234598e-38 323 246
0.0053371461 0.76099998 -0.0080057196 1.1866536e-38 324 246
0.0066714329 0.76099998 -0.0080057196 1.1866536e-38 325 246
0.0080057196 0.76099998 -0.0080057196 1.1499548e-38 326 246
0.0093522798 0.76200002 -0.0080162399 1.1499548e-38 327 246
0.01068832 0.76200002 -0.0080162399 1.1316592e-38 328 246
0.01202436 0.76200002 -0.0080162399 1.1224038e-38 329 246
0.013395466 0.764 -0.0080372803 1.1132208e-38 330 246
0.014735013 0.764 -0.0080372803 1.1132208e-38 331 246
0.016074561 0.764 -0.0080372803 1.1040388e-38 332 246
0.017482487 0.76700002 -0.00806884 1.1409169e-38 333 246
0.018827293 0.76700002 -0.00806884 1.1043277e-38 334 246
0.0202247 0.76899999 -0.0080898795 1.1412419e-38 335 246
0.021629119 0.77100003 -0.0081109209 1.113729e-38 336 246
0.02307036 0.77399999 -0.0081424797 1.4180105e-38 337 246
-0.050471451 0.778 -0.0095486529 1.3460562e-38 283 247
-0.048981119 0.77600002 -0.009524107 1.1604026e-38 284 247
-0.047436431 0.773 -0.0094872871 1.068243e-38 285 247
-0.046081103 0.773 -0.0094872871 1.2608442e-38 286 247
-0.044610061 0.77100003 -0.0094627403 1.1870876e-38 287 247
-0.043258239 0.77100003 -0.0094627403 1.1502092e-38 288 247
-0.041797712 0.76899999 -0.0094381925 1.1409896e-38 289 247
-0.040344197 0.76700002 -0.0094136465 1.1042542e-38 290 247
-0.038999394 0.76700002 -0.0094136465 1.085815e-38 291 247
-0.037605491 0.76599997 -0.0094013726 1.1040388e-38 292 247
-0.036262438 0.76599997 -0.0094013726 1.1040388e-38 293 247
-0.034828212 0.764 -0.0093768267 1.0673053e-38 294 247
-0.033401001 0.76200002 -0.0093522798 1.0673053e-38 295 247
-0.032022879 0.76099998 -0.0093400059 1.0672334e-38 296 247
-0.030688593 0.76099998 -0.0093400059 1.0580137e-38 297 247
-0.029354304 0.76099998 -0.0093400059 1.030427e-38 298 247
-0.028020019 0.76099998 -0.0093400059 1.030427e-38 299 247
-0.026685731 0.76099998 -0.0093400059 1.0028409e-38 300 247
-0.025284819 0.759 -0.00931546 1.0028409e-38 301 247
-0.023954039 0.759 -0.00931546 1.0029128e-38 302 247
-0.022682872 0.76099998 -0.0093400059 1.0213521e-38 303 247
-0.021348584 0.76099998 -0.0093400059 1.0031283e-38 304 247
-0.020014299 0.76099998 -0.0093400059 9.938729e-39 305 247
-0.01863092 0.759 -0.00931546 1.0031281e-38 306 247
-0.017300138 0.759 -0.00931546 1.0031281e-38 307 247
-0.015969358 0.759 -0.00931546 1.0214227e-38 308 247
-0.014638579 0.759 -0.00931546 1.0029834e-38 309 247
-0.0133078 0.759 -0.00931546 1.039574e-38 310 247
-0.01194546 0.75700003 -0.0092909131 1.039574e-38 311 247
-0.010618187 0.75700003 -0.0092909131 1.0304623e-38 312 247
-0.0092909131 0.75700003 -0.0092909131 1.0304623e-38 313 247
-0.0079636406 0.75700003 -0.0092909131 1.0670529e-38 314 247
-0.0066363667 0.75700003 -0.0092909131 1.0670529e-38 315 247
-0.0053090933 0.75700003 -0.0092909131 1.0579418e-38 316 247
-0.0039923396 0.759 -0.00931546 1.0579418e-38 317 247
-0.00266156 0.759 -0.00931546 1.0762728e-38 318 247
-0.0013342865 0.76099998 -0.0093400059 1.094712e-38 319 247
0 0.76099998 -0.0093400059 1.113114e-38 320 247
0.0013342865 0.76099998 -0.0093400059 1.1407728e-38 321 247
0.0026685731 0.76099998 -0.0093400059 1.1592113e-38 322 247
0.0040028598 0.76099998 -0.0093400059 1.1592113e-38 323 247
0.0053371461 0.76099998 -0.0093400059 1.1499554e-38 324 247
0.0066714329 0.76099998 -0.0093400059 1.1407e-38 325 247
0.0080057196 0.76099998 -0.0093400059 1.1224041e-38 326 247
0.0093522798 0.76200002 -0.0093522798 1.1316236e-38 327 247
0.01068832 0.76200002 -0.0093522798 1.1132561e-38 328 247
0.01202436 0.76200002 -0.0093522798 1.1132561e-38 329 247
0.013395466 0.764 -0.0093768267 1.0948178e-38 330 247
0.014735013 0.764 -0.0093768267 1.1132211e-38 331 247
0.016116638 0.76599997 -0.0094013726 1.0948558e-38 332 247
0.017528072 0.76899999 -0.0094381925 1.1225504e-38 333 247
0.018876385 0.76899999 -0.0094381925 1.0768858e-38 334 247
0.020277301 0.77100003 -0.0094627403 1.1137641e-38 335 247
0.021685226 0.773 -0.0094872871 1.1047618e-38 336 247
-0.050471451 0.778 -0.010912746 1.3920461e-38 283 248
-0.048981119 0.77600002 -0.010884693 1.1420714e-38 284 248
-0.047436431 0.773 -0.010842613 1.0222171e-38 285 248
-0.046081103 0.773 -0.010842613 1.1687928e-38 286 248
-0.044610061 0.77100003 -0.01081456 1.1134754e-38 287 248
-0.043258239 0.77100003 -0.01081456 1.1132236e-38 288 248
-0.041797712 0.76899999 -0.010786506 1.1132236e-38 289 248
-0.0404494 0.76899999 -0.010786506 1.0857797e-38 290 248
-0.038999394 0.76700002 -0.010758453 1.0857797e-38 291 248
-0.037605491 0.76599997 -0.010744425 1.0765952e-38 292 248
-0.036262438 0.76599997 -0.010744425 1.0581201e-38 293 248
-0.034828212 0.764 -0.010716373 1.0397895e-38 294 248
-0.033488665 0.764 -0.010716373 1.0213144e-38 295 248
-0.032022879 0.76099998 -0.010674292 1.0579415e-38 296 248
-0.030688593 0.76099998 -0.010674292 1.048722e-38 297 248
-0.029354304 0.76099998 -0.010674292 1.0119879e-38 298 248
-0.028020019 0.76099998 -0.010674292 1.0119879e-38 299 248
-0.026685731 0.76099998 -0.010674292 9.9362108e-39 300 248
-0.025284819 0.759 -0.01064624 9.9362108e-39 301 248
