# .PCD v.7 - Point Cloud Data file format
FIELDS x y z rgb imX imY
SIZE 4 4 4 4 4 4
TYPE F F F F F F
COUNT 1 1 1 1 1 1
WIDTH 836
HEIGHT 1
VIEWPOINT 0 0 0 1 0 0 0
POINTS 836
DATA ascii
-0.01064624 0.759 -0.00266156 1.3804057e-38 312 242
-0.00931546 0.759 -0.00266156 1.3711502e-38 313 242
-0.0079846792 0.759 -0.00266156 1.3803701e-38 314 242
-0.0066363667 0.75700003 -0.0026545466 1.3803701e-38 315 242
-0.0053090933 0.75700003 -0.0026545466 1.3804773e-38 316 242
-0.0039818203 0.75700003 -0.0026545466 1.3712577e-38 317 242
-0.0026545466 0.75700003 -0.0026545466 1.3895173e-38 318 242
-0.00133078 0.759 -0.00266156 1.3710782e-38 319 242
0 0.759 -0.00266156 1.3526394e-38 320 242
0.00133078 0.759 -0.00266156 1.3526394e-38 321 242
0.00266156 0.759 -0.00266156 1.3434198e-38 322 242
0.0039923396 0.759 -0.00266156 1.3434198e-38 323 242
0.0053231199 0.759 -0.00266156 1.3158334e-38 324 242
0.0066714329 0.76099998 -0.0026685731 1.3066138e-38 325 242
0.0080057196 0.76099998 -0.0026685731 1.3066138e-38 326 242
0.0093400059 0.76099998 -0.0026685731 1.3158334e-38 327 242
0.010674292 0.76099998 -0.0026685731 1.3066857e-38 328 242
0.012008579 0.76099998 -0.0026685731 1.3066857e-38 329 242
0.013342866 0.76099998 -0.0026685731 1.2882467e-38 330 242
0.014677152 0.76099998 -0.0026685731 1.2882467e-38 331 242
0.01603248 0.76200002 -0.00267208 1.2606601e-38 332 242
0.01736852 0.76200002 -0.00267208 1.2422211e-38 333 242
0.01870456 0.76200002 -0.00267208 1.2238188e-38 334 242
0.020093199 0.764 -0.0026790933 1.2238188e-38 335 242
0.021488851 0.76599997 -0.0026861064 1.1779012e-38 336 242
0.022861714 0.76700002 -0.0026896133 1.1871208e-38 337 242
0.024269639 0.76899999 -0.0026966266 1.1505668e-38 338 242
0.025617953 0.76899999 -0.0026966266 1.1874092e-38 339 242
0.027036399 0.77100003 -0.0027036399 1.1510001e-38 340 242
0.028388219 0.77100003 -0.0027036399 1.1417805e-38 341 242
0.029817186 0.773 -0.0027106532 1.2713254e-38 342 242
0.031212838 0.77399999 -0.0027141599 1.6032298e-38 343 242
0.032569919 0.77399999 -0.0027141599 1.6408671e-38 344 242
-0.043426558 0.77399999 -0.0040712398 1.6129897e-38 288 243
-0.042069476 0.77399999 -0.0040712398 1.1059137e-38 289 243
-0.040712398 0.77399999 -0.0040712398 1.307408e-38 290 243
-0.039355319 0.77399999 -0.0040712398 1.2521265e-38 291 243
-0.037998237 0.77399999 -0.0040712398 1.2519446e-38 292 243
-0.036593821 0.773 -0.0040659797 1.2150662e-38 293 243
-0.035238493 0.773 -0.0040659797 1.2883911e-38 294 243
-0.033795502 0.77100003 -0.0040554604 1.2607325e-38 295 243
-0.032359518 0.76899999 -0.0040449398 1.2882117e-38 296 243
-0.030930554 0.76700002 -0.00403442 1.3066148e-38 297 243
-0.029585747 0.76700002 -0.00403442 1.3157981e-38 298 243
-0.02824094 0.76700002 -0.00403442 1.3250177e-38 299 243
-0.026861066 0.76599997 -0.0040291594 1.3250533e-38 300 243
-0.025518013 0.76599997 -0.0040291594 1.3250533e-38 301 243
-0.02404872 0.76200002 -0.0040081199 1.325053e-38 302 243
-0.022682872 0.76099998 -0.0040028598 1.3526756e-38 303 243
-0.021348584 0.76099998 -0.0040028598 1.3618233e-38 304 243
-0.0200406 0.76200002 -0.0040081199 1.3710788e-38 305 243
-0.01870456 0.76200002 -0.0040081199 1.3618952e-38 306 243
-0.017345725 0.76099998 -0.0040028598 1.3526756e-38 307 243
-0.016011439 0.76099998 -0.0040028598 1.3618589e-38 308 243
-0.014677152 0.76099998 -0.0040028598 1.3710785e-38 309 243
-0.013342866 0.76099998 -0.0040028598 1.3711855e-38 310 243
-0.01197702 0.759 -0.0039923396 1.3804051e-38 311 243
-0.01064624 0.759 -0.0039923396 1.3528546e-38 312 243
-0.00931546 0.759 -0.0039923396 1.343599e-38 313 243
-0.0079846792 0.759 -0.0039923396 1.3711502e-38 314 243
-0.0066363667 0.75700003 -0.0039818203 1.3711502e-38 315 243
-0.0053090933 0.75700003 -0.0039818203 1.3712574e-38 316 243
-0.0039818203 0.75700003 -0.0039818203 1.3436346e-38 317 243
-0.00266156 0.759 -0.0039923396 1.3526388e-38 318 243
-0.00133078 0.759 -0.0039923396 1.3434192e-38 319 243
0 0.759 -0.0039923396 1.3434198e-38 320 243
0.00133078 0.759 -0.0039923396 1.3341644e-38 321 243
0.00266156 0.759 -0.0039923396 1.3340925e-38 322 243
0.0039923396 0.759 -0.0039923396 1.3248728e-38 323 243
0.0053371461 0.76099998 -0.0040028598 1.3065418e-38 324 243
0.0066714329 0.76099998 -0.0040028598 1.3065418e-38 325 243
0.0080057196 0.76099998 -0.0040028598 1.2973939e-38 326 243
0.0093400059 0.76099998 -0.0040028598 1.2973939e-38 327 243
0.010674292 0.76099998 -0.0040028598 1.2790626e-38 328 243
0.012008579 0.76099998 -0.0040028598 1.2698072e-38 329 243
0.013342866 0.76099998 -0.0040028598 1.2881743e-38 330 243
0.014677152 0.76099998 -0.0040028598 1.2789189e-38 331 243
0.01603248 0.76200002 -0.0040081199 1.2513684e-38 332 243
0.01736852 0.76200002 -0.0040081199 1.2421488e-38 333 243
0.018753653 0.764 -0.0040186401 1.2054152e-38 334 243
0.020093199 0.764 -0.0040186401 1.1961956e-38 335 243
0.021488851 0.76599997 -0.0040291594 1.1686817e-38 336 243
0.022921326 0.76899999 -0.0040449398 1.1779012e-38 337 243
0.024269639 0.76899999 -0.0040449398 1.1413116e-38 338 243
0.02568458 0.77100003 -0.0040554604 1.1874095e-38 339 243
0.027036399 0.77100003 -0.0040554604 1.1510001e-38 340 243
0.028461859 0.773 -0.0040659797 1.1325608e-38 341 243
0.029817186 0.773 -0.0040659797 1.2896563e-38 342 243
0.031212838 0.77399999 -0.0040712398 1.6584388e-38 343 243
0.032569919 0.77399999 -0.0040712398 1.6500148e-38 344 243
-0.043370452 0.773 -0.0054213065 1.6774547e-38 288 244
-0.042015124 0.773 -0.0054213065 1.1519396e-38 289 244
-0.040712398 0.77399999 -0.0054283198 1.2798572e-38 290 244
-0.039355319 0.77399999 -0.0054283198 1.2521985e-38 291 244
-0.037998237 0.77399999 -0.0054283198 1.2520167e-38 292 244
-0.036593821 0.773 -0.0054213065 1.1874798e-38 293 244
-0.035238493 0.773 -0.0054213065 1.2699527e-38 294 244
-0.033795502 0.77100003 -0.0054072798 1.2514777e-38 295 244
-0.032359518 0.76899999 -0.0053932532 1.2789924e-38 296 244
-0.030930554 0.76700002 -0.0053792265 1.2789924e-38 297 244
-0.029585747 0.76700002 -0.0053792265 1.2973588e-38 298 244
-0.02824094 0.76700002 -0.0053792265 1.2973588e-38 299 244
-0.026861066 0.76599997 -0.0053722127 1.2973583e-38 300 244
-0.025518013 0.76599997 -0.0053722127 1.2973583e-38 301 244
-0.024111839 0.764 -0.0053581866 1.3249448e-38 302 244
-0.02271268 0.76200002 -0.0053441599 1.3434198e-38 303 244
-0.02137664 0.76200002 -0.0053441599 1.3434192e-38 304 244
-0.0200406 0.76200002 -0.0053441599 1.3526388e-38 305 244
-0.01870456 0.76200002 -0.0053441599 1.3526391e-38 306 244
-0.01736852 0.76200002 -0.0053441599 1.3526391e-38 307 244
-0.016011439 0.76099998 -0.0053371461 1.3526391e-38 308 244
-0.014677152 0.76099998 -0.0053371461 1.3526391e-38 309 244
-0.013342866 0.76099998 -0.0053371461 1.3619661e-38 310 244
-0.01197702 0.759 -0.0053231199 1.3527107e-38 311 244
-0.01064624 0.759 -0.0053231199 1.3436346e-38 312 244
-0.00931546 0.759 -0.0053231199 1.334415e-38 313 244
-0.0079846792 0.759 -0.0053231199 1.3343795e-38 314 244
-0.0066363667 0.75700003 -0.0053090933 1.3343795e-38 315 244
-0.0053090933 0.75700003 -0.0053090933 1.3434914e-38 316 244
-0.0039923396 0.759 -0.0053231199 1.3250883e-38 317 244
-0.0026685731 0.76099998 -0.0053371461 1.3524596e-38 318 244
-0.0013342865 0.76099998 -0.0053371461 1.3524596e-38 319 244
0 0.76099998 -0.0053371461 1.3249804e-38 320 244
0.0013342865 0.76099998 -0.0053371461 1.3249804e-38 321 244
0.0026685731 0.76099998 -0.0053371461 1.2973217e-38 322 244
0.0040028598 0.76099998 -0.0053371461 1.2973217e-38 323 244
0.0053371461 0.76099998 -0.0053371461 1.2881387e-38 324 244
0.0066714329 0.76099998 -0.0053371461 1.2881387e-38 325 244
0.0080057196 0.76099998 -0.0053371461 1.2606232e-38 326 244
0.0093400059 0.76099998 -0.0053371461 1.2606232e-38 327 244
0.010674292 0.76099998 -0.0053371461 1.2606232e-38 328 244
0.012008579 0.76099998 -0.0053371461 1.2514037e-38 329 244
0.013342866 0.76099998 -0.0053371461 1.2512609e-38 330 244
0.014677152 0.76099998 -0.0053371461 1.2512609e-38 331 244
0.01603248 0.76200002 -0.0053441599 1.2145624e-38 332 244
0.01736852 0.76200002 -0.0053441599 1.2053427e-38 333 244
0.018753653 0.764 -0.0053581866 1.1869763e-38 334 244
0.020093199 0.764 -0.0053581866 1.1869763e-38 335 244
0.021488851 0.76599997 -0.0053722127 1.1594621e-38 336 244
0.022921326 0.76899999 -0.0053932532 1.1686817e-38 337 244
0.024269639 0.76899999 -0.0053932532 1.1321642e-38 338 244
0.02568458 0.77100003 -0.0054072798 1.1598231e-38 339 244
0.027106533 0.773 -0.0054213065 1.123414e-38 340 244
0.028461859 0.773 -0.0054213065 1.1326335e-38 341 244
0.029855758 0.77399999 -0.0054283198 1.2989485e-38 342 244
0.031212838 0.77399999 -0.0054283198 1.667767e-38 343 244
0.032569919 0.77399999 -0.0054283198 1.6040966e-38 344 244
-0.043370452 0.773 -0.0067766332 1.7145496e-38 288 245
-0.042015124 0.773 -0.0067766332 1.1890345e-38 289 245
-0.040712398 0.77399999 -0.0067853997 1.2889341e-38 290 245
-0.039355319 0.77399999 -0.0067853997 1.2612755e-38 291 245
-0.037998237 0.77399999 -0.0067853997 1.2519095e-38 292 245
-0.036593821 0.773 -0.0067766332 1.2242507e-38 293 245
-0.035238493 0.773 -0.0067766332 1.2515851e-38 294 245
-0.033795502 0.77100003 -0.0067590997 1.2423656e-38 295 245
-0.032443684 0.77100003 -0.0067590997 1.2515133e-38 296 245
-0.031011207 0.76899999 -0.0067415666 1.2422935e-38 297 245
-0.029585747 0.76700002 -0.006724033 1.2606601e-38 298 245
-0.02824094 0.76700002 -0.006724033 1.2606601e-38 299 245
-0.026896132 0.76700002 -0.006724033 1.2881387e-38 300 245
-0.025518013 0.76599997 -0.0067152665 1.2973583e-38 301 245
-0.024111839 0.764 -0.006697733 1.2791347e-38 302 245
-0.022772292 0.764 -0.006697733 1.2975738e-38 303 245
-0.02137664 0.76200002 -0.0066801999 1.3067208e-38 304 245
-0.0200406 0.76200002 -0.0066801999 1.3159403e-38 305 245
-0.01870456 0.76200002 -0.0066801999 1.3158334e-38 306 245
-0.01736852 0.76200002 -0.0066801999 1.325053e-38 307 245
-0.016011439 0.76099998 -0.0066714329 1.3158697e-38 308 245
-0.014677152 0.76099998 -0.0066714329 1.3158697e-38 309 245
-0.013342866 0.76099998 -0.0066714329 1.3067934e-38 310 245
-0.01197702 0.759 -0.0066538998 1.3067934e-38 311 245
-0.01064624 0.759 -0.0066538998 1.3067931e-38 312 245
-0.00931546 0.759 -0.0066538998 1.3067931e-38 313 245
-0.0079846792 0.759 -0.0066538998 1.2884261e-38 314 245
-0.0066538998 0.759 -0.0066538998 1.2884261e-38 315 245
-0.0053231199 0.759 -0.0066538998 1.3158334e-38 316 245
-0.0039923396 0.759 -0.0066538998 1.3066138e-38 317 245
-0.0026685731 0.76099998 -0.0066714329 1.3249451e-38 318 245
-0.0013342865 0.76099998 -0.0066714329 1.3249451e-38 319 245
0 0.76099998 -0.0066714329 1.3066133e-38 320 245
0.0013342865 0.76099998 -0.0066714329 1.2973936e-38 321 245
0.0026685731 0.76099998 -0.0066714329 1.2973936e-38 322 245
0.0040028598 0.76099998 -0.0066714329 1.2973936e-38 323 245
0.0053371461 0.76099998 -0.0066714329 1.2698075e-38 324 245
0.0066714329 0.76099998 -0.0066714329 1.2605879e-38 325 245
0.0080057196 0.76099998 -0.0066714329 1.2513684e-38 326 245
0.0093400059 0.76099998 -0.0066714329 1.2513684e-38 327 245
0.010674292 0.76099998 -0.0066714329 1.2237101e-38 328 245
0.012008579 0.76099998 -0.0066714329 1.2237101e-38 329 245
0.013342866 0.76099998 -0.0066714329 1.2236748e-38 330 245
0.01469644 0.76200002 -0.0066801999 1.2236748e-38 331 245
0.01603248 0.76200002 -0.0066801999 1.1869763e-38 332 245
0.017414106 0.764 -0.006697733 1.1869763e-38 333 245
0.018753653 0.764 -0.006697733 1.1594618e-38 334 245
0.020145798 0.76599997 -0.0067152665 1.1594618e-38 335 245
0.021516906 0.76700002 -0.006724033 1.131912e-38 336 245
0.022921326 0.76899999 -0.0067415666 1.1411674e-38 337 245
0.024269639 0.76899999 -0.0067415666 1.1046129e-38 338 245
0.025751207 0.773 -0.0067766332 1.1599303e-38 339 245
0.027106533 0.773 -0.0067766332 1.1234856e-38 340 245
0.028461859 0.773 -0.0067766332 1.178803e-38 341 245
0.029855758 0.77399999 -0.0067853997 1.3174242e-38 342 245
0.031212838 0.77399999 -0.0067853997 1.6862427e-38 343 245
-0.043626439 0.75400001 -0.00793208 1.8255476e-38 287 246
-0.042304426 0.75400001 -0.00793208 1.7514649e-38 288 246
-0.042015124 0.773 -0.0081319595 1.3089259e-38 289 246
-0.040712398 0.77399999 -0.0081424797 1.2523448e-38 290 246
-0.039355319 0.77399999 -0.0081424797 1.1878078e-38 291 246
-0.037998237 0.77399999 -0.0081424797 1.2429429e-38 292 246
-0.036641158 0.77399999 -0.0081424797 1.1600029e-38 293 246
-0.035238493 0.773 -0.0081319595 1.2241432e-38 294 246
-0.033883166 0.773 -0.0081319595 1.2057041e-38 295 246
-0.032527838 0.773 -0.0081319595 1.2515495e-38 296 246
-0.031011207 0.76899999 -0.0080898795 1.24233e-38 297 246
-0.02966289 0.76899999 -0.0080898795 1.2606245e-38 298 246
-0.028314579 0.76899999 -0.0080898795 1.2606245e-38 299 246
-0.026896132 0.76700002 -0.00806884 1.2605879e-38 300 246
-0.025551327 0.76700002 -0.00806884 1.2605879e-38 301 246
-0.024174958 0.76599997 -0.0080583189 1.2790624e-38 302 246
-0.022772292 0.764 -0.0080372803 1.2882821e-38 303 246
-0.021432746 0.764 -0.0080372803 1.2973936e-38 304 246
-0.020093199 0.764 -0.0080372803 1.288174e-38 305 246
-0.01870456 0.76200002 -0.0080162399 1.297322e-38 306 246
-0.01736852 0.76200002 -0.0080162399 1.3065415e-38 307 246
-0.016011439 0.76099998 -0.0080057196 1.2972864e-38 308 246
-0.014677152 0.76099998 -0.0080057196 1.3065418e-38 309 246
-0.013342866 0.76099998 -0.0080057196 1.3066136e-38 310 246
-0.012008579 0.76099998 -0.0080057196 1.3066136e-38 311 246
-0.010674292 0.76099998 -0.0080057196 1.2882821e-38 312 246
-0.00931546 0.759 -0.0079846792 1.2882821e-38 313 246
-0.0079846792 0.759 -0.0079846792 1.2791347e-38 314 246
-0.0066538998 0.759 -0.0079846792 1.2791347e-38 315 246
-0.0053371461 0.76099998 -0.0080057196 1.3065783e-38 316 246
-0.0040028598 0.76099998 -0.0080057196 1.288139e-38 317 246
-0.0026685731 0.76099998 -0.0080057196 1.297322e-38 318 246
-0.0013342865 0.76099998 -0.0080057196 1.3249448e-38 319 246
0 0.76099998 -0.0080057196 1.2974286e-38 320 246
0.0013342865 0.76099998 -0.0080057196 1.2882091e-38 321 246
0.0026685731 0.76099998 -0.0080057196 1.2698781e-38 322 246
0.0040028598 0.76099998 -0.0080057196 1.2698781e-38 323 246
0.0053371461 0.76099998 -0.0080057196 1.2789191e-38 324 246
0.0066714329 0.76099998 -0.0080057196 1.260516e-38 325 246
0.0080057196 0.76099998 -0.0080057196 1.2237104e-38 326 246
0.0093400059 0.76099998 -0.0080057196 1.2237104e-38 327 246
0.010674292 0.76099998 -0.0080057196 1.2144904e-38 328 246
0.012008579 0.76099998 -0.0080057196 1.2144904e-38 329 246
0.013342866 0.76099998 -0.0080057196 1.1962309e-38 330 246
0.01469644 0.76200002 -0.0080162399 1.1870112e-38 331 246
0.016074561 0.764 -0.0080372803 1.1870112e-38 332 246
0.017414106 0.764 -0.0080372803 1.1777916e-38 333 246
0.018802745 0.76599997 -0.0080583189 1.1502418e-38 334 246
0.020145798 0.76599997 -0.0080583189 1.1594615e-38 335 246
0.021516906 0.76700002 -0.00806884 1.1319476e-38 336 246
0.022921326 0.76899999 -0.0080898795 1.1411672e-38 337 246
0.02433276 0.77100003 -0.0081109209 1.1139049e-38 338 246
0.025751207 0.773 -0.0081319595 1.1415637e-38 339 246
0.027106533 0.773 -0.0081319595 1.1327423e-38 340 246
0.028498679 0.77399999 -0.0081424797 1.224938e-38 341 246
0.029855758 0.77399999 -0.0081424797 1.3545549e-38 342 246
-0.043626439 0.75400001 -0.0092540924 1.8162562e-38 287 247
-0.042304426 0.75400001 -0.0092540924 1.7239504e-38 288 247
-0.042069476 0.77399999 -0.0094995592 1.373643e-38 289 247
-0.040712398 0.77399999 -0.0094995592 1.3169544e-38 290 247
-0.039355319 0.77399999 -0.0094995592 1.178661e-38 291 247
-0.037998237 0.77399999 -0.0094995592 1.270493e-38 292 247
-0.036641158 0.77399999 -0.0094995592 1.2151758e-38 293 247
-0.03528408 0.77399999 -0.0094995592 1.2425098e-38 294 247
-0.033883166 0.773 -0.0094872871 1.2148871e-38 295 247
-0.032527838 0.773 -0.0094872871 1.2239634e-38 296 247
-0.031091858 0.77100003 -0.0094627403 1.2147437e-38 297 247
-0.02966289 0.76899999 -0.0094381925 1.2330031e-38 298 247
-0.028314579 0.76899999 -0.0094381925 1.2237835e-38 299 247
-0.026896132 0.76700002 -0.0094136465 1.2237832e-38 300 247
-0.025551327 0.76700002 -0.0094136465 1.2330387e-38 301 247
-0.024174958 0.76599997 -0.0094013726 1.2422217e-38 302 247
-0.022772292 0.764 -0.0093768267 1.2698445e-38 303 247
-0.021432746 0.764 -0.0093768267 1.2422935e-38 304 247
-0.020093199 0.764 -0.0093768267 1.2422935e-38 305 247
-0.018753653 0.764 -0.0093768267 1.2421861e-38 306 247
-0.01736852 0.76200002 -0.0093522798 1.2421861e-38 307 247
-0.016011439 0.76099998 -0.0093400059 1.2421508e-38 308 247
-0.014677152 0.76099998 -0.0093400059 1.2421508e-38 309 247
-0.013342866 0.76099998 -0.0093400059 1.242258e-38 310 247
-0.012008579 0.76099998 -0.0093400059 1.2514777e-38 311 247
-0.010674292 0.76099998 -0.0093400059 1.2698445e-38 312 247
-0.0093400059 0.76099998 -0.0093400059 1.2698445e-38 313 247
-0.0080057196 0.76099998 -0.0093400059 1.279064e-38 314 247
-0.0066714329 0.76099998 -0.0093400059 1.2698445e-38 315 247
-0.0053371461 0.76099998 -0.0093400059 1.2697725e-38 316 247
-0.0040028598 0.76099998 -0.0093400059 1.2789922e-38 317 247
-0.0026685731 0.76099998 -0.0093400059 1.2422935e-38 318 247
-0.00133604 0.76200002 -0.0093522798 1.2422935e-38 319 247
0 0.76099998 -0.0093400059 1.2423286e-38 320 247
0.0013342865 0.76099998 -0.0093400059 1.2423286e-38 321 247
0.0026685731 0.76099998 -0.0093400059 1.2422211e-38 322 247
0.0040028598 0.76099998 -0.0093400059 1.2422211e-38 323 247
0.0053371461 0.76099998 -0.0093400059 1.2054154e-38 324 247
0.0066714329 0.76099998 -0.0093400059 1.1961959e-38 325 247
0.0080057196 0.76099998 -0.0093400059 1.2145268e-38 326 247
0.0093400059 0.76099998 -0.0093400059 1.2145268e-38 327 247
0.010674292 0.76099998 -0.0093400059 1.1869756e-38 328 247
0.012008579 0.76099998 -0.0093400059 1.1869756e-38 329 247
0.0133604 0.76200002 -0.0093522798 1.1778635e-38 330 247
0.01469644 0.76200002 -0.0093522798 1.1778635e-38 331 247
0.016074561 0.764 -0.0093768267 1.1502774e-38 332 247
0.017414106 0.764 -0.0093768267 1.1502774e-38 333 247
0.018802745 0.76599997 -0.0094013726 1.1227279e-38 334 247
0.020172099 0.76700002 -0.0094136465 1.1227279e-38 335 247
0.021573013 0.76899999 -0.0094381925 1.1043981e-38 336 247
0.022921326 0.76899999 -0.0094381925 1.1320568e-38 337 247
0.02433276 0.77100003 -0.0094627403 1.09554e-38 338 247
0.025751207 0.773 -0.0094872871 1.160077e-38 339 247
0.027141599 0.77399999 -0.0094995592 1.1510395e-38 340 247
0.028498679 0.77399999 -0.0094995592 1.3354307e-38 341 247
0.029855758 0.77399999 -0.0094995592 1.3548791e-38 342 247
-0.043626439 0.75400001 -0.010576107 1.7702304e-38 287 248
-0.042304426 0.75400001 -0.010576107 1.6963643e-38 288 248
-0.040982414 0.75400001 -0.010576107 1.4474361e-38 289 248
-0.039660402 0.75400001 -0.010576107 1.3540844e-38 290 248
-0.039355319 0.77399999 -0.01085664 1.1512181e-38 291 248
-0.037998237 0.77399999 -0.01085664 1.2339033e-38 292 248
-0.036641158 0.77399999 -0.01085664 1.1878413e-38 293 248
-0.03528408 0.77399999 -0.01085664 1.2335073e-38 294 248
-0.033927001 0.77399999 -0.01085664 1.1874095e-38 295 248
-0.032527838 0.773 -0.010842613 1.2056325e-38 296 248
-0.031091858 0.77100003 -0.01081456 1.1963769e-38 297 248
-0.02966289 0.76899999 -0.010786506 1.2330034e-38 298 248
-0.028314579 0.76899999 -0.010786506 1.2237838e-38 299 248
-0.026896132 0.76700002 -0.010758453 1.2329312e-38 300 248
-0.025551327 0.76700002 -0.010758453 1.2329312e-38 301 248
-0.024174958 0.76599997 -0.010744425 1.2329665e-38 302 248
-0.022831906 0.76599997 -0.010744425 1.2329665e-38 303 248
-0.021432746 0.764 -0.010716373 1.251333e-38 304 248
-0.020093199 0.764 -0.010716373 1.251333e-38 305 248
-0.018753653 0.764 -0.010716373 1.2329665e-38 306 248
-0.01736852 0.76200002 -0.01068832 1.2237469e-38 307 248
-0.016011439 0.76099998 -0.010674292 1.2420784e-38 308 248
-0.014677152 0.76099998 -0.010674292 1.2236395e-38 309 248
-0.013342866 0.76099998 -0.010674292 1.2329665e-38 310 248
-0.012008579 0.76099998 -0.010674292 1.2329665e-38 311 248
-0.010674292 0.76099998 -0.010674292 1.2422217e-38 312 248
-0.0093400059 0.76099998 -0.010674292 1.2422217e-38 313 248
-0.0080057196 0.76099998 -0.010674292 1.2698445e-38 314 248
-0.0066714329 0.76099998 -0.010674292 1.2606248e-38 315 248
-0.0053371461 0.76099998 -0.010674292 1.2697722e-38 316 248
-0.0040028598 0.76099998 -0.010674292 1.251333e-38 317 248
-0.00267208 0.76200002 -0.01068832 1.2330015e-38 318 248
-0.00133604 0.76200002 -0.01068832 1.2330015e-38 319 248
0 0.76200002 -0.01068832 1.2330015e-38 320 248
0.00133604 0.76200002 -0.01068832 1.2330015e-38 321 248
0.00267208 0.76200002 -0.01068832 1.2421135e-38 322 248
0.0040028598 0.76099998 -0.010674292 1.2237104e-38 323 248
0.0053371461 0.76099998 -0.010674292 1.2053078e-38 324 248
0.0066714329 0.76099998 -0.010674292 1.1960522e-38 325 248
0.0080057196 0.76099998 -0.010674292 1.1960876e-38 326 248
0.0093522798 0.76200002 -0.01068832 1.1776844e-38 327 248
0.01068832 0.76200002 -0.01068832 1.1777916e-38 328 248
0.01202436 0.76200002 -0.01068832 1.1777916e-38 329 248
0.0133604 0.76200002 -0.01068832 1.1594248e-38 330 248
0.014735013 0.764 -0.010716373 1.1502053e-38 331 248
0.016074561 0.764 -0.010716373 1.1409507e-38 332 248
0.017459691 0.76599997 -0.010744425 1.1409507e-38 333 248
0.018827293 0.76700002 -0.010758453 1.0950696e-38 334 248
0.020172099 0.76700002 -0.010758453 1.131912e-38 335 248
0.021573013 0.76899999 -0.010786506 1.0952864e-38 336 248
0.02298094 0.77100003 -0.01081456 1.1321286e-38 337 248
0.024395877 0.773 -0.010842613 1.1140145e-38 338 248
0.025784519 0.77399999 -0.01085664 1.1416733e-38 339 248
0.027141599 0.77399999 -0.01085664 1.1787702e-38 340 248
0.028572321 0.77600002 -0.010884693 1.3907841e-38 341 248
-0.043626439 0.75400001 -0.01189812 1.751611e-38 287 249
-0.042304426 0.75400001 -0.01189812 1.6963646e-38 288 249
-0.040982414 0.75400001 -0.01189812 1.5119733e-38 289 249
-0.039660402 0.75400001 -0.01189812 1.400399e-38 290 249
-0.039355319 0.77399999 -0.01221372 1.1699099e-38 291 249
-0.037998237 0.77399999 -0.01221372 1.2889688e-38 292 249
-0.036641158 0.77399999 -0.01221372 1.2521265e-38 293 249
-0.03528408 0.77399999 -0.01221372 1.224395e-38 294 249
-0.033927001 0.77399999 -0.01221372 1.1783331e-38 295 249
-0.032527838 0.773 -0.012197939 1.233183e-38 296 249
-0.031091858 0.77100003 -0.01216638 1.2055242e-38 297 249
-0.02966289 0.76899999 -0.012134819 1.205417e-38 298 249
-0.028314579 0.76899999 -0.012134819 1.205417e-38 299 249
-0.026896132 0.76700002 -0.01210326 1.2236763e-38 300 249
-0.025551327 0.76700002 -0.01210326 1.2236763e-38 301 249
-0.024174958 0.76599997 -0.012087479 1.2237832e-38 302 249
-0.022831906 0.76599997 -0.012087479 1.2237832e-38 303 249
-0.021432746 0.764 -0.01205592 1.2145274e-38 304 249
-0.020093199 0.764 -0.01205592 1.2145274e-38 305 249
-0.018753653 0.764 -0.01205592 1.2144921e-38 306 249
-0.01736852 0.76200002 -0.01202436 1.2144921e-38 307 249
-0.016011439 0.76099998 -0.012008579 1.2052369e-38 308 249
-0.014677152 0.76099998 -0.012008579 1.2052369e-38 309 249
-0.013342866 0.76099998 -0.012008579 1.1961252e-38 310 249
-0.012008579 0.76099998 -0.012008579 1.1961252e-38 311 249
-0.010674292 0.76099998 -0.012008579 1.2237116e-38 312 249
-0.0093400059 0.76099998 -0.012008579 1.2329312e-38 313 249
-0.0080057196 0.76099998 -0.012008579 1.2421861e-38 314 249
-0.0066714329 0.76099998 -0.012008579 1.2329665e-38 315 249
-0.0053441599 0.76200002 -0.01202436 1.2329662e-38 316 249
-0.0040081199 0.76200002 -0.01202436 1.2237467e-38 317 249
-0.00267208 0.76200002 -0.01202436 1.2145268e-38 318 249
-0.00133604 0.76200002 -0.01202436 1.2145268e-38 319 249
0 0.76200002 -0.01202436 1.2145271e-38 320 249
0.00133604 0.76200002 -0.01202436 1.2145271e-38 321 249
0.00267208 0.76200002 -0.01202436 1.2053078e-38 322 249
0.0040028598 0.76099998 -0.012008579 1.2053078e-38 323 249
0.0053371461 0.76099998 -0.012008579 1.1685017e-38 324 249
0.0066714329 0.76099998 -0.012008579 1.1685017e-38 325 249
0.0080057196 0.76099998 -0.012008579 1.1684296e-38 326 249
0.0093522798 0.76200002 -0.01202436 1.1684296e-38 327 249
0.01068832 0.76200002 -0.01202436 1.1593172e-38 328 249
0.01202436 0.76200002 -0.01202436 1.1685368e-38 329 249
0.013395466 0.764 -0.01205592 1.1501702e-38 330 249
0.014735013 0.764 -0.01205592 1.1409507e-38 331 249
0.016116638 0.76599997 -0.012087479 1.1225841e-38 332 249
0.017459691 0.76599997 -0.012087479 1.1409872e-38 333 249
0.018827293 0.76700002 -0.01210326 1.1043614e-38 334 249
0.020172099 0.76700002 -0.01210326 1.1228006e-38 335 249
0.021573013 0.76899999 -0.012134819 1.1136902e-38 336 249
0.02298094 0.77100003 -0.01216638 1.159788e-38 337 249
0.024395877 0.773 -0.012197939 1.1141594e-38 338 249
0.025784519 0.77399999 -0.01221372 1.1602212e-38 339 249
0.027211733 0.77600002 -0.01224528 1.1972822e-38 340 249
-0.043915741 0.759 -0.0133078 1.705621e-38 287 250
-0.042584959 0.759 -0.0133078 1.6778898e-38 288 250
-0.041036766 0.755 -0.013237666 1.5580355e-38 289 250
-0.039712999 0.755 -0.013237666 1.4468936e-38 290 250
-0.038745161 0.76200002 -0.0133604 1.2440274e-38 291 250
-0.038096428 0.77600002 -0.013605867 1.2892585e-38 292 250
-0.036641158 0.77399999 -0.013570799 1.2247215e-38 293 250
-0.035238493 0.773 -0.013553266 1.2245754e-38 294 250
-0.033883166 0.773 -0.013553266 1.1784416e-38 295 250
-0.032527838 0.773 -0.013553266 1.2332905e-38 296 250
-0.03117251 0.773 -0.013553266 1.2056319e-38 297 250
-0.029740039 0.77100003 -0.013518199 1.2054886e-38 298 250
-0.028314579 0.76899999 -0.013483133 1.1870855e-38 299 250
-0.026966266 0.76899999 -0.013483133 1.205417e-38 300 250
-0.025551327 0.76700002 -0.013448066 1.1961974e-38 301 250
-0.024174958 0.76599997 -0.013430533 1.1962327e-38 302 250
-0.022831906 0.76599997 -0.013430533 1.1870132e-38 303 250
-0.021488851 0.76599997 -0.013430533 1.2144199e-38 304 250
-0.020145798 0.76599997 -0.013430533 1.2144199e-38 305 250
-0.018753653 0.764 -0.013395466 1.2144199e-38 306 250
-0.01736852 0.76200002 -0.0133604 1.2144199e-38 307 250
-0.01603248 0.76200002 -0.0133604 1.1960528e-38 308 250
-0.014677152 0.76099998 -0.013342866 1.1960528e-38 309 250
-0.013342866 0.76099998 -0.013342866 1.1960172e-38 310 250
-0.012008579 0.76099998 -0.013342866 1.1960172e-38 311 250
-0.010674292 0.76099998 -0.013342866 1.2144205e-38 312 250
-0.0093400059 0.76099998 -0.013342866 1.22364e-38 313 250
-0.0080057196 0.76099998 -0.013342866 1.1961608e-38 314 250
-0.0066714329 0.76099998 -0.013342866 1.1961608e-38 315 250
-0.0053441599 0.76200002 -0.0133604 1.186941e-38 316 250
-0.0040081199 0.76200002 -0.0133604 1.186941e-38 317 250
-0.00267208 0.76200002 -0.0133604 1.177793e-38 318 250
-0.00133604 0.76200002 -0.0133604 1.177793e-38 319 250
0 0.76200002 -0.0133604 1.177793e-38 320 250
0.00133604 0.76200002 -0.0133604 1.1593898e-38 321 250
0.00267208 0.76200002 -0.0133604 1.177721e-38 322 250
0.0040081199 0.76200002 -0.0133604 1.177721e-38 323 250
0.0053371461 0.76099998 -0.013342866 1.1501702e-38 324 250
0.0066714329 0.76099998 -0.013342866 1.1316952e-38 325 250
0.0080057196 0.76099998 -0.013342866 1.1409151e-38 326 250
0.0093522798 0.76200002 -0.0133604 1.1316955e-38 327 250
0.01068832 0.76200002 -0.0133604 1.1408788e-38 328 250
0.01202436 0.76200002 -0.0133604 1.1408788e-38 329 250
0.013395466 0.764 -0.013395466 1.1409507e-38 330 250
0.014735013 0.764 -0.013395466 1.1409507e-38 331 250
0.016116638 0.76599997 -0.013430533 1.122656e-38 332 250
0.017482487 0.76700002 -0.013448066 1.1318756e-38 333 250
0.018876385 0.76899999 -0.013483133 1.1228006e-38 334 250
0.0202247 0.76899999 -0.013483133 1.1504233e-38 335 250
0.021629119 0.77100003 -0.013518199 1.1322372e-38 336 250
0.02298094 0.77100003 -0.013518199 1.178299e-38 337 250
0.024395877 0.773 -0.013553266 1.1143389e-38 338 250
0.025784519 0.77399999 -0.013570799 1.1604367e-38 339 250
0.027211733 0.77600002 -0.013605867 1.1607279e-38 340 250
-0.044031456 0.76099998 -0.014677152 1.6504835e-38 287 251
-0.042697169 0.76099998 -0.014677152 1.6411193e-38 288 251
-0.041254178 0.759 -0.014638579 1.5397043e-38 289 251
-0.0399234 0.759 -0.014638579 1.4656214e-38 290 251
-0.038694311 0.76099998 -0.014677152 1.2996694e-38 291 251
-0.038096428 0.77600002 -0.014966453 1.271144e-38 292 251
-0.036735836 0.77600002 -0.014966453 1.2066071e-38 293 251
-0.035238493 0.773 -0.014908593 1.1972411e-38 294 251
-0.033883166 0.773 -0.014908593 1.1327042e-38 295 251
-0.032527838 0.773 -0.014908593 1.1782978e-38 296 251
-0.03117251 0.773 -0.014908593 1.1598587e-38 297 251
-0.029740039 0.77100003 -0.01487002 1.1963769e-38 298 251
-0.028314579 0.76899999 -0.014831445 1.1871574e-38 299 251
-0.026966266 0.76899999 -0.014831445 1.1596063e-38 300 251
-0.025551327 0.76700002 -0.014792874 1.1596063e-38 301 251
-0.024206521 0.76700002 -0.014792874 1.1961606e-38 302 251
-0.022831906 0.76599997 -0.014773586 1.1961606e-38 303 251
-0.021488851 0.76599997 -0.014773586 1.1960525e-38 304 251
-0.020145798 0.76599997 -0.014773586 1.2052722e-38 305 251
-0.018753653 0.764 -0.014735013 1.2052725e-38 306 251
-0.01736852 0.76200002 -0.01469644 1.1960528e-38 307 251
-0.01603248 0.76200002 -0.01469644 1.1960522e-38 308 251
-0.01469644 0.76200002 -0.01469644 1.1776491e-38 309 251
-0.0133604 0.76200002 -0.01469644 1.1685017e-38 310 251
-0.012008579 0.76099998 -0.014677152 1.1777213e-38 311 251
-0.010674292 0.76099998 -0.014677152 1.1776857e-38 312 251
-0.0093400059 0.76099998 -0.014677152 1.1869413e-38 313 251
-0.0080057196 0.76099998 -0.014677152 1.1593545e-38 314 251
-0.0066714329 0.76099998 -0.014677152 1.1593545e-38 315 251
-0.0053441599 0.76200002 -0.01469644 1.1593545e-38 316 251
-0.0040081199 0.76200002 -0.01469644 1.1593545e-38 317 251
-0.00267208 0.76200002 -0.01469644 1.1593901e-38 318 251
-0.00133604 0.76200002 -0.01469644 1.1593901e-38 319 251
0 0.76200002 -0.01469644 1.1501699e-38 320 251
0.00133604 0.76200002 -0.01469644 1.1501699e-38 321 251
0.00267208 0.76200002 -0.01469644 1.1410223e-38 322 251
0.0040081199 0.76200002 -0.01469644 1.1410223e-38 323 251
0.0053441599 0.76200002 -0.01469644 1.1409504e-38 324 251
0.0066801999 0.76200002 -0.01469644 1.1409504e-38 325 251
0.0080162399 0.76200002 -0.01469644 1.1317308e-38 326 251
0.0093522798 0.76200002 -0.01469644 1.1225113e-38 327 251
0.01068832 0.76200002 -0.01469644 1.1316592e-38 328 251
0.01205592 0.764 -0.014735013 1.1408788e-38 329 251
0.013395466 0.764 -0.014735013 1.1133643e-38 330 251
0.014773586 0.76599997 -0.014773586 1.1225838e-38 331 251
0.016116638 0.76599997 -0.014773586 1.0951412e-38 332 251
0.017482487 0.76700002 -0.014792874 1.1228359e-38 333 251
0.018876385 0.76899999 -0.014831445 1.1137608e-38 334 251
0.0202247 0.76899999 -0.014831445 1.1506032e-38 335 251
0.021629119 0.77100003 -0.01487002 1.1140139e-38 336 251
0.023040552 0.773 -0.014908593 1.1601117e-38 337 251
0.024395877 0.773 -0.014908593 1.1053711e-38 338 251
0.025784519 0.77399999 -0.014927879 1.1238103e-38 339 251
-0.042697169 0.76099998 -0.016011439 1.6043128e-38 288 252
-0.041254178 0.759 -0.015969358 1.5029337e-38 289 252
-0.0399234 0.759 -0.015969358 1.465766e-38 290 252
-0.038694311 0.76099998 -0.016011439 1.3274726e-38 291 252
-0.037409119 0.76200002 -0.01603248 1.317386e-38 292 252
-0.036167759 0.764 -0.016074561 1.2159707e-38 293 252
-0.035238493 0.773 -0.016263919 1.2340821e-38 294 252
-0.033883166 0.773 -0.016263919 1.1695451e-38 295 252
-0.032527838 0.773 -0.016263919 1.1600735e-38 296 252
-0.03117251 0.773 -0.016263919 1.1323789e-38 297 252
-0.029817186 0.773 -0.016263919 1.1505668e-38 298 252
-0.028388219 0.77100003 -0.016221842 1.1505668e-38 299 252
-0.026966266 0.76899999 -0.016179759 1.1504586e-38 300 252
-0.025617953 0.76899999 -0.016179759 1.1320555e-38 301 252
-0.024206521 0.76700002 -0.01613768 1.1686817e-38 302 252
-0.022861714 0.76700002 -0.01613768 1.1686817e-38 303 252
-0.021516906 0.76700002 -0.01613768 1.1777577e-38 304 252
-0.020172099 0.76700002 -0.01613768 1.1777577e-38 305 252
-0.018802745 0.76599997 -0.016116638 1.1776857e-38 306 252
-0.017414106 0.764 -0.016074561 1.1776857e-38 307 252
-0.01603248 0.76200002 -0.01603248 1.1685015e-38 308 252
-0.01469644 0.76200002 -0.01603248 1.1685015e-38 309 252
-0.0133604 0.76200002 -0.01603248 1.1410223e-38 310 252
-0.01202436 0.76200002 -0.01603248 1.1502418e-38 311 252
-0.01068832 0.76200002 -0.01603248 1.141095e-38 312 252
-0.0093522798 0.76200002 -0.01603248 1.1318753e-38 313 252
-0.0080162399 0.76200002 -0.01603248 1.1502068e-38 314 252
-0.0066801999 0.76200002 -0.01603248 1.1409872e-38 315 252
-0.0053441599 0.76200002 -0.01603248 1.1502071e-38 316 252
-0.0040081199 0.76200002 -0.01603248 1.1409516e-38 317 252
-0.00267208 0.76200002 -0.01603248 1.1409872e-38 318 252
-0.00133604 0.76200002 -0.01603248 1.1409872e-38 319 252
0 0.76200002 -0.01603248 1.1410223e-38 320 252
0.00133604 0.76200002 -0.01603248 1.1410223e-38 321 252
0.00267208 0.76200002 -0.01603248 1.1134715e-38 322 252
0.0040081199 0.76200002 -0.01603248 1.1134715e-38 323 252
0.0053441599 0.76200002 -0.01603248 1.1134712e-38 324 252
0.0066801999 0.76200002 -0.01603248 1.1042516e-38 325 252
0.0080162399 0.76200002 -0.01603248 1.1041797e-38 326 252
0.0093522798 0.76200002 -0.01603248 1.0949602e-38 327 252
0.01068832 0.76200002 -0.01603248 1.1041447e-38 328 252
0.012087479 0.76599997 -0.016116638 1.1133643e-38 329 252
0.013430533 0.76599997 -0.016116638 1.0950693e-38 330 252
0.014773586 0.76599997 -0.016116638 1.1042889e-38 331 252
0.01613768 0.76700002 -0.01613768 1.1044334e-38 332 252
0.017528072 0.76899999 -0.016179759 1.1228725e-38 333 252
0.018876385 0.76899999 -0.016179759 1.123089e-38 334 252
0.0202247 0.76899999 -0.016179759 1.1507836e-38 335 252
0.021629119 0.77100003 -0.016221842 1.1234137e-38 336 252
0.023040552 0.773 -0.016263919 1.1602918e-38 337 252
0.02442744 0.77399999 -0.016284959 1.1145204e-38 338 252
-0.041362885 0.76099998 -0.017345725 1.4936786e-38 289 253
-0.040028598 0.76099998 -0.017345725 1.4381446e-38 290 253
-0.038745161 0.76200002 -0.01736852 1.3459489e-38 291 253
-0.037409119 0.76200002 -0.01736852 1.3637374e-38 292 253
-0.036167759 0.764 -0.017414106 1.2438832e-38 293 253
-0.034828212 0.764 -0.017414106 1.2340849e-38 294 253
-0.033883166 0.773 -0.017619247 1.1787676e-38 295 253
-0.032527838 0.773 -0.017619247 1.1234137e-38 296 253
-0.03117251 0.773 -0.017619247 1.0681322e-38 297 253
-0.029817186 0.773 -0.017619247 1.132237e-38 298 253
-0.028388219 0.77100003 -0.01757366 1.1230173e-38 299 253
-0.027036399 0.77100003 -0.01757366 1.1320921e-38 300 253
-0.025617953 0.76899999 -0.017528072 1.1320921e-38 301 253
-0.024206521 0.76700002 -0.017482487 1.1686463e-38 302 253
-0.022861714 0.76700002 -0.017482487 1.1594268e-38 303 253
-0.021516906 0.76700002 -0.017482487 1.1593548e-38 304 253
-0.020172099 0.76700002 -0.017482487 1.177758e-38 305 253
-0.018802745 0.76599997 -0.017459691 1.1594265e-38 306 253
-0.017414106 0.764 -0.017414106 1.1409872e-38 307 253
-0.01603248 0.76200002 -0.01736852 1.1501346e-38 308 253
-0.01469644 0.76200002 -0.01736852 1.1409151e-38 309 253
-0.0133604 0.76200002 -0.01736852 1.1410225e-38 310 253
-0.01202436 0.76200002 -0.01736852 1.1502421e-38 311 253
-0.01068832 0.76200002 -0.01736852 1.1502065e-38 312 253
-0.0093522798 0.76200002 -0.01736852 1.140987e-38 313 253
-0.0080162399 0.76200002 -0.01736852 1.1501346e-38 314 253
-0.0066801999 0.76200002 -0.01736852 1.1501346e-38 315 253
-0.0053441599 0.76200002 -0.01736852 1.1226554e-38 316 253
-0.0040081199 0.76200002 -0.01736852 1.1134359e-38 317 253
-0.00267208 0.76200002 -0.01736852 1.1134715e-38 318 253
-0.00133604 0.76200002 -0.01736852 1.122691e-38 319 253
0 0.764 -0.017414106 1.122691e-38 320 253
0.0013395466 0.764 -0.017414106 1.1134715e-38 321 253
0.0026790933 0.764 -0.017414106 1.1134359e-38 322 253
0.0040186401 0.764 -0.017414106 1.1042163e-38 323 253
0.0053581866 0.764 -0.017414106 1.1041444e-38 324 253
0.0066801999 0.76200002 -0.01736852 1.1041444e-38 325 253
0.0080162399 0.76200002 -0.01736852 1.0949968e-38 326 253
0.0093768267 0.764 -0.017414106 1.0765936e-38 327 253
0.010716373 0.764 -0.017414106 1.0949614e-38 328 253
0.012087479 0.76599997 -0.017459691 1.0949614e-38 329 253
0.013430533 0.76599997 -0.017459691 1.0950699e-38 330 253
0.014792874 0.76700002 -0.017482487 1.1226926e-38 331 253
0.01613768 0.76700002 -0.017482487 1.0952511e-38 332 253
0.017528072 0.76899999 -0.017528072 1.1413488e-38 333 253
0.018876385 0.76899999 -0.017528072 1.1047946e-38 334 253
0.020277301 0.77100003 -0.01757366 1.160112e-38 335 253
0.021685226 0.773 -0.017619247 1.1327773e-38 336 253
0.023040552 0.773 -0.017619247 1.160472e-38 337 253
0.02442744 0.77399999 -0.01764204 1.0868612e-38 338 253
-0.040186398 0.764 -0.018753653 1.4472566e-38 290 254
-0.038846854 0.764 -0.018753653 1.3735001e-38 291 254
-0.037507307 0.764 -0.018753653 1.3730662e-38 292 254
-0.036167759 0.764 -0.018753653 1.2900902e-38 293 254
-0.034828212 0.764 -0.018753653 1.2710004e-38 294 254
-0.033883166 0.773 -0.018974574 1.1604017e-38 295 254
-0.032527838 0.773 -0.018974574 1.0956477e-38 296 254
-0.031212838 0.77399999 -0.018999118 1.0864281e-38 297 254
-0.029817186 0.773 -0.018974574 1.113942e-38 298 254
-0.028388219 0.77100003 -0.018925481 1.1047225e-38 299 254
-0.027036399 0.77100003 -0.018925481 1.1413119e-38 300 254
-0.025617953 0.76899999 -0.018876385 1.1320924e-38 301 254
-0.024269639 0.76899999 -0.018876385 1.1320558e-38 302 254
-0.022921326 0.76899999 -0.018876385 1.1228003e-38 303 254
-0.021516906 0.76700002 -0.018827293 1.1135811e-38 304 254
-0.020172099 0.76700002 -0.018827293 1.1135811e-38 305 254
-0.018827293 0.76700002 -0.018827293 1.1135811e-38 306 254
-0.017482487 0.76700002 -0.018827293 1.1043614e-38 307 254
-0.016116638 0.76599997 -0.018802745 1.122656e-38 308 254
-0.014735013 0.764 -0.018753653 1.1134006e-38 309 254
-0.013395466 0.764 -0.018753653 1.1042892e-38 310 254
-0.01205592 0.764 -0.018753653 1.1226923e-38 311 254
-0.01068832 0.76200002 -0.01870456 1.122656e-38 312 254
-0.0093522798 0.76200002 -0.01870456 1.122656e-38 313 254
-0.0080162399 0.76200002 -0.01870456 1.1227276e-38 314 254
-0.0066801999 0.76200002 -0.01870456 1.1043245e-38 315 254
-0.0053441599 0.76200002 -0.01870456 1.1043242e-38 316 254
-0.0040186401 0.764 -0.018753653 1.1043242e-38 317 254
-0.0026861064 0.76599997 -0.018802745 1.0951765e-38 318 254
-0.0013430532 0.76599997 -0.018802745 1.0951765e-38 319 254
0 0.764 -0.018753653 1.1042889e-38 320 254
0.0013395466 0.764 -0.018753653 1.0950693e-38 321 254
0.0026861064 0.76599997 -0.018802745 1.104181e-38 322 254
0.0040186401 0.764 -0.018753653 1.104181e-38 323 254
0.0053581866 0.764 -0.018753653 1.0766299e-38 324 254
0.006697733 0.764 -0.018753653 1.0766299e-38 325 254
0.0080372803 0.764 -0.018753653 1.0582987e-38 326 254
0.0093768267 0.764 -0.018753653 1.0582987e-38 327 254
0.010744425 0.76599997 -0.018802745 1.0582634e-38 328 254
0.01210326 0.76700002 -0.018827293 1.0675188e-38 329 254
0.013448066 0.76700002 -0.018827293 1.0859945e-38 330 254
0.014792874 0.76700002 -0.018827293 1.1228728e-38 331 254
0.016179759 0.76899999 -0.018876385 1.1045781e-38 332 254
0.017528072 0.76899999 -0.018876385 1.1414565e-38 333 254
0.018925481 0.77100003 -0.018925481 1.1233057e-38 334 254
0.0203299 0.773 -0.018974574 1.1602199e-38 335 254
0.021713279 0.77399999 -0.018999118 1.1144111e-38 336 254
0.02307036 0.77399999 -0.018999118 1.0959361e-38 337 254
-0.040186398 0.764 -0.020093199 1.4472566e-38 290 255
-0.038846854 0.764 -0.020093199 1.3735001e-38 291 255
-0.037507307 0.764 -0.020093199 1.3823582e-38 292 255
-0.036262438 0.76599997 -0.020145798 1.3178214e-38 293 255
-0.034919381 0.76599997 -0.020145798 1.3079881e-38 294 255
-0.033620168 0.76700002 -0.020172099 1.1881339e-38 295 255
-0.032527838 0.773 -0.0203299 1.114196e-38 296 255
-0.031212838 0.77399999 -0.020356199 1.1049764e-38 297 255
-0.029817186 0.773 -0.0203299 1.1233059e-38 298 255
-0.028461859 0.773 -0.0203299 1.0864278e-38 299 255
-0.027106533 0.773 -0.0203299 1.1322367e-38 300 255
-0.02568458 0.77100003 -0.020277301 1.123017e-38 301 255
-0.024269639 0.76899999 -0.0202247 1.1137611e-38 302 255
-0.022921326 0.76899999 -0.0202247 1.0952861e-38 303 255
-0.021573013 0.76899999 -0.0202247 1.1135455e-38 304 255
-0.0202247 0.76899999 -0.0202247 1.1135455e-38 305 255
-0.018876385 0.76899999 -0.0202247 1.1043258e-38 306 255
-0.017482487 0.76700002 -0.020172099 1.0951062e-38 307 255
-0.016116638 0.76599997 -0.020145798 1.0951059e-38 308 255
-0.014773586 0.76599997 -0.020145798 1.0951059e-38 309 255
-0.013395466 0.764 -0.020093199 1.0951412e-38 310 255
-0.01205592 0.764 -0.020093199 1.1043608e-38 311 255
-0.010716373 0.764 -0.020093199 1.0951765e-38 312 255
-0.0093768267 0.764 -0.020093199 1.0951765e-38 313 255
-0.0080372803 0.764 -0.020093199 1.1043242e-38 314 255
-0.006697733 0.764 -0.020093199 1.0951047e-38 315 255
-0.0053581866 0.764 -0.020093199 1.0951765e-38 316 255
-0.0040186401 0.764 -0.020093199 1.0951765e-38 317 255
-0.0026861064 0.76599997 -0.020145798 1.0951768e-38 318 255
-0.0013430532 0.76599997 -0.020145798 1.0859573e-38 319 255
0 0.764 -0.020093199 1.1134009e-38 320 255
0.0013395466 0.764 -0.020093199 1.1041813e-38 321 255
0.0026861064 0.76599997 -0.020145798 1.0766299e-38 322 255
0.0040291594 0.76599997 -0.020145798 1.0858854e-38 323 255
0.0053722127 0.76599997 -0.020145798 1.058334e-38 324 255
0.006697733 0.764 -0.020093199 1.058334e-38 325 255
0.0080372803 0.764 -0.020093199 1.0399312e-38 326 255
0.0094013726 0.76599997 -0.020145798 1.0584062e-38 327 255
0.010758453 0.76700002 -0.020172099 1.0675907e-38 328 255
0.012134819 0.76899999 -0.0202247 1.0768103e-38 329 255
0.013483133 0.76899999 -0.0202247 1.0861385e-38 330 255
0.014831445 0.76899999 -0.0202247 1.113833e-38 331 255
0.016179759 0.76899999 -0.0202247 1.1047225e-38 332 255
0.01757366 0.77100003 -0.020277301 1.1508201e-38 333 255
0.018925481 0.77100003 -0.020277301 1.1142663e-38 334 255
0.0203299 0.773 -0.0203299 1.1327054e-38 335 255
0.021713279 0.77399999 -0.020356199 1.0591307e-38 336 255
-0.038846854 0.764 -0.021432746 1.3551688e-38 291 256
-0.037507307 0.764 -0.021432746 1.3547365e-38 292 256
-0.036262438 0.76599997 -0.021488851 1.3086389e-38 293 256
-0.034919381 0.76599997 -0.021488851 1.2622873e-38 294 256
-0.033620168 0.76700002 -0.021516906 1.1700558e-38 295 256
-0.03227536 0.76700002 -0.021516906 1.1788055e-38 296 256
-0.03117251 0.773 -0.021685226 1.1418912e-38 297 256
-0.029855758 0.77399999 -0.021713279 1.1601846e-38 298 256
-0.028461859 0.773 -0.021685226 1.1325259e-38 299 256
-0.027106533 0.773 -0.021685226 1.1231969e-38 300 256
-0.025751207 0.773 -0.021685226 1.1047578e-38 301 256
-0.02433276 0.77100003 -0.021629119 1.1321642e-38 302 256
-0.02298094 0.77100003 -0.021629119 1.1045057e-38 303 256
-0.021573013 0.76899999 -0.021573013 1.1136176e-38 304 256
-0.0202247 0.76899999 -0.021573013 1.1136176e-38 305 256
-0.018876385 0.76899999 -0.021573013 1.0861385e-38 306 256
-0.017528072 0.76899999 -0.021573013 1.0677353e-38 307 256
-0.01613768 0.76700002 -0.021516906 1.0768822e-38 308 256
-0.014792874 0.76700002 -0.021516906 1.0676626e-38 309 256
-0.013430533 0.76599997 -0.021488851 1.0768819e-38 310 256
-0.012087479 0.76599997 -0.021488851 1.0768819e-38 311 256
-0.010744425 0.76599997 -0.021488851 1.0768816e-38 312 256
-0.0093768267 0.764 -0.021432746 1.0768816e-38 313 256
-0.0080372803 0.764 -0.021432746 1.07681e-38 314 256
-0.006697733 0.764 -0.021432746 1.07681e-38 315 256
-0.0053722127 0.76599997 -0.021488851 1.0676626e-38 316 256
-0.0040291594 0.76599997 -0.021488851 1.0676626e-38 317 256
-0.0026861064 0.76599997 -0.021488851 1.0950696e-38 318 256
-0.0013430532 0.76599997 -0.021488851 1.0950696e-38 319 256
0 0.76599997 -0.021488851 1.1041816e-38 320 256
0.0013430532 0.76599997 -0.021488851 1.1134011e-38 321 256
0.0026861064 0.76599997 -0.021488851 1.085922e-38 322 256
0.0040291594 0.76599997 -0.021488851 1.085922e-38 323 256
0.0053722127 0.76599997 -0.021488851 1.0675183e-38 324 256
0.0067152665 0.76599997 -0.021488851 1.0675183e-38 325 256
0.0080583189 0.76599997 -0.021488851 1.0675186e-38 326 256
0.0094136465 0.76700002 -0.021516906 1.0859217e-38 327 256
0.010758453 0.76700002 -0.021516906 1.067627e-38 328 256
0.012134819 0.76899999 -0.021573013 1.0860663e-38 329 256
0.013483133 0.76899999 -0.021573013 1.0862466e-38 330 256
0.014831445 0.76899999 -0.021573013 1.1138693e-38 331 256
0.016221842 0.77100003 -0.021629119 1.1140142e-38 332 256
0.01757366 0.77100003 -0.021629119 1.1324533e-38 333 256
0.018925481 0.77100003 -0.021629119 1.1141594e-38 334 256
-0.037605491 0.76599997 -0.022831906 1.2995991e-38 292 257
-0.036262438 0.76599997 -0.022831906 1.2627207e-38 293 257
-0.034919381 0.76599997 -0.022831906 1.2439926e-38 294 257
-0.033576332 0.76599997 -0.022831906 1.1702361e-38 295 257
-0.03227536 0.76700002 -0.022861714 1.2066084e-38 296 257
-0.03117251 0.773 -0.023040552 1.1605464e-38 297 257
-0.029932907 0.77600002 -0.023129974 1.1787312e-38 298 257
-0.028498679 0.77399999 -0.02307036 1.1510366e-38 299 257
-0.027141599 0.77399999 -0.02307036 1.1600753e-38 300 257
-0.025751207 0.773 -0.023040552 1.1416003e-38 301 257
-0.024395877 0.773 -0.023040552 1.1598233e-38 302 257
-0.023040552 0.773 -0.023040552 1.1413482e-38 303 257
-0.021629119 0.77100003 -0.02298094 1.0953583e-38 304 257
-0.020277301 0.77100003 -0.02298094 1.0953583e-38 305 257
-0.018925481 0.77100003 -0.02298094 1.0770268e-38 306 257
-0.01757366 0.77100003 -0.02298094 1.0770268e-38 307 257
-0.016221842 0.77100003 -0.02298094 1.0953214e-38 308 257
-0.014831445 0.76899999 -0.022921326 1.0861019e-38 309 257
-0.013448066 0.76700002 -0.022861714 1.0861019e-38 310 257
-0.01210326 0.76700002 -0.022861714 1.0953214e-38 311 257
-0.010758453 0.76700002 -0.022861714 1.0861019e-38 312 257
-0.0094013726 0.76599997 -0.022831906 1.0953214e-38 313 257
-0.0080583189 0.76599997 -0.022831906 1.0861019e-38 314 257
-0.0067152665 0.76599997 -0.022831906 1.0768822e-38 315 257
-0.0053722127 0.76599997 -0.022831906 1.0768822e-38 316 257
-0.0040291594 0.76599997 -0.022831906 1.0676626e-38 317 257
-0.0026861064 0.76599997 -0.022831906 1.0951059e-38 318 257
-0.0013430532 0.76599997 -0.022831906 1.0858864e-38 319 257
0 0.76599997 -0.022831906 1.0951059e-38 320 257
0.0013430532 0.76599997 -0.022831906 1.0951059e-38 321 257
0.0026861064 0.76599997 -0.022831906 1.0859943e-38 322 257
0.0040291594 0.76599997 -0.022831906 1.0767747e-38 323 257
0.0053792265 0.76700002 -0.022861714 1.0859217e-38 324 257
0.006724033 0.76700002 -0.022861714 1.0859217e-38 325 257
0.00806884 0.76700002 -0.022861714 1.0951768e-38 326 257
0.0094381925 0.76899999 -0.022921326 1.0859573e-38 327 257
0.010786506 0.76899999 -0.022921326 1.0859943e-38 328 257
0.01216638 0.77100003 -0.02298094 1.1228725e-38 329 257
0.013518199 0.77100003 -0.02298094 1.0955384e-38 330 257
0.01487002 0.77100003 -0.02298094 1.1139776e-38 331 257
0.016263919 0.773 -0.023040552 1.0956477e-38 332 257
0.017619247 0.773 -0.023040552 1.1048672e-38 333 257
-0.034919381 0.76599997 -0.024174958 1.1979315e-38 294 258
-0.033576332 0.76599997 -0.024174958 1.1610891e-38 295 258
-0.03227536 0.76700002 -0.024206521 1.1792386e-38 296 258
-0.028498679 0.77399999 -0.02442744 1.1512184e-38 299 258
-0.027141599 0.77399999 -0.02442744 1.1785158e-38 300 258
-0.025751207 0.773 -0.024395877 1.1600767e-38 301 258
-0.024395877 0.773 -0.024395877 1.1232338e-38 302 258
-0.023040552 0.773 -0.024395877 1.1047946e-38 303 258
-0.021629119 0.77100003 -0.02433276 1.1138344e-38 304 258
-0.020277301 0.77100003 -0.02433276 1.0954312e-38 305 258
-0.018974574 0.773 -0.024395877 1.0954309e-38 306 258
-0.017619247 0.773 -0.024395877 1.0954309e-38 307 258
-0.016221842 0.77100003 -0.02433276 1.0953583e-38 308 258
-0.01487002 0.77100003 -0.02433276 1.0953583e-38 309 258
-0.013483133 0.76899999 -0.024269639 1.0861387e-38 310 258
-0.012134819 0.76899999 -0.024269639 1.0953583e-38 311 258
-0.010786506 0.76899999 -0.024269639 1.0952864e-38 312 258
-0.0094136465 0.76700002 -0.024206521 1.0952864e-38 313 258
-0.00806884 0.76700002 -0.024206521 1.0952861e-38 314 258
-0.006724033 0.76700002 -0.024206521 1.0952861e-38 315 258
-0.0053792265 0.76700002 -0.024206521 1.0677353e-38 316 258
-0.00403442 0.76700002 -0.024206521 1.0677353e-38 317 258
-0.0026896133 0.76700002 -0.024206521 1.0677353e-38 318 258
