# .PCD v.7 - Point Cloud Data file format
FIELDS x y z rgb imX imY
SIZE 4 4 4 4 4 4
TYPE F F F F F F
COUNT 1 1 1 1 1 1
WIDTH 837
HEIGHT 1
VIEWPOINT 0 0 0 1 0 0 0
POINTS 837
DATA ascii
0.0037030398 0.704 -0.034561705 1.8140804e-38 323 268
0.0049303733 0.70300001 -0.034512613 1.8231568e-38 324 268
0.0061454331 0.70099998 -0.034414422 1.7954983e-38 325 268
0.0073745195 0.70099998 -0.034414422 1.7861362e-38 326 268
0.0085913334 0.69999999 -0.034365334 1.7769167e-38 327 268
0.0098186666 0.69999999 -0.034365334 1.7951766e-38 328 268
0.011045999 0.69999999 -0.034365334 1.8043961e-38 329 268
0.012238266 0.69800001 -0.034267146 1.8320191e-38 330 268
0.013462093 0.69800001 -0.034267146 1.8504582e-38 331 268
0.01468592 0.69800001 -0.034267146 1.841274e-38 332 268
0.015909746 0.69800001 -0.034267146 1.8043958e-38 333 268
0.017133573 0.69800001 -0.034267146 1.776737e-38 334 268
0.0183574 0.69800001 -0.034267146 1.7675174e-38 335 268
0.019553173 0.69700003 -0.034218054 1.7399676e-38 336 268
0.020745439 0.69599998 -0.034168959 1.6938698e-38 337 268
0.021965759 0.69599998 -0.034168959 1.6568491e-38 338 268
0.023186078 0.69599998 -0.034168959 1.6660686e-38 339 268
0.0244064 0.69599998 -0.034168959 1.6111108e-38 340 268
0.025626717 0.69599998 -0.034168959 1.565013e-38 341 268
0.026847038 0.69599998 -0.034168959 1.5556509e-38 342 268
0.027986705 0.69400001 -0.034070771 1.5279921e-38 343 268
0.029203519 0.69400001 -0.034070771 1.4544899e-38 344 268
0.030507999 0.69599998 -0.034168959 1.4544899e-38 345 268
0.031819493 0.69800001 -0.034267146 1.5003354e-38 346 268
0.033043321 0.69800001 -0.034267146 1.5003354e-38 347 268
0.034267146 0.69800001 -0.034267146 1.5185209e-38 348 268
0.035490975 0.69800001 -0.034267146 1.4816426e-38 349 268
0.036819998 0.69999999 -0.034365334 1.4723865e-38 350 268
0.038047329 0.69999999 -0.034365334 1.4539113e-38 351 268
0.039274666 0.69999999 -0.034365334 1.4171054e-38 352 268
0.040502001 0.69999999 -0.034365334 1.3894467e-38 353 268
0.041729331 0.69999999 -0.034365334 1.3617179e-38 354 268
0.043018032 0.70099998 -0.034414422 1.3524984e-38 355 268
0.04437336 0.70300001 -0.034512613 1.3250561e-38 356 268
0.045670826 0.704 -0.034561705 1.3342758e-38 357 268
0.046905171 0.704 -0.034561705 1.343459e-38 358 268
0.048276275 0.70599997 -0.034659892 1.3342393e-38 359 268
0.04951413 0.70599997 -0.034659892 1.3160161e-38 360 268
0.050751984 0.70599997 -0.034659892 1.2606988e-38 361 268
0.051989835 0.70599997 -0.034659892 9.1136753e-39 362 268
0.053076904 0.704 -0.034561705 1.1971738e-38 363 268
0.054465543 0.70599997 -0.034659892 1.3555314e-38 364 268
-0.00753232 0.71600002 -0.036406212 1.7232615e-38 314 269
-0.0062506334 0.713 -0.036253672 1.4190161e-38 315 269
-0.0050005065 0.713 -0.036253672 1.7680207e-38 316 269
-0.0037398601 0.71100003 -0.036151983 1.8049349e-38 317 269
-0.0024897333 0.70999998 -0.036101133 1.8417759e-38 318 269
-0.0012396066 0.70700002 -0.035948593 1.8417759e-38 319 269
0 0.70599997 -0.035897743 1.8417756e-38 320 269
0.0012343467 0.704 -0.035796054 1.8325561e-38 321 269
0.0024686933 0.704 -0.035796054 1.8325195e-38 322 269
0.0036977797 0.70300001 -0.035745207 1.8232999e-38 323 269
0.0049163462 0.70099998 -0.035643511 1.8047535e-38 324 269
0.0061366665 0.69999999 -0.035592664 1.7955339e-38 325 269
0.0073639993 0.69999999 -0.035592664 1.8044309e-38 326 269
0.0085667865 0.69800001 -0.035490975 1.7952113e-38 327 269
0.0097906133 0.69800001 -0.035490975 1.8043231e-38 328 269
0.01099866 0.69700003 -0.035440128 1.8135428e-38 329 269
0.012220734 0.69700003 -0.035440128 1.8320188e-38 330 269
0.013442807 0.69700003 -0.035440128 1.8412384e-38 331 269
0.01466488 0.69700003 -0.035440128 1.8320191e-38 332 269
0.015886955 0.69700003 -0.035440128 1.795141e-38 333 269
0.017109027 0.69700003 -0.035440128 1.7767739e-38 334 269
0.018331099 0.69700003 -0.035440128 1.7583349e-38 335 269
0.019525118 0.69599998 -0.035389278 1.7216367e-38 336 269
0.020745439 0.69599998 -0.035389278 1.6939421e-38 337 269
0.021902639 0.69400001 -0.035287585 1.7213493e-38 338 269
0.023119451 0.69400001 -0.035287585 1.7213493e-38 339 269
0.024336265 0.69400001 -0.035287585 1.6385897e-38 340 269
0.025553079 0.69400001 -0.035287585 1.5924919e-38 341 269
0.026769891 0.69400001 -0.035287585 1.5371047e-38 342 269
0.027986705 0.69400001 -0.035287585 1.5094102e-38 343 269
0.029203519 0.69400001 -0.035287585 1.4725692e-38 344 269
0.030420333 0.69400001 -0.035287585 1.4817888e-38 345 269
0.031637147 0.69400001 -0.035287585 1.4818597e-38 346 269
0.032948639 0.69599998 -0.035389278 1.4818597e-38 347 269
0.034267146 0.69800001 -0.035490975 1.5091937e-38 348 269
0.035490975 0.69800001 -0.035490975 1.4723514e-38 349 269
0.0367148 0.69800001 -0.035490975 1.4538763e-38 350 269
0.037938625 0.69800001 -0.035490975 1.4446567e-38 351 269
0.039162453 0.69800001 -0.035490975 1.407958e-38 352 269
0.040386278 0.69800001 -0.035490975 1.3710799e-38 353 269
0.041729331 0.69999999 -0.035592664 1.3433857e-38 354 269
0.042956665 0.69999999 -0.035592664 1.3433857e-38 355 269
0.044247117 0.70099998 -0.035643511 1.2975037e-38 356 269
0.04560595 0.70300001 -0.035745207 1.3343461e-38 357 269
0.046905171 0.704 -0.035796054 1.3435657e-38 358 269
0.048139516 0.704 -0.035796054 1.3343461e-38 359 269
0.04951413 0.70599997 -0.035897743 1.2976849e-38 360 269
0.050608214 0.704 -0.035796054 1.2423675e-38 361 269
0.051842559 0.704 -0.035796054 1.0767066e-38 362 269
0.053076904 0.704 -0.035796054 1.0306088e-38 363 269
0.054465543 0.70599997 -0.035897743 8.9458726e-39 364 269
0.055703394 0.70599997 -0.035897743 1.5399208e-38 365 269
-0.0087877065 0.71600002 -0.037661601 1.5856572e-38 313 270
-0.00753232 0.71600002 -0.037661601 1.6950252e-38 314 270
-0.0062593995 0.71399999 -0.037556399 1.5843544e-38 315 270
-0.0050005065 0.713 -0.037503798 1.8140816e-38 316 270
-0.0037345996 0.70999998 -0.037345998 1.8325207e-38 317 270
-0.0024757064 0.70599997 -0.037135597 1.8326282e-38 318 270
-0.0012378532 0.70599997 -0.037135597 1.8326282e-38 319 270
0 0.704 -0.037030395 1.8601071e-38 320 270
0.0012325933 0.70300001 -0.036977798 1.8601071e-38 321 270
0.0024651866 0.70300001 -0.036977798 1.8325561e-38 322 270
0.0036872597 0.70099998 -0.036872596 1.8233365e-38 323 270
0.0049093333 0.69999999 -0.036819998 1.8231568e-38 324 270
0.0061366665 0.69999999 -0.036819998 1.7954983e-38 325 270
0.0073429602 0.69800001 -0.0367148 1.8044314e-38 326 270
0.0085545136 0.69700003 -0.036662199 1.7952119e-38 327 270
0.0097765867 0.69700003 -0.036662199 1.7767733e-38 328 270
0.010982879 0.69599998 -0.036609598 1.7860289e-38 329 270
0.0122032 0.69599998 -0.036609598 1.8043964e-38 330 270
0.013384946 0.69400001 -0.036504399 1.8043964e-38 331 270
0.01460176 0.69400001 -0.036504399 1.8134007e-38 332 270
0.015818574 0.69400001 -0.036504399 1.8134007e-38 333 270
0.017035386 0.69400001 -0.036504399 1.7583354e-38 334 270
0.0182522 0.69400001 -0.036504399 1.7491159e-38 335 270
0.019469013 0.69400001 -0.036504399 1.7122743e-38 336 270
0.020685827 0.69400001 -0.036504399 1.6938352e-38 337 270
0.021902639 0.69400001 -0.036504399 1.6845799e-38 338 270
0.02308614 0.69300002 -0.036451802 1.6845799e-38 339 270
0.024301201 0.69300002 -0.036451802 1.6660689e-38 340 270
0.02551626 0.69300002 -0.036451802 1.6199711e-38 341 270
0.026769891 0.69400001 -0.036504399 1.5463242e-38 342 270
0.027946379 0.69300002 -0.036451802 1.5371045e-38 343 270
0.029161438 0.69300002 -0.036451802 1.4453051e-38 344 270
0.030420333 0.69400001 -0.036504399 1.4360856e-38 345 270
0.031637147 0.69400001 -0.036504399 1.4543805e-38 346 270
0.032853961 0.69400001 -0.036504399 1.4175022e-38 347 270
0.034070771 0.69400001 -0.036504399 1.4631682e-38 348 270
0.035287585 0.69400001 -0.036504399 1.4355455e-38 349 270
0.036662199 0.69700003 -0.036662199 1.417106e-38 350 270
0.037884273 0.69700003 -0.036662199 1.417106e-38 351 270
0.039106347 0.69700003 -0.036662199 1.3803353e-38 352 270
0.040328421 0.69700003 -0.036662199 1.3618602e-38 353 270
0.041610107 0.69800001 -0.0367148 1.3250545e-38 354 270
0.042833932 0.69800001 -0.0367148 1.315835e-38 355 270
0.044183996 0.69999999 -0.036819998 1.2882486e-38 356 270
0.04541133 0.69999999 -0.036819998 1.3066877e-38 357 270
0.046638668 0.69999999 -0.036819998 1.3250911e-38 358 270
0.048071139 0.70300001 -0.036977798 1.306688e-38 359 270
0.049303733 0.70300001 -0.036977798 1.2699189e-38 360 270
0.050608214 0.704 -0.037030395 1.2514798e-38 361 270
0.051842559 0.704 -0.037030395 1.1687208e-38 362 270
0.053227689 0.70599997 -0.037135597 1.0764893e-38 363 270
0.054465543 0.70599997 -0.037135597 9.1180123e-39 364 270
0.055703394 0.70599997 -0.037135597 1.4096218e-38 365 270
0.056941248 0.70599997 -0.037135597 1.5676532e-38 366 270
-0.01005712 0.71700001 -0.038971342 1.8716765e-38 312 271
-0.0087877065 0.71600002 -0.038916986 1.3922594e-38 313 271
-0.00753232 0.71600002 -0.038916986 1.703775e-38 314 271
-0.0062593995 0.71399999 -0.038808275 1.7314696e-38 315 271
-0.0049864799 0.71100003 -0.038645219 1.8049702e-38 316 271
-0.0037188199 0.70700002 -0.038427804 1.8141898e-38 317 271
-0.0024757064 0.70599997 -0.038373452 1.8141895e-38 318 271
-0.0012378532 0.70599997 -0.038373452 1.8325926e-38 319 271
0 0.704 -0.038264744 1.8141545e-38 320 271
0.0012325933 0.70300001 -0.038210396 1.8325576e-38 321 271
0.0024651866 0.70300001 -0.038210396 1.8141895e-38 322 271
0.0036872597 0.70099998 -0.038101684 1.80497e-38 323 271
0.0049093333 0.69999999 -0.038047329 1.8230861e-38 324 271
0.006119133 0.69800001 -0.037938625 1.7954633e-38 325 271
0.00733244 0.69700003 -0.037884273 1.7952129e-38 326 271
0.0085545136 0.69700003 -0.037884273 1.7952129e-38 327 271
0.0097625591 0.69599998 -0.037829921 1.7676623e-38 328 271
0.01095132 0.69400001 -0.037721213 1.7584068e-38 329 271
0.012168133 0.69400001 -0.037721213 1.7583717e-38 330 271
0.013384946 0.69400001 -0.037721213 1.7491522e-38 331 271
0.014580719 0.69300002 -0.037666857 1.7674118e-38 332 271
0.015795778 0.69300002 -0.037666857 1.7766314e-38 333 271
0.01701084 0.69300002 -0.037666857 1.7215661e-38 334 271
0.0182522 0.69400001 -0.037721213 1.7123465e-38 335 271
0.019469013 0.69400001 -0.037721213 1.6938365e-38 336 271
0.020656019 0.69300002 -0.037666857 1.6754334e-38 337 271
0.021871079 0.69300002 -0.037666857 1.657066e-38 338 271
0.02308614 0.69300002 -0.037666857 1.6662857e-38 339 271
0.024301201 0.69300002 -0.037666857 1.6202229e-38 340 271
0.02551626 0.69300002 -0.037666857 1.5925641e-38 341 271
0.02673132 0.69300002 -0.037666857 1.5740531e-38 342 271
0.027946379 0.69300002 -0.037666857 1.5648335e-38 343 271
0.029161438 0.69300002 -0.037666857 1.4821098e-38 344 271
0.0303765 0.69300002 -0.037666857 1.4544152e-38 345 271
0.031591557 0.69300002 -0.037666857 1.4267568e-38 346 271
0.03280662 0.69300002 -0.037666857 1.3990981e-38 347 271
0.034021679 0.69300002 -0.037666857 1.4355455e-38 348 271
0.035236739 0.69300002 -0.037666857 1.4170704e-38 349 271
0.036504399 0.69400001 -0.037721213 1.3803e-38 350 271
0.037721213 0.69400001 -0.037721213 1.3803e-38 351 271
0.039050236 0.69599998 -0.037829921 1.3618606e-38 352 271
0.040270556 0.69599998 -0.037829921 1.3526409e-38 353 271
0.041550495 0.69700003 -0.037884273 1.315835e-38 354 271
0.042833932 0.69800001 -0.037938625 1.3066154e-38 355 271
0.04405776 0.69800001 -0.037938625 1.2882489e-38 356 271
0.045281585 0.69800001 -0.037938625 1.2974684e-38 357 271
0.046638668 0.69999999 -0.038047329 1.2882498e-38 358 271
0.047934376 0.70099998 -0.038101684 1.2698467e-38 359 271
0.049163464 0.70099998 -0.038101684 1.2331129e-38 360 271
0.050608214 0.704 -0.038264744 1.2238934e-38 361 271
0.051842559 0.704 -0.038264744 1.1780121e-38 362 271
0.053076904 0.704 -0.038264744 1.1503532e-38 363 271
0.054465543 0.70599997 -0.038373452 1.040082e-38 364 271
0.055703394 0.70599997 -0.038373452 1.2152897e-38 365 271
0.056941248 0.70599997 -0.038373452 1.2723382e-38 366 271
-0.01129848 0.71600002 -0.040172372 1.8348382e-38 311 272
-0.010043093 0.71600002 -0.040172372 1.8159973e-38 312 272
-0.0087877065 0.71600002 -0.040172372 1.3827139e-38 313 272
-0.0075112795 0.71399999 -0.040060159 1.7221749e-38 314 272
-0.0062506334 0.713 -0.040004052 1.7498696e-38 315 272
-0.0049864799 0.71100003 -0.039891839 1.7957488e-38 316 272
-0.0037135598 0.70599997 -0.039611302 1.8233715e-38 317 272
-0.0024757064 0.70599997 -0.039611302 1.8140813e-38 318 272
-0.0012343467 0.704 -0.039499093 1.8140813e-38 319 272
0 0.70300001 -0.039442986 1.7773841e-38 320 272
0.0012290865 0.70099998 -0.039330769 1.7957872e-38 321 272
0.0024546667 0.69999999 -0.039274666 1.8417056e-38 322 272
0.0036819996 0.69999999 -0.039274666 1.832486e-38 323 272
0.0048953067 0.69800001 -0.039162453 1.8046125e-38 324 272
0.006119133 0.69800001 -0.039162453 1.7861734e-38 325 272
0.00733244 0.69700003 -0.039106347 1.7769185e-38 326 272
0.0085422397 0.69599998 -0.039050236 1.7676989e-38 327 272
0.0097345067 0.69400001 -0.038938027 1.7583717e-38 328 272
0.01095132 0.69400001 -0.038938027 1.7491522e-38 329 272
0.012150601 0.69300002 -0.03888192 1.7490803e-38 330 272
0.01336566 0.69300002 -0.03888192 1.7490803e-38 331 272
0.014580719 0.69300002 -0.03888192 1.7398254e-38 332 272
0.015795778 0.69300002 -0.03888192 1.7306058e-38 333 272
0.01701084 0.69300002 -0.03888192 1.7306061e-38 334 272
0.018225901 0.69300002 -0.03888192 1.7213507e-38 335 272
0.01944096 0.69300002 -0.03888192 1.675469e-38 336 272
0.020656019 0.69300002 -0.03888192 1.6662134e-38 337 272
0.021871079 0.69300002 -0.03888192 1.6569585e-38 338 272
0.02308614 0.69300002 -0.03888192 1.6477389e-38 339 272
0.024301201 0.69300002 -0.03888192 1.6202954e-38 340 272
0.02551626 0.69300002 -0.03888192 1.5834172e-38 341 272
0.02673132 0.69300002 -0.03888192 1.5556862e-38 342 272
0.027946379 0.69300002 -0.03888192 1.5372471e-38 343 272
0.029161438 0.69300002 -0.03888192 1.5094811e-38 344 272
0.0303765 0.69300002 -0.03888192 1.4633833e-38 345 272
0.031500384 0.69099998 -0.038769703 1.4448732e-38 346 272
0.032711938 0.69099998 -0.038769703 1.4172506e-38 347 272
0.033923492 0.69099998 -0.038769703 1.4354021e-38 348 272
0.035135046 0.69099998 -0.038769703 1.4261826e-38 349 272
0.036451802 0.69300002 -0.03888192 1.3803e-38 350 272
0.037721213 0.69400001 -0.038938027 1.361825e-38 351 272
0.039050236 0.69599998 -0.039050236 1.3525334e-38 352 272
0.040270556 0.69599998 -0.039050236 1.361753e-38 353 272
0.041550495 0.69700003 -0.039106347 1.2975403e-38 354 272
0.042772565 0.69700003 -0.039106347 1.2698818e-38 355 272
0.04405776 0.69800001 -0.039162453 1.2789937e-38 356 272
0.045281585 0.69800001 -0.039162453 1.2882133e-38 357 272
0.046505414 0.69800001 -0.039162453 1.2514792e-38 358 272
0.047865998 0.69999999 -0.039274666 1.2514792e-38 359 272
0.049093332 0.69999999 -0.039274666 1.1873023e-38 360 272
0.050392549 0.70099998 -0.039330769 1.1873023e-38 361 272
0.051621638 0.70099998 -0.039330769 1.1688997e-38 362 272
0.053076904 0.704 -0.039499093 1.1781193e-38 363 272
0.054465543 0.70599997 -0.039611302 1.1321319e-38 364 272
0.055703394 0.70599997 -0.039611302 1.0675949e-38 365 272
0.056941248 0.70599997 -0.039611302 9.5887183e-39 366 272
0.058179103 0.70599997 -0.039611302 1.6042412e-38 367 272
-0.01129848 0.71600002 -0.041427758 1.7424268e-38 311 273
-0.010043093 0.71600002 -0.041427758 1.7231893e-38 312 273
-0.0087631596 0.71399999 -0.041312039 1.4742611e-38 313 273
-0.0075007593 0.713 -0.041254178 1.7496894e-38 314 273
-0.0062330998 0.71100003 -0.041138459 1.7681287e-38 315 273
-0.0049514128 0.70599997 -0.040849157 1.7590516e-38 316 273
-0.0037135598 0.70599997 -0.040849157 1.7682712e-38 317 273
-0.0024686933 0.704 -0.040733438 1.7680913e-38 318 273
-0.0012343467 0.704 -0.040733438 1.7219936e-38 319 273
0 0.70099998 -0.040559858 1.7588738e-38 320 273
0.0012273333 0.69999999 -0.040502001 1.7773488e-38 321 273
0.0024476533 0.69800001 -0.040386278 1.8048649e-38 322 273
0.0036714801 0.69800001 -0.040386278 1.7771703e-38 323 273
0.0048953067 0.69800001 -0.040386278 1.7402926e-38 324 273
0.0061103669 0.69700003 -0.040328421 1.731073e-38 325 273
0.0073219193 0.69599998 -0.040270556 1.7493324e-38 326 273
0.0085176928 0.69400001 -0.040154841 1.7308933e-38 327 273
0.0097204801 0.69300002 -0.04009698 1.7491525e-38 328 273
0.010935539 0.69300002 -0.04009698 1.7214939e-38 329 273
0.012150601 0.69300002 -0.04009698 1.7030914e-38 330 273
0.013327086 0.69099998 -0.039981257 1.7123109e-38 331 273
0.014538639 0.69099998 -0.039981257 1.6938368e-38 332 273
0.015750192 0.69099998 -0.039981257 1.6754336e-38 333 273
0.016961746 0.69099998 -0.039981257 1.6386641e-38 334 273
0.0181733 0.69099998 -0.039981257 1.6478838e-38 335 273
0.019384852 0.69099998 -0.039981257 1.6295892e-38 336 273
0.020596405 0.69099998 -0.039981257 1.5835272e-38 337 273
0.021807959 0.69099998 -0.039981257 1.5833472e-38 338 273
0.023019511 0.69099998 -0.039981257 1.6109698e-38 339 273
0.024231065 0.69099998 -0.039981257 1.5834526e-38 340 273
0.025442619 0.69099998 -0.039981257 1.5742328e-38 341 273
0.026654173 0.69099998 -0.039981257 1.5923124e-38 342 273
0.027865725 0.69099998 -0.039981257 1.5277755e-38 343 273
0.029077278 0.69099998 -0.039981257 1.445017e-38 344 273
0.030288832 0.69099998 -0.039981257 1.4173225e-38 345 273
0.031500384 0.69099998 -0.039981257 1.3895208e-38 346 273
0.032664597 0.69 -0.0399234 1.3895208e-38 347 273
0.0338744 0.69 -0.0399234 1.3894489e-38 348 273
0.035084199 0.69 -0.0399234 1.3802294e-38 349 273
0.036346599 0.69099998 -0.039981257 1.3618256e-38 350 273
0.037666857 0.69300002 -0.04009698 1.3526059e-38 351 273
0.03888192 0.69300002 -0.04009698 1.3250192e-38 352 273
0.040154841 0.69400001 -0.040154841 1.3342388e-38 353 273
0.041371655 0.69400001 -0.040154841 1.2974331e-38 354 273
0.042711195 0.69599998 -0.040270556 1.2974331e-38 355 273
0.043994639 0.69700003 -0.040328421 1.2699542e-38 356 273
0.045216713 0.69700003 -0.040328421 1.2514792e-38 357 273
0.046505414 0.69800001 -0.040386278 1.2332199e-38 358 273
0.047729239 0.69800001 -0.040386278 1.2332199e-38 359 273
0.049093332 0.69999999 -0.040502001 1.1781543e-38 360 273
0.050392549 0.70099998 -0.040559858 1.1689347e-38 361 273
0.051621638 0.70099998 -0.040559858 1.1872672e-38 362 273
0.053001512 0.70300001 -0.040675577 1.1872672e-38 363 273
0.054311249 0.704 -0.040733438 1.1688291e-38 364 273
0.055703394 0.70599997 -0.040849157 1.0397911e-38 365 273
0.056941248 0.70599997 -0.040849157 7.5550026e-39 366 273
0.058179103 0.70599997 -0.040849157 1.4746262e-38 367 273
-0.011266919 0.71399999 -0.042563915 1.5305195e-38 311 274
-0.01001504 0.71399999 -0.042563915 1.612193e-38 312 274
-0.0087631596 0.71399999 -0.042563915 1.5476561e-38 313 274
-0.0075007593 0.713 -0.042504307 1.7680557e-38 314 274
-0.0061892662 0.70599997 -0.042087011 1.7680557e-38 315 274
-0.0049514128 0.70599997 -0.042087011 1.7680547e-38 316 274
-0.0037030398 0.704 -0.041967787 1.7680547e-38 317 274
-0.0024686933 0.704 -0.041967787 1.7219939e-38 318 274
-0.0012325933 0.70300001 -0.041908171 1.7035187e-38 319 274
0 0.70099998 -0.041788943 1.7586226e-38 320 274
0.0012273333 0.69999999 -0.041729331 1.7954648e-38 321 274
0.0024476533 0.69800001 -0.041610107 1.7863182e-38 322 274
0.0036714801 0.69800001 -0.041610107 1.767879e-38 323 274
0.0048882933 0.69700003 -0.041550495 1.7401128e-38 324 274
0.0061103669 0.69700003 -0.041550495 1.7493324e-38 325 274
0.0073219193 0.69599998 -0.041490879 1.7400053e-38 326 274
0.0085176928 0.69400001 -0.041371655 1.7400053e-38 327 274
0.0097204801 0.69300002 -0.041312039 1.7398254e-38 328 274
0.010935539 0.69300002 -0.041312039 1.7213863e-38 329 274
0.012115533 0.69099998 -0.041192811 1.6938349e-38 330 274
0.013327086 0.69099998 -0.041192811 1.6569926e-38 331 274
0.014538639 0.69099998 -0.041192811 1.6659617e-38 332 274
0.015750192 0.69099998 -0.041192811 1.6567421e-38 333 274
0.016961746 0.69099998 -0.041192811 1.6291926e-38 334 274
0.0181733 0.69099998 -0.041192811 1.6384122e-38 335 274
0.019384852 0.69099998 -0.041192811 1.5924584e-38 336 274
0.020596405 0.69099998 -0.041192811 1.5463966e-38 337 274
0.021807959 0.69099998 -0.041192811 1.555436e-38 338 274
0.023019511 0.69099998 -0.041192811 1.5923502e-38 339 274
0.024231065 0.69099998 -0.041192811 1.5651579e-38 340 274
0.025442619 0.69099998 -0.041192811 1.5374632e-38 341 274
0.026615599 0.69 -0.041133199 1.5554347e-38 342 274
0.027825398 0.69 -0.041133199 1.4816423e-38 343 274
0.029077278 0.69099998 -0.041192811 1.4356893e-38 344 274
0.030244999 0.69 -0.041133199 1.398811e-38 345 274
0.031454802 0.69 -0.041133199 1.3895196e-38 346 274
0.032664597 0.69 -0.041133199 1.3710804e-38 347 274
0.0338744 0.69 -0.041133199 1.370973e-38 348 274
0.035084199 0.69 -0.041133199 1.3617533e-38 349 274
0.036293998 0.69 -0.041133199 1.3433504e-38 350 274
0.03755815 0.69099998 -0.041192811 1.3249473e-38 351 274
0.03888192 0.69300002 -0.041312039 1.306688e-38 352 274
0.04009698 0.69300002 -0.041312039 1.306688e-38 353 274
0.041371655 0.69400001 -0.041371655 1.2975053e-38 354 274
0.042711195 0.69599998 -0.041490879 1.2975053e-38 355 274
0.043931518 0.69599998 -0.041490879 1.2424044e-38 356 274
0.045151837 0.69599998 -0.041490879 1.2331848e-38 357 274
0.046438783 0.69700003 -0.041550495 1.2148536e-38 358 274
0.047729239 0.69800001 -0.041610107 1.1963786e-38 359 274
0.049093332 0.69999999 -0.041729331 1.1963789e-38 360 274
0.050320663 0.69999999 -0.041729331 1.1963789e-38 361 274
0.051621638 0.70099998 -0.041788943 1.1963792e-38 362 274
0.052850723 0.70099998 -0.041788943 1.1963792e-38 363 274
0.054311249 0.704 -0.041967787 1.1504964e-38 364 274
0.055545598 0.704 -0.041967787 1.0859596e-38 365 274
0.056941248 0.70599997 -0.042087011 9.0211293e-39 366 274
0.058179103 0.70599997 -0.042087011 1.2893346e-38 367 274
-0.012448666 0.70999998 -0.043570329 1.8623144e-38 310 275
-0.011266919 0.71399999 -0.043815799 1.4658732e-38 311 275
-0.01001504 0.71399999 -0.043815799 1.630163e-38 312 275
-0.0087508867 0.713 -0.043754432 1.648638e-38 313 275
-0.0074376399 0.70700002 -0.043386232 1.7496882e-38 314 275
-0.0061892662 0.70599997 -0.043324865 1.7312132e-38 315 275
-0.0049373866 0.704 -0.043202132 1.7495447e-38 316 275
-0.0036977797 0.70300001 -0.043140765 1.7311416e-38 317 275
-0.0024651866 0.70300001 -0.043140765 1.712704e-38 318 275
-0.0012290865 0.70099998 -0.043018032 1.712704e-38 319 275
0 0.69999999 -0.042956665 1.6943384e-38 320 275
0.0012273333 0.69999999 -0.042956665 1.7128134e-38 321 275
0.0024476533 0.69800001 -0.042833932 1.7494769e-38 322 275
0.00366622 0.69700003 -0.042772565 1.7402573e-38 323 275
0.0048882933 0.69700003 -0.042772565 1.7584084e-38 324 275
0.0061103669 0.69700003 -0.042772565 1.7400053e-38 325 275
0.0073219193 0.69599998 -0.042711195 1.7216377e-38 326 275
0.0085054198 0.69300002 -0.042527102 1.7216377e-38 327 275
0.0097204801 0.69300002 -0.042527102 1.7306412e-38 328 275
0.010935539 0.69300002 -0.042527102 1.6845433e-38 329 275
0.012115533 0.69099998 -0.042404365 1.6200064e-38 330 275
0.0133078 0.69 -0.042342998 1.5831282e-38 331 275
0.014517599 0.69 -0.042342998 1.5463598e-38 332 275
0.015727401 0.69 -0.042342998 1.5739824e-38 333 275
0.0169372 0.69 -0.042342998 1.5463976e-38 334 275
0.0181733 0.69099998 -0.042404365 1.5463976e-38 335 275
0.019384852 0.69099998 -0.042404365 1.5463613e-38 336 275
0.020596405 0.69099998 -0.042404365 1.5278863e-38 337 275
0.021807959 0.69099998 -0.042404365 1.5281004e-38 338 275
0.023019511 0.69099998 -0.042404365 1.5833819e-38 339 275
0.024195999 0.69 -0.042342998 1.555866e-38 340 275
0.025405798 0.69 -0.042342998 1.5189878e-38 341 275
0.026615599 0.69 -0.042342998 1.5184853e-38 342 275
0.027825398 0.69 -0.042342998 1.4539483e-38 343 275
0.029035198 0.69 -0.042342998 1.4171422e-38 344 275
0.030244999 0.69 -0.042342998 1.3895196e-38 345 275
0.031454802 0.69 -0.042342998 1.3711521e-38 346 275
0.032664597 0.69 -0.042342998 1.3527489e-38 347 275
0.033776212 0.68800002 -0.042220265 1.3526056e-38 348 275
0.03498251 0.68800002 -0.042220265 1.343386e-38 349 275
0.036293998 0.69 -0.042342998 1.3250192e-38 350 275
0.03755815 0.69099998 -0.042404365 1.3250192e-38 351 275
0.038769703 0.69099998 -0.042404365 1.3157996e-38 352 275
0.04009698 0.69300002 -0.042527102 1.3157996e-38 353 275
0.041312039 0.69300002 -0.042527102 1.2882498e-38 354 275
0.042588469 0.69400001 -0.042588469 1.2975053e-38 355 275
0.043931518 0.69599998 -0.042711195 1.2424044e-38 356 275
0.045151837 0.69599998 -0.042711195 1.2424044e-38 357 275
0.046438783 0.69700003 -0.042772565 1.178084e-38 358 275
0.047729239 0.69800001 -0.042833932 1.1504613e-38 359 275
0.048953064 0.69800001 -0.042833932 1.1412063e-38 360 275
0.050320663 0.69999999 -0.042956665 1.150426e-38 361 275
0.051547997 0.69999999 -0.042956665 1.1504613e-38 362 275
0.052850723 0.70099998 -0.043018032 1.1504613e-38 363 275
0.054234106 0.70300001 -0.043140765 1.1595728e-38 364 275
0.055545598 0.704 -0.043202132 1.1227306e-38 365 275
0.056779943 0.704 -0.043202132 9.4795837e-39 366 275
0.058014292 0.704 -0.043202132 1.0678127e-38 367 275
0.059753593 0.70999998 -0.043570329 1.2726254e-38 368 275
-0.012448666 0.70999998 -0.044815198 1.7792295e-38 310 276
-0.011203799 0.70999998 -0.044815198 1.4288502e-38 311 276
-0.0099589331 0.70999998 -0.044815198 1.657533e-38 312 276
-0.008677247 0.70700002 -0.044625837 1.6944113e-38 313 276
-0.0074376399 0.70700002 -0.044625837 1.7495078e-38 314 276
-0.0061892662 0.70599997 -0.044562716 1.7310686e-38 315 276
-0.0049373866 0.704 -0.044436477 1.7309969e-38 316 276
-0.0036977797 0.70300001 -0.04437336 1.7309969e-38 317 276
-0.0024581731 0.70099998 -0.044247117 1.7033405e-38 318 276
-0.0012273333 0.69999999 -0.044183996 1.7033405e-38 319 276
0 0.69800001 -0.04405776 1.6850105e-38 320 276
0.0012220733 0.69700003 -0.043994639 1.7034136e-38 321 276
0.0024441467 0.69700003 -0.043994639 1.7400772e-38 322 276
0.0036504399 0.69400001 -0.043805279 1.7400772e-38 323 276
0.0048672534 0.69400001 -0.043805279 1.7400053e-38 324 276
0.0060840664 0.69400001 -0.043805279 1.7215661e-38 325 276
0.0073008798 0.69400001 -0.043805279 1.7216014e-38 326 276
0.0085054198 0.69300002 -0.043742158 1.7216014e-38 327 276
0.0097204801 0.69300002 -0.043742158 1.6938704e-38 328 276
0.01090398 0.69099998 -0.043615919 1.6385531e-38 329 276
0.012097999 0.69 -0.043552797 1.5554697e-38 330 276
0.013269227 0.68800002 -0.043426562 1.5001524e-38 331 276
0.014475521 0.68800002 -0.043426562 1.5276685e-38 332 276
0.015681813 0.68800002 -0.043426562 1.5645108e-38 333 276
0.0169372 0.69 -0.043552797 1.4911511e-38 334 276
0.018146999 0.69 -0.043552797 1.4911511e-38 335 276
0.019356798 0.69 -0.043552797 1.5002991e-38 336 276
0.020566599 0.69 -0.043552797 1.5279219e-38 337 276
0.021776399 0.69 -0.043552797 1.5465758e-38 338 276
0.022986198 0.69 -0.043552797 1.5834541e-38 339 276
0.024195999 0.69 -0.043552797 1.5375365e-38 340 276
0.025405798 0.69 -0.043552797 1.4545603e-38 341 276
0.026538454 0.68800002 -0.043426562 1.4540931e-38 342 276
0.027744746 0.68800002 -0.043426562 1.3895561e-38 343 276
0.028951041 0.68800002 -0.043426562 1.3894117e-38 344 276
0.030157333 0.68800002 -0.043426562 1.3894117e-38 345 276
0.031363625 0.68800002 -0.043426562 1.3710799e-38 346 276
0.032569919 0.68800002 -0.043426562 1.3526406e-38 347 276
0.033776212 0.68800002 -0.043426562 1.352569e-38 348 276
0.03498251 0.68800002 -0.043426562 1.3433494e-38 349 276
0.036293998 0.69 -0.043552797 1.3157996e-38 350 276
0.037503798 0.69 -0.043552797 1.3065801e-38 351 276
0.038769703 0.69099998 -0.043615919 1.3065448e-38 352 276
0.039981257 0.69099998 -0.043615919 1.3065448e-38 353 276
0.041312039 0.69300002 -0.043742158 1.2423681e-38 354 276
0.042527102 0.69300002 -0.043742158 1.2515877e-38 355 276
0.043805279 0.69400001 -0.043805279 1.2241097e-38 356 276
0.045151837 0.69599998 -0.043931518 1.1964871e-38 357 276
0.046372157 0.69599998 -0.043931518 1.1597174e-38 358 276
0.047660861 0.69700003 -0.043994639 1.1412783e-38 359 276
0.048953064 0.69800001 -0.04405776 1.1319148e-38 360 276
0.050320663 0.69999999 -0.044183996 1.1595375e-38 361 276
0.051547997 0.69999999 -0.044183996 1.1412413e-38 362 276
0.052775331 0.69999999 -0.044183996 1.1320217e-38 363 276
0.054234106 0.70300001 -0.04437336 1.1410262e-38 364 276
0.055545598 0.704 -0.044436477 1.1318066e-38 365 276
0.056779943 0.704 -0.044436477 9.9391227e-39 366 276
0.058014292 0.704 -0.044436477 9.3855888e-39 367 276
0.059585281 0.708 -0.044688959 1.106205e-38 368 276
0.060826641 0.708 -0.044688959 1.7884526e-38 369 276
-0.0124662 0.71100003 -0.046124939 1.7236597e-38 310 277
-0.011203799 0.70999998 -0.046060063 1.4286337e-38 311 277
-0.0099308798 0.708 -0.045930319 1.6850119e-38 312 277
-0.008677247 0.70700002 -0.045865446 1.7034511e-38 313 277
-0.0074271196 0.70599997 -0.04580057 1.7218137e-38 314 277
-0.0061717331 0.704 -0.045670826 1.694191e-38 315 277
-0.0049303733 0.70300001 -0.04560595 1.7124503e-38 316 277
-0.0036872597 0.70099998 -0.045476202 1.7124503e-38 317 277
-0.0024546667 0.69999999 -0.04541133 1.6756813e-38 318 277
-0.0012273333 0.69999999 -0.04541133 1.6941204e-38 319 277
0 0.69800001 -0.045281585 1.6849377e-38 320 277
0.0012220733 0.69700003 -0.045216713 1.6941572e-38 321 277
0.0024406398 0.69599998 -0.045151837 1.7032702e-38 322 277
0.0036504399 0.69400001 -0.045022093 1.7216733e-38 323 277
0.0048672534 0.69400001 -0.045022093 1.7032346e-38 324 277
0.0060840664 0.69400001 -0.045022093 1.694015e-38 325 277
0.0072903596 0.69300002 -0.044957221 1.6939424e-38 326 277
0.0085054198 0.69300002 -0.044957221 1.6755033e-38 327 277
0.0097204801 0.69300002 -0.044957221 1.6753235e-38 328 277
0.01090398 0.69099998 -0.044827472 1.620042e-38 329 277
0.012097999 0.69 -0.0447626 1.5647613e-38 330 277
0.013269227 0.68800002 -0.044632856 1.509444e-38 331 277
0.014475521 0.68800002 -0.044632856 1.4819297e-38 332 277
0.015681813 0.68800002 -0.044632856 1.4634905e-38 333 277
0.016888106 0.68800002 -0.044632856 1.4357616e-38 334 277
0.0180944 0.68800002 -0.044632856 1.4081029e-38 335 277
0.019300694 0.68800002 -0.044632856 1.4080323e-38 336 277
0.020506985 0.68800002 -0.044632856 1.4357268e-38 337 277
0.021713281 0.68800002 -0.044632856 1.4451979e-38 338 277
0.022919573 0.68800002 -0.044632856 1.4820762e-38 339 277
0.024125867 0.68800002 -0.044632856 1.454525e-38 340 277
0.02533216 0.68800002 -0.044632856 1.3992077e-38 341 277
0.026499879 0.68699998 -0.044567976 1.4172871e-38 342 277
0.027704418 0.68699998 -0.044567976 1.3619698e-38 343 277
0.028951041 0.68800002 -0.044632856 1.3710086e-38 344 277
0.030157333 0.68800002 -0.044632856 1.3894117e-38 345 277
0.031363625 0.68800002 -0.044632856 1.3618958e-38 346 277
0.032569919 0.68800002 -0.044632856 1.3434208e-38 347 277
0.033776212 0.68800002 -0.044632856 1.3250179e-38 348 277
0.03498251 0.68800002 -0.044632856 1.3250179e-38 349 277
0.036293998 0.69 -0.0447626 1.2975037e-38 350 277
0.037503798 0.69 -0.0447626 1.2882483e-38 351 277
0.038713597 0.69 -0.0447626 1.2789937e-38 352 277
0.039981257 0.69099998 -0.044827472 1.2789937e-38 353 277
0.041312039 0.69300002 -0.044957221 1.2422246e-38 354 277
0.042527102 0.69300002 -0.044957221 1.2514442e-38 355 277
0.043805279 0.69400001 -0.045022093 1.1873394e-38 356 277
0.045022093 0.69400001 -0.045022093 1.178084e-38 357 277
0.046372157 0.69599998 -0.045151837 1.1505334e-38 358 277
0.047660861 0.69700003 -0.045216713 1.1320583e-38 359 277
0.048953064 0.69800001 -0.045281585 1.1136555e-38 360 277
0.050176892 0.69800001 -0.045281585 1.1320586e-38 361 277
0.051547997 0.69999999 -0.04541133 1.1137627e-38 362 277
0.052775331 0.69999999 -0.04541133 1.1045072e-38 363 277
0.054079808 0.70099998 -0.045476202 1.1227671e-38 364 277
0.0554667 0.70300001 -0.04560595 1.1135476e-38 365 277
0.056699295 0.70300001 -0.04560595 1.0675596e-38 366 277
0.058014292 0.704 -0.045670826 9.8454768e-39 367 277
0.059501119 0.70700002 -0.045865446 1.1147039e-38 368 277
0.060740728 0.70700002 -0.045865446 1.7785125e-38 369 277
0.061980337 0.70700002 -0.045865446 1.8162917e-38 370 277
-0.0124662 0.71100003 -0.047371563 1.6496143e-38 310 278
-0.011203799 0.70999998 -0.047304932 1.4467839e-38 311 278
-0.0099308798 0.708 -0.047171678 1.6758275e-38 312 278
-0.008677247 0.70700002 -0.047105055 1.6758275e-38 313 278
-0.0074271196 0.70599997 -0.047038425 1.6757529e-38 314 278
-0.0061717331 0.704 -0.046905171 1.64813e-38 315 278
-0.0049303733 0.70300001 -0.046838548 1.6756443e-38 316 278
-0.0036872597 0.70099998 -0.046705291 1.6664247e-38 317 278
-0.0024546667 0.69999999 -0.046638668 1.6664613e-38 318 278
-0.0012238267 0.69800001 -0.046505414 1.675681e-38 319 278
0 0.69700003 -0.046438783 1.6573147e-38 320 278
0.0012203199 0.69599998 -0.046372157 1.6757178e-38 321 278
0.0024406398 0.69599998 -0.046372157 1.6665355e-38 322 278
0.0036504399 0.69400001 -0.046238903 1.675791e-38 323 278
0.0048672534 0.69400001 -0.046238903 1.6847952e-38 324 278
0.0060840664 0.69400001 -0.046238903 1.6755756e-38 325 278
0.0072903596 0.69300002 -0.04617228 1.6846152e-38 326 278
0.0085054198 0.69300002 -0.04617228 1.6569926e-38 327 278
0.0096924258 0.69099998 -0.046039023 1.6476648e-38 328 278
0.010888199 0.69 -0.045972396 1.6107866e-38 329 278
0.012062933 0.68800002 -0.045839146 1.5647596e-38 330 278
0.013269227 0.68800002 -0.045839146 1.5370651e-38 331 278
0.014475521 0.68800002 -0.045839146 1.5186255e-38 332 278
0.015681813 0.68800002 -0.045839146 1.4725637e-38 333 278
0.016888106 0.68800002 -0.045839146 1.3894817e-38 334 278
0.018068098 0.68699998 -0.045772515 1.297322e-38 335 278
0.019272638 0.68699998 -0.045772515 1.2789937e-38 336 278
0.020477179 0.68699998 -0.045772515 1.3250914e-38 337 278
0.021681719 0.68699998 -0.045772515 1.3161243e-38 338 278
0.022886258 0.68699998 -0.045772515 1.343747e-38 339 278
0.024090799 0.68699998 -0.045772515 1.343747e-38 340 278
0.025295338 0.68699998 -0.045772515 1.3530026e-38 341 278
0.026499879 0.68699998 -0.045772515 1.3712252e-38 342 278
0.027704418 0.68699998 -0.045772515 1.3527502e-38 343 278
0.028908957 0.68699998 -0.045772515 1.3527133e-38 344 278
0.030113498 0.68699998 -0.045772515 1.3434938e-38 345 278
0.031318039 0.68699998 -0.045772515 1.3343091e-38 346 278
0.032569919 0.68800002 -0.045839146 1.31587e-38 347 278
0.033776212 0.68800002 -0.045839146 1.3066504e-38 348 278
0.03498251 0.68800002 -0.045839146 1.3066504e-38 349 278
0.036293998 0.69 -0.045972396 1.2882839e-38 350 278
0.037503798 0.69 -0.045972396 1.2790643e-38 351 278
0.038713597 0.69 -0.045972396 1.2697021e-38 352 278
0.0399234 0.69 -0.045972396 1.2697021e-38 353 278
0.041192811 0.69099998 -0.046039023 1.2054185e-38 354 278
0.042404365 0.69099998 -0.046039023 1.2146382e-38 355 278
0.043742158 0.69300002 -0.04617228 1.1505334e-38 356 278
0.045022093 0.69400001 -0.046238903 1.1413139e-38 357 278
0.046238903 0.69400001 -0.046238903 1.1412783e-38 358 278
0.047592476 0.69599998 -0.046372157 1.1320586e-38 359 278
0.048882935 0.69700003 -0.046438783 1.1137991e-38 360 278
0.050176892 0.69800001 -0.046505414 1.1137991e-38 361 278
0.051547997 0.69999999 -0.046638668 1.1138344e-38 362 278
0.052775331 0.69999999 -0.046638668 1.0954312e-38 363 278
0.054079808 0.70099998 -0.046705291 1.1136908e-38 364 278
0.0554667 0.70300001 -0.046838548 1.1136908e-38 365 278
0.056699295 0.70300001 -0.046838548 1.0954328e-38 366 278
0.058014292 0.704 -0.046905171 1.0124208e-38 367 278
0.059416957 0.70599997 -0.047038425 1.1420376e-38 368 278
0.060740728 0.70700002 -0.047105055 1.6768082e-38 369 278
0.061980337 0.70700002 -0.047105055 1.7608659e-38 370 278
-0.0124662 0.71100003 -0.048618179 1.5756044e-38 310 279
-0.011203799 0.70999998 -0.048549797 1.4465306e-38 311 279
-0.0099168532 0.70700002 -0.048344657 1.6205808e-38 312 279
-0.0086649731 0.70599997 -0.048276275 1.6390201e-38 313 279
-0.0074060797 0.704 -0.048139516 1.657277e-38 314 279
-0.0061629666 0.70300001 -0.048071139 1.638838e-38 315 279
-0.0049163462 0.70099998 -0.047934376 1.6662799e-38 316 279
-0.0036872597 0.70099998 -0.047934376 1.6754995e-38 317 279
-0.0024546667 0.69999999 -0.047865998 1.6754289e-38 318 279
-0.0012238267 0.69800001 -0.047729239 1.6939039e-38 319 279
0 0.69700003 -0.047660861 1.6663541e-38 320 279
0.0012203199 0.69599998 -0.047592476 1.6940128e-38 321 279
0.0024336267 0.69400001 -0.047455717 1.6664262e-38 322 279
0.0036504399 0.69400001 -0.047455717 1.6848655e-38 323 279
0.00486024 0.69300002 -0.047387339 1.6939424e-38 324 279
0.0060753003 0.69300002 -0.047387339 1.6662837e-38 325 279
0.0072903596 0.69300002 -0.047387339 1.647773e-38 326 279
0.008480873 0.69099998 -0.047250576 1.6385176e-38 327 279
0.0096783992 0.69 -0.047182199 1.6384085e-38 328 279
0.010856641 0.68800002 -0.047045439 1.6199335e-38 329 279
0.012062933 0.68800002 -0.047045439 1.564795e-38 330 279
0.013269227 0.68800002 -0.047045439 1.5371004e-38 331 279
0.014475521 0.68800002 -0.047045439 1.5002943e-38 332 279
0.015681813 0.68800002 -0.047045439 1.4726356e-38 333 279
0.016888106 0.68800002 -0.047045439 1.3526756e-38 334 279
0.018068098 0.68699998 -0.046977058 1.260516e-38 335 279
0.019272638 0.68699998 -0.046977058 1.1501718e-38 336 279
0.020477179 0.68699998 -0.046977058 1.168611e-38 337 279
0.021681719 0.68699998 -0.046977058 1.1319849e-38 338 279
0.022886258 0.68699998 -0.046977058 1.1504239e-38 339 279
0.024055731 0.68599999 -0.046908677 1.2974331e-38 340 279
0.025258519 0.68599999 -0.046908677 1.3066527e-38 341 279
0.026461305 0.68599999 -0.046908677 1.3343108e-38 342 279
0.027664091 0.68599999 -0.046908677 1.3343108e-38 343 279
0.028908957 0.68699998 -0.046977058 1.3526406e-38 344 279
0.030113498 0.68699998 -0.046977058 1.3618602e-38 345 279
0.031318039 0.68699998 -0.046977058 1.3434564e-38 346 279
0.032569919 0.68800002 -0.047045439 1.3157978e-38 347 279
0.033776212 0.68800002 -0.047045439 1.3066501e-38 348 279
0.03498251 0.68800002 -0.047045439 1.288247e-38 349 279
0.0361888 0.68800002 -0.047045439 1.2697725e-38 350 279
0.037503798 0.69 -0.047182199 1.2605529e-38 351 279
0.038713597 0.69 -0.047182199 1.2329315e-38 352 279
0.0399234 0.69 -0.047182199 1.2329315e-38 353 279
0.041133199 0.69 -0.047182199 1.1686476e-38 354 279
0.042342998 0.69 -0.047182199 1.1871226e-38 355 279
0.043615919 0.69099998 -0.047250576 1.1320583e-38 356 279
0.044957221 0.69300002 -0.047387339 1.1413139e-38 357 279
0.04617228 0.69300002 -0.047387339 1.1230187e-38 358 279
0.047592476 0.69599998 -0.047592476 1.1322382e-38 359 279
0.048882935 0.69700003 -0.047660861 1.0864278e-38 360 279
0.050176892 0.69800001 -0.047729239 1.0772083e-38 361 279
0.051400717 0.69800001 -0.047729239 1.1046874e-38 362 279
0.052775331 0.69999999 -0.047865998 1.1046874e-38 363 279
0.054079808 0.70099998 -0.047934376 1.1137627e-38 364 279
0.055308893 0.70099998 -0.047934376 1.1045072e-38 365 279
0.056537982 0.70099998 -0.047934376 1.1229824e-38 366 279
0.057767071 0.70099998 -0.047934376 1.0860681e-38 367 279
0.059248637 0.704 -0.048139516 1.1510764e-38 368 279
0.060654808 0.70599997 -0.048276275 1.5843599e-38 369 279
0.061892662 0.70599997 -0.048276275 1.6780699e-38 370 279
-0.01371282 0.71100003 -0.049864799 1.631898e-38 309 280
-0.0124662 0.71100003 -0.049864799 1.5292886e-38 310 280
-0.011203799 0.70999998 -0.049794663 1.437129e-38 311 280
-0.0099168532 0.70700002 -0.049584266 1.6114313e-38 312 280
-0.0086649731 0.70599997 -0.04951413 1.6114313e-38 313 280
-0.0074060797 0.704 -0.049373865 1.6022115e-38 314 280
-0.0061454331 0.70099998 -0.049163464 1.5745888e-38 315 280
-0.0049163462 0.70099998 -0.049163464 1.6294755e-38 316 280
-0.0036819996 0.69999999 -0.049093332 1.6294755e-38 317 280
-0.0024476533 0.69800001 -0.048953064 1.6385882e-38 318 280
-0.0012238267 0.69800001 -0.048953064 1.6478077e-38 319 280
0 0.69700003 -0.048882935 1.6385531e-38 320 280
0.0012203199 0.69599998 -0.048812799 1.6477727e-38 321 280
0.0024336267 0.69400001 -0.048672531 1.6295502e-38 322 280
0.0036451798 0.69300002 -0.048602402 1.6387698e-38 323 280
0.00486024 0.69300002 -0.048602402 1.6388415e-38 324 280
0.0060577663 0.69099998 -0.04846213 1.6112187e-38 325 280
0.0072693196 0.69099998 -0.04846213 1.6294055e-38 326 280
0.0084686 0.69 -0.048391998 1.5925272e-38 327 280
0.0096783992 0.69 -0.048391998 1.601567e-38 328 280
0.010856641 0.68800002 -0.048251733 1.5647246e-38 329 280
0.012062933 0.68800002 -0.048251733 1.5463205e-38 330 280
0.013269227 0.68800002 -0.048251733 1.5278455e-38 331 280
0.014475521 0.68800002 -0.048251733 1.4911101e-38 332 280
0.015681813 0.68800002 -0.048251733 1.4450124e-38 333 280
0.01686356 0.68699998 -0.048181597 1.3526756e-38 334 280
0.018068098 0.68699998 -0.048181597 1.2973583e-38 335 280
0.019272638 0.68699998 -0.048181597 1.2236063e-38 336 280
0.020477179 0.68699998 -0.048181597 1.2143867e-38 337 280
0.021650158 0.68599999 -0.048111461 1.1319148e-38 338 280
0.022852944 0.68599999 -0.048111461 1.1503179e-38 339 280
0.024055731 0.68599999 -0.048111461 1.2147817e-38 340 280
0.025258519 0.68599999 -0.048111461 1.2331848e-38 341 280
0.026461305 0.68599999 -0.048111461 1.2883207e-38 342 280
0.027664091 0.68599999 -0.048111461 1.2975403e-38 343 280
0.028908957 0.68699998 -0.048181597 1.2607344e-38 344 280
0.030113498 0.68699998 -0.048181597 1.2699539e-38 345 280
0.031318039 0.68699998 -0.048181597 1.2698818e-38 346 280
0.032522578 0.68699998 -0.048181597 1.2698818e-38 347 280
0.033776212 0.68800002 -0.048251733 1.2698092e-38 348 280
0.03498251 0.68800002 -0.048251733 1.2698092e-38 349 280
0.0361888 0.68800002 -0.048251733 1.2697371e-38 350 280
0.037503798 0.69 -0.048391998 1.2605176e-38 351 280
0.038713597 0.69 -0.048391998 1.2512274e-38 352 280
0.0399234 0.69 -0.048391998 1.2420078e-38 353 280
0.041133199 0.69 -0.048391998 1.1502813e-38 354 280
0.042342998 0.69 -0.048391998 1.1595009e-38 355 280
0.043615919 0.69099998 -0.04846213 1.1137274e-38 356 280
0.044957221 0.69300002 -0.048602402 1.1229471e-38 357 280
0.04617228 0.69300002 -0.048602402 1.1046874e-38 358 280
0.047455717 0.69400001 -0.048672531 1.113907e-38 359 280
0.048672531 0.69400001 -0.048672531 1.1322735e-38 360 280
0.050105009 0.69700003 -0.048882935 1.123054e-38 361 280
0.051400717 0.69800001 -0.048953064 1.1229824e-38 362 280
0.052624546 0.69800001 -0.048953064 1.1229824e-38 363 280
0.054002665 0.69999999 -0.049093332 1.1137274e-38 364 280
0.055229999 0.69999999 -0.049093332 1.1045078e-38 365 280
0.056457333 0.69999999 -0.049093332 1.0954326e-38 366 280
0.05768466 0.69999999 -0.049093332 1.0954326e-38 367 280
0.058911994 0.69999999 -0.049093332 1.1232027e-38 368 280
0.060139328 0.69999999 -0.049093332 1.4827655e-38 369 280
0.061366666 0.69999999 -0.049093332 1.6595949e-38 370 280
0.062593997 0.69999999 -0.049093332 1.8716807e-38 371 280
-0.01371282 0.71100003 -0.051111419 1.6040595e-38 309 281
-0.0124662 0.71100003 -0.051111419 1.5200693e-38 310 281
-0.011203799 0.70999998 -0.051039528 1.4371292e-38 311 281
-0.0099028256 0.70599997 -0.050751984 1.6020692e-38 312 281
-0.0086404262 0.704 -0.050608214 1.6020692e-38 313 281
-0.0074060797 0.704 -0.050608214 1.5928128e-38 314 281
-0.0061454331 0.70099998 -0.050392549 1.5743735e-38 315 281
-0.0049163462 0.70099998 -0.050392549 1.6201118e-38 316 281
-0.0036819996 0.69999999 -0.050320663 1.6293313e-38 317 281
-0.0024476533 0.69800001 -0.050176892 1.638443e-38 318 281
-0.0012238267 0.69800001 -0.050176892 1.638443e-38 319 281
0 0.69700003 -0.050105009 1.6475912e-38 320 281
0.0012203199 0.69599998 -0.050033119 1.6475912e-38 321 281
0.0024336267 0.69400001 -0.049889345 1.6201489e-38 322 281
0.0036451798 0.69300002 -0.049817458 1.6293685e-38 323 281
0.00486024 0.69300002 -0.049817458 1.6018177e-38 324 281
0.0060577663 0.69099998 -0.049673684 1.5925623e-38 325 281
0.0072693196 0.69099998 -0.049673684 1.5923827e-38 326 281
0.0084686 0.69 -0.049601797 1.5647599e-38 327 281
0.0096503468 0.68800002 -0.049458027 1.5737994e-38 328 281
0.010856641 0.68800002 -0.049458027 1.5553603e-38 329 281
0.012062933 0.68800002 -0.049458027 1.5368133e-38 330 281
0.013269227 0.68800002 -0.049458027 1.5275937e-38 331 281
0.014475521 0.68800002 -0.049458027 1.5000429e-38 332 281
0.015659019 0.68699998 -0.049386136 1.4539451e-38 333 281
0.01686356 0.68699998 -0.049386136 1.3709706e-38 334 281
0.018068098 0.68699998 -0.049386136 1.3156532e-38 335 281
0.019272638 0.68699998 -0.049386136 1.1961255e-38 336 281
0.020477179 0.68699998 -0.049386136 1.1776863e-38 337 281
0.021650158 0.68599999 -0.049314249 1.1778309e-38 338 281
0.022852944 0.68599999 -0.049314249 1.2146731e-38 339 281
0.024055731 0.68599999 -0.049314249 1.2607691e-38 340 281
0.025184879 0.68400002 -0.049170479 1.2700245e-38 341 281
0.02638416 0.68400002 -0.049170479 1.279064e-38 342 281
0.027664091 0.68599999 -0.049314249 1.2422217e-38 343 281
0.028908957 0.68699998 -0.049386136 1.241971e-38 344 281
0.030113498 0.68699998 -0.049386136 1.260446e-38 345 281
0.031318039 0.68699998 -0.049386136 1.2604457e-38 346 281
0.032522578 0.68699998 -0.049386136 1.2972881e-38 347 281
0.033727121 0.68699998 -0.049386136 1.2606248e-38 348 281
0.034931656 0.68699998 -0.049386136 1.2606248e-38 349 281
0.0361888 0.68800002 -0.049458027 1.2422217e-38 350 281
0.037395094 0.68800002 -0.049458027 1.2422217e-38 351 281
0.038601387 0.68800002 -0.049458027 1.2237119e-38 352 281
0.039807681 0.68800002 -0.049458027 1.2144923e-38 353 281
0.041133199 0.69 -0.049601797 1.1410971e-38 354 281
0.042342998 0.69 -0.049601797 1.1410971e-38 355 281
0.043552797 0.69 -0.049601797 1.122695e-38 356 281
0.044957221 0.69300002 -0.049817458 1.1503535e-38 357 281
0.04617228 0.69300002 -0.049817458 1.1229468e-38 358 281
0.047387339 0.69300002 -0.049817458 1.1598249e-38 359 281
0.048672531 0.69400001 -0.049889345 1.1322382e-38 360 281
0.050033119 0.69599998 -0.050033119 1.1230187e-38 361 281
0.051327083 0.69700003 -0.050105009 1.1230192e-38 362 281
0.052549154 0.69700003 -0.050105009 1.0953605e-38 363 281
0.053848371 0.69800001 -0.050176892 1.1044725e-38 364 281
0.055229999 0.69999999 -0.050320663 1.1044725e-38 365 281
0.056457333 0.69999999 -0.050320663 1.0953608e-38 366 281
0.05768466 0.69999999 -0.050320663 1.1137641e-38 367 281
0.058911994 0.69999999 -0.050320663 1.0864676e-38 368 281
0.060139328 0.69999999 -0.050320663 1.3261402e-38 369 281
0.061366666 0.69999999 -0.050320663 1.6317557e-38 370 281
0.062593997 0.69999999 -0.050320663 1.8991231e-38 371 281
-0.013693533 0.70999998 -0.052284397 1.5671089e-38 309 282
-0.012448666 0.70999998 -0.052284397 1.492411e-38 310 282
-0.01117224 0.708 -0.052137118 1.4094348e-38 311 282
-0.0099028256 0.70599997 -0.051989835 1.5653001e-38 312 282
-0.0086404262 0.704 -0.051842559 1.5560806e-38 313 282
-0.0073745195 0.70099998 -0.051621638 1.555972e-38 314 282
-0.0061454331 0.70099998 -0.051621638 1.5467165e-38 315 282
-0.0049093333 0.69999999 -0.051547997 1.5742666e-38 316 282
-0.0036819996 0.69999999 -0.051547997 1.5742666e-38 317 282
-0.0024476533 0.69800001 -0.051400717 1.5925978e-38 318 282
-0.0012220733 0.69700003 -0.051327083 1.5741228e-38 319 282
0 0.69599998 -0.051253434 1.5832708e-38 320 282
0.0012168133 0.69400001 -0.051106159 1.5924904e-38 321 282
0.0024336267 0.69400001 -0.051106159 1.5833074e-38 322 282
0.0036451798 0.69300002 -0.051032521 1.5740878e-38 323 282
0.00486024 0.69300002 -0.051032521 1.5648329e-38 324 282
0.0060577663 0.69099998 -0.050885238 1.5372101e-38 325 282
0.0072587994 0.69 -0.050811596 1.5369584e-38 326 282
0.0084440531 0.68800002 -0.050664321 1.5369584e-38 327 282
0.0096503468 0.68800002 -0.050664321 1.5185189e-38 328 282
0.010856641 0.68800002 -0.050664321 1.5092993e-38 329 282
0.012062933 0.68800002 -0.050664321 1.4908599e-38 330 282
0.013269227 0.68800002 -0.050664321 1.4724568e-38 331 282
0.014475521 0.68800002 -0.050664321 1.463237e-38 332 282
0.015659019 0.68699998 -0.050590675 1.4263227e-38 333 282
0.01686356 0.68699998 -0.050590675 1.3802608e-38 334 282
0.018041799 0.68599999 -0.050517038 1.3341631e-38 335 282
0.019244585 0.68599999 -0.050517038 1.2604807e-38 336 282
0.020447372 0.68599999 -0.050517038 1.2512612e-38 337 282
0.021650158 0.68599999 -0.050517038 1.2422229e-38 338 282
0.022852944 0.68599999 -0.050517038 1.2883207e-38 339 282
0.024055731 0.68599999 -0.050517038 1.3342741e-38 340 282
0.025184879 0.68400002 -0.050369758 1.2881764e-38 341 282
0.02638416 0.68400002 -0.050369758 1.2697371e-38 342 282
0.027664091 0.68599999 -0.050517038 1.2420784e-38 343 282
