# .PCD v.7 - Point Cloud Data file format
FIELDS x y z rgb imX imY
SIZE 4 4 4 4 4 4
TYPE F F F F F F
COUNT 1 1 1 1 1 1
WIDTH 838
HEIGHT 1
VIEWPOINT 0 0 0 1 0 0 0
POINTS 838
DATA ascii
0.046638668 0.69999999 -0.038047329 1.4190924e-38 358 271
-0.014854239 0.70599997 -0.039611302 1.6493269e-38 308 272
-0.013616386 0.70599997 -0.039611302 1.4925943e-38 309 272
-0.012378532 0.70599997 -0.039611302 1.6755052e-38 310 272
-0.011140679 0.70599997 -0.039611302 1.7031998e-38 311 272
-0.0098747732 0.704 -0.039499093 1.739896e-38 312 272
-0.0086404262 0.704 -0.039499093 1.7306765e-38 313 272
-0.0074060797 0.704 -0.039499093 1.7307115e-38 314 272
-0.0061629666 0.70300001 -0.039442986 1.7214919e-38 315 272
-0.0049163462 0.70099998 -0.039330769 1.730604e-38 316 272
-0.0036872597 0.70099998 -0.039330769 1.7029452e-38 317 272
-0.0024546667 0.69999999 -0.039274666 1.7028748e-38 318 272
-0.0012238267 0.69800001 -0.039162453 1.7028748e-38 319 272
0 0.69599998 -0.039050236 1.7028398e-38 320 272
0.0012168133 0.69400001 -0.038938027 1.6936203e-38 321 272
0.0024336267 0.69400001 -0.038938027 1.6660339e-38 322 272
0.0036504399 0.69400001 -0.038938027 1.6660339e-38 323 272
0.00486024 0.69300002 -0.03888192 1.6569585e-38 324 272
0.0060753003 0.69300002 -0.03888192 1.6569585e-38 325 272
0.0072693196 0.69099998 -0.038769703 1.6662854e-38 326 272
0.0084686 0.69 -0.038713597 1.6662854e-38 327 272
0.0096503468 0.68800002 -0.038601387 1.6663207e-38 328 272
0.010856641 0.68800002 -0.038601387 1.6386979e-38 329 272
0.012097999 0.69 -0.038713597 1.5557228e-38 330 272
0.0133078 0.69 -0.038713597 1.5188806e-38 331 272
0.014517599 0.69 -0.038713597 1.5188818e-38 332 272
0.015727401 0.69 -0.038713597 1.5373568e-38 333 272
0.0169372 0.69 -0.038713597 1.5465764e-38 334 272
0.0181733 0.69099998 -0.038769703 1.5926383e-38 335 272
0.01944096 0.69300002 -0.03888192 1.6019654e-38 336 272
0.020656019 0.69300002 -0.03888192 1.6111849e-38 337 272
0.021871079 0.69300002 -0.03888192 1.6019304e-38 338 272
0.02308614 0.69300002 -0.03888192 1.5558327e-38 339 272
0.024301201 0.69300002 -0.03888192 1.5188102e-38 340 272
0.02551626 0.69300002 -0.03888192 1.5280298e-38 341 272
0.02673132 0.69300002 -0.03888192 1.4543799e-38 342 272
0.027946379 0.69300002 -0.03888192 1.3990984e-38 343 272
0.029161438 0.69300002 -0.03888192 1.5000817e-38 344 272
0.030420333 0.69400001 -0.038938027 1.5553991e-38 345 272
0.031637147 0.69400001 -0.038938027 1.5186282e-38 346 272
0.032853961 0.69400001 -0.038938027 1.5094086e-38 347 272
0.034070771 0.69400001 -0.038938027 1.5369229e-38 348 272
0.035287585 0.69400001 -0.038938027 1.5369229e-38 349 272
0.036609598 0.69599998 -0.039050236 1.5370303e-38 350 272
0.037884273 0.69700003 -0.039106347 1.5278108e-38 351 272
0.039106347 0.69700003 -0.039106347 1.5185909e-38 352 272
0.040328421 0.69700003 -0.039106347 1.5185909e-38 353 272
0.041610107 0.69800001 -0.039162453 1.5001526e-38 354 272
0.042833932 0.69800001 -0.039162453 1.4816776e-38 355 272
0.044183996 0.69999999 -0.039274666 1.4631329e-38 356 272
0.04541133 0.69999999 -0.039274666 1.4631329e-38 357 272
0.046838548 0.70300001 -0.039442986 1.2708585e-38 358 272
0.048071139 0.70300001 -0.039442986 1.6303855e-38 359 272
-0.016092092 0.70599997 -0.040849157 1.7239504e-38 307 273
-0.014854239 0.70599997 -0.040849157 1.5472967e-38 308 273
-0.013616386 0.70599997 -0.040849157 1.4919794e-38 309 273
-0.012378532 0.70599997 -0.040849157 1.6940853e-38 310 273
-0.011109119 0.704 -0.040733438 1.7033049e-38 311 273
-0.0098747732 0.704 -0.040733438 1.7306759e-38 312 273
-0.0086404262 0.704 -0.040733438 1.7306759e-38 313 273
-0.0073955595 0.70300001 -0.040675577 1.758226e-38 314 273
-0.0061454331 0.70099998 -0.040559858 1.7397509e-38 315 273
-0.0049093333 0.69999999 -0.040502001 1.730496e-38 316 273
-0.0036819996 0.69999999 -0.040502001 1.7028733e-38 317 273
-0.0024406398 0.69599998 -0.040270556 1.6660689e-38 318 273
-0.0012203199 0.69599998 -0.040270556 1.6752885e-38 319 273
0 0.69400001 -0.040154841 1.6476671e-38 320 273
0.0012168133 0.69400001 -0.040154841 1.6476671e-38 321 273
0.00243012 0.69300002 -0.04009698 1.6292282e-38 322 273
0.0036451798 0.69300002 -0.04009698 1.6384478e-38 323 273
0.0048462129 0.69099998 -0.039981257 1.62026e-38 324 273
0.0060577663 0.69099998 -0.039981257 1.6294796e-38 325 273
0.0072587994 0.69 -0.0399234 1.6570657e-38 326 273
0.0084440531 0.68800002 -0.039807681 1.6662854e-38 327 273
0.0096503468 0.68800002 -0.039807681 1.6205106e-38 328 273
0.010856641 0.68800002 -0.039807681 1.6297302e-38 329 273
0.012097999 0.69 -0.0399234 1.602071e-38 330 273
0.013269227 0.68800002 -0.039807681 1.5467537e-38 331 273
0.014475521 0.68800002 -0.039807681 1.5373919e-38 332 273
0.015681813 0.68800002 -0.039807681 1.5466114e-38 333 273
0.0169372 0.69 -0.0399234 1.5373578e-38 334 273
0.018146999 0.69 -0.0399234 1.555833e-38 335 273
0.019384852 0.69099998 -0.039981257 1.5650175e-38 336 273
0.020596405 0.69099998 -0.039981257 1.5742371e-38 337 273
0.021807959 0.69099998 -0.039981257 1.5374661e-38 338 273
0.023019511 0.69099998 -0.039981257 1.5005519e-38 339 273
0.024231065 0.69099998 -0.039981257 1.5188821e-38 340 273
0.025442619 0.69099998 -0.039981257 1.4635647e-38 341 273
0.02673132 0.69300002 -0.04009698 1.417359e-38 342 273
0.027946379 0.69300002 -0.04009698 1.3067601e-38 343 273
0.029161438 0.69300002 -0.04009698 1.3438529e-38 344 273
0.0303765 0.69300002 -0.04009698 1.4268291e-38 345 273
0.031591557 0.69300002 -0.04009698 1.4543789e-38 346 273
0.03280662 0.69300002 -0.04009698 1.4359038e-38 347 273
0.034021679 0.69300002 -0.04009698 1.4726026e-38 348 273
0.035236739 0.69300002 -0.04009698 1.4818581e-38 349 273
0.036451802 0.69300002 -0.04009698 1.5001891e-38 350 273
0.037721213 0.69400001 -0.040154841 1.5001891e-38 351 273
0.039050236 0.69599998 -0.040270556 1.5185559e-38 352 273
0.040328421 0.69700003 -0.040328421 1.5001526e-38 353 273
0.041550495 0.69700003 -0.040328421 1.4817498e-38 354 273
0.042833932 0.69800001 -0.040386278 1.4725302e-38 355 273
0.044183996 0.69999999 -0.040502001 1.4540931e-38 356 273
0.045476202 0.70099998 -0.040559858 1.435654e-38 357 273
0.046838548 0.70300001 -0.040675577 1.2332962e-38 358 273
0.048071139 0.70300001 -0.040675577 1.4730409e-38 359 273
0.049303733 0.70300001 -0.040675577 1.7239156e-38 360 273
-0.017329946 0.70599997 -0.042087011 1.7237323e-38 306 274
-0.016092092 0.70599997 -0.042087011 1.4932074e-38 307 274
-0.014854239 0.70599997 -0.042087011 1.5559749e-38 308 274
-0.013616386 0.70599997 -0.042087011 1.6021087e-38 309 274
-0.012343466 0.704 -0.041967787 1.7124519e-38 310 274
-0.011109119 0.704 -0.041967787 1.7032323e-38 311 274
-0.0098747732 0.704 -0.041967787 1.7307115e-38 312 274
-0.0086281532 0.70300001 -0.041908171 1.7307115e-38 313 274
-0.0073955595 0.70300001 -0.041908171 1.7398589e-38 314 274
-0.0061454331 0.70099998 -0.041788943 1.7306393e-38 315 274
-0.0049093333 0.69999999 -0.041729331 1.6938688e-38 316 274
-0.0036714801 0.69800001 -0.041610107 1.6753938e-38 317 274
-0.0024336267 0.69400001 -0.041371655 1.6478093e-38 318 274
-0.0012168133 0.69400001 -0.041371655 1.6662843e-38 319 274
0 0.69400001 -0.041371655 1.6387348e-38 320 274
0.00121506 0.69300002 -0.041312039 1.6202598e-38 321 274
0.0024231065 0.69099998 -0.041192811 1.6202235e-38 322 274
0.0036346598 0.69099998 -0.041192811 1.6110039e-38 323 274
0.0048391996 0.69 -0.041133199 1.6202232e-38 324 274
0.0060489997 0.69 -0.041133199 1.6386623e-38 325 274
0.0072587994 0.69 -0.041133199 1.6295146e-38 326 274
0.0084440531 0.68800002 -0.041013971 1.6295146e-38 327 274
0.0096363192 0.68699998 -0.040954359 1.6295146e-38 328 274
0.010840859 0.68699998 -0.040954359 1.6572093e-38 329 274
0.012062933 0.68800002 -0.041013971 1.5837408e-38 330 274
0.013269227 0.68800002 -0.041013971 1.537679e-38 331 274
0.014475521 0.68800002 -0.041013971 1.5190969e-38 332 274
0.015681813 0.68800002 -0.041013971 1.5006578e-38 333 274
0.016888106 0.68800002 -0.041013971 1.5097705e-38 334 274
0.0180944 0.68800002 -0.041013971 1.4912955e-38 335 274
0.019356798 0.69 -0.041133199 1.5461458e-38 336 274
0.020566599 0.69 -0.041133199 1.5461458e-38 337 274
0.021776399 0.69 -0.041133199 1.4911888e-38 338 274
0.022986198 0.69 -0.041133199 1.4819691e-38 339 274
0.024195999 0.69 -0.041133199 1.4818607e-38 340 274
0.025405798 0.69 -0.041133199 1.4450184e-38 341 274
0.026654173 0.69099998 -0.041192811 1.3620419e-38 342 274
0.027865725 0.69099998 -0.041192811 1.297505e-38 343 274
0.029077278 0.69099998 -0.041192811 1.2975053e-38 344 274
0.0303765 0.69300002 -0.041312039 1.3159445e-38 345 274
0.031500384 0.69099998 -0.041192811 1.3344911e-38 346 274
0.032711938 0.69099998 -0.041192811 1.3805531e-38 347 274
0.033923492 0.69099998 -0.041192811 1.4814275e-38 348 274
0.035135046 0.69099998 -0.041192811 1.5183416e-38 349 274
0.036451802 0.69300002 -0.041312039 1.5001526e-38 350 274
0.037666857 0.69300002 -0.041312039 1.5001526e-38 351 274
0.038938027 0.69400001 -0.041371655 1.4909325e-38 352 274
0.040154841 0.69400001 -0.041371655 1.5001521e-38 353 274
0.041490879 0.69599998 -0.041490879 1.4450871e-38 354 274
0.042772565 0.69700003 -0.041550495 1.4358675e-38 355 274
0.04405776 0.69800001 -0.041610107 1.4449088e-38 356 274
0.04541133 0.69999999 -0.041729331 1.4541284e-38 357 274
0.046838548 0.70300001 -0.041908171 1.2882525e-38 358 274
0.048071139 0.70300001 -0.041908171 1.4081067e-38 359 274
0.049303733 0.70300001 -0.041908171 1.5392357e-38 360 274
-0.017329946 0.70599997 -0.043324865 1.5850052e-38 306 275
-0.016092092 0.70599997 -0.043324865 1.3913944e-38 307 275
-0.014854239 0.70599997 -0.043324865 1.6111459e-38 308 275
-0.013577812 0.704 -0.043202132 1.6572797e-38 309 275
-0.012343466 0.704 -0.043202132 1.7123797e-38 310 275
-0.011109119 0.704 -0.043202132 1.7031602e-38 311 275
-0.0098607466 0.70300001 -0.043140765 1.7306393e-38 312 275
-0.0085913334 0.69999999 -0.042956665 1.7306393e-38 313 275
-0.0073429602 0.69800001 -0.042833932 1.7306749e-38 314 275
-0.006119133 0.69800001 -0.042833932 1.7306749e-38 315 275
-0.0048812795 0.69599998 -0.042711195 1.6845784e-38 316 275
-0.0036504399 0.69400001 -0.042588469 1.6200414e-38 317 275
-0.0024336267 0.69400001 -0.042588469 1.5649073e-38 318 275
-0.00121506 0.69300002 -0.042527102 1.5741269e-38 319 275
0 0.69300002 -0.042527102 1.5653395e-38 320 275
0.00121506 0.69300002 -0.042527102 1.5561199e-38 321 275
0.0024231065 0.69099998 -0.042404365 1.629443e-38 322 275
0.0036346598 0.69099998 -0.042404365 1.6202235e-38 323 275
0.0048391996 0.69 -0.042342998 1.6202235e-38 324 275
0.0060489997 0.69 -0.042342998 1.6202235e-38 325 275
0.0072377604 0.68800002 -0.042220265 1.5834538e-38 326 275
0.0084440531 0.68800002 -0.042220265 1.5742342e-38 327 275
0.0096363192 0.68699998 -0.042158898 1.555796e-38 328 275
0.010840859 0.68699998 -0.042158898 1.5834188e-38 329 275
0.012062933 0.68800002 -0.042220265 1.5373568e-38 330 275
0.013249939 0.68699998 -0.042158898 1.5281014e-38 331 275
0.014454478 0.68699998 -0.042158898 1.5188821e-38 332 275
0.015659019 0.68699998 -0.042158898 1.4912236e-38 333 275
0.01686356 0.68699998 -0.042158898 1.4819688e-38 334 275
0.0180944 0.68800002 -0.042220265 1.4543101e-38 335 275
0.019300694 0.68800002 -0.042220265 1.4724623e-38 336 275
0.020506985 0.68800002 -0.042220265 1.4816818e-38 337 275
0.021713281 0.68800002 -0.042220265 1.4635297e-38 338 275
0.022986198 0.69 -0.042342998 1.4450906e-38 339 275
0.024195999 0.69 -0.042342998 1.4358335e-38 340 275
0.025405798 0.69 -0.042342998 1.3897717e-38 341 275
0.026615599 0.69 -0.042342998 1.3529656e-38 342 275
0.027825398 0.69 -0.042342998 1.2976483e-38 343 275
0.029035198 0.69 -0.042342998 1.2606643e-38 344 275
0.030288832 0.69099998 -0.042404365 1.2606643e-38 345 275
0.031500384 0.69099998 -0.042404365 1.297543e-38 346 275
0.032711938 0.69099998 -0.042404365 1.3343852e-38 347 275
0.033923492 0.69099998 -0.042404365 1.3987763e-38 348 275
0.035135046 0.69099998 -0.042404365 1.4172155e-38 349 275
0.036346599 0.69099998 -0.042404365 1.4631679e-38 350 275
0.03755815 0.69099998 -0.042404365 1.4631679e-38 351 275
0.03888192 0.69300002 -0.042527102 1.4449439e-38 352 275
0.04009698 0.69300002 -0.042527102 1.4541634e-38 353 275
0.041371655 0.69400001 -0.042588469 1.4358675e-38 354 275
0.042772565 0.69700003 -0.042772565 1.4358675e-38 355 275
0.04405776 0.69800001 -0.042833932 1.4265773e-38 356 275
0.045281585 0.69800001 -0.042833932 1.4265773e-38 357 275
0.046705291 0.70099998 -0.043018032 1.3618997e-38 358 275
0.047934376 0.70099998 -0.043018032 1.3434606e-38 359 275
0.049163464 0.70099998 -0.043018032 1.382106e-38 360 275
-0.018567799 0.70599997 -0.044562716 1.7792327e-38 305 276
-0.017329946 0.70599997 -0.044562716 1.4739011e-38 306 276
-0.016092092 0.70599997 -0.044562716 1.4001446e-38 307 276
-0.014812159 0.704 -0.044436477 1.6572064e-38 308 276
-0.013577812 0.704 -0.044436477 1.666426e-38 309 276
-0.012325933 0.70300001 -0.04437336 1.6939039e-38 310 276
-0.011061779 0.70099998 -0.044247117 1.6846843e-38 311 276
-0.0098186666 0.69999999 -0.044183996 1.7029802e-38 312 276
-0.0085667865 0.69800001 -0.04405776 1.7029802e-38 313 276
-0.00733244 0.69700003 -0.043994639 1.7121645e-38 314 276
-0.0061015999 0.69599998 -0.043931518 1.7121645e-38 315 276
-0.0048672534 0.69400001 -0.043805279 1.6385181e-38 316 276
-0.0036504399 0.69400001 -0.043805279 1.5186638e-38 317 276
-0.00243012 0.69300002 -0.043742158 1.4726048e-38 318 276
-0.0012115532 0.69099998 -0.043615919 1.4726048e-38 319 276
0 0.69099998 -0.043615919 1.5100225e-38 320 276
0.0012115532 0.69099998 -0.043615919 1.5653041e-38 321 276
0.0024231065 0.69099998 -0.043615919 1.6110405e-38 322 276
0.0036293997 0.69 -0.043552797 1.5833819e-38 323 276
0.0048251734 0.68800002 -0.043426562 1.5924922e-38 324 276
0.0060314666 0.68800002 -0.043426562 1.5740531e-38 325 276
0.0072377604 0.68800002 -0.043426562 1.5280999e-38 326 276
0.0084440531 0.68800002 -0.043426562 1.5280999e-38 327 276
0.0096503468 0.68800002 -0.043426562 1.5096256e-38 328 276
0.010840859 0.68699998 -0.043363437 1.500406e-38 329 276
0.012045399 0.68699998 -0.043363437 1.5002991e-38 330 276
0.013249939 0.68699998 -0.043363437 1.5002991e-38 331 276
0.014454478 0.68699998 -0.043363437 1.4910808e-38 332 276
0.015659019 0.68699998 -0.043363437 1.4818612e-38 333 276
0.01686356 0.68699998 -0.043363437 1.4725342e-38 334 276
0.0180944 0.68800002 -0.043426562 1.4449114e-38 335 276
0.019300694 0.68800002 -0.043426562 1.4540227e-38 336 276
0.020506985 0.68800002 -0.043426562 1.4540227e-38 337 276
0.021713281 0.68800002 -0.043426562 1.4174675e-38 338 276
0.022919573 0.68800002 -0.043426562 1.3989925e-38 339 276
0.024125867 0.68800002 -0.043426562 1.3988127e-38 340 276
0.02533216 0.68800002 -0.043426562 1.3434953e-38 341 276
0.026615599 0.69 -0.043552797 1.334204e-38 342 276
0.027744746 0.68800002 -0.043426562 1.3065095e-38 343 276
0.028951041 0.68800002 -0.043426562 1.2514079e-38 344 276
0.030244999 0.69 -0.043552797 1.269847e-38 345 276
0.031454802 0.69 -0.043552797 1.2974328e-38 346 276
0.032664597 0.69 -0.043552797 1.3343111e-38 347 276
0.0338744 0.69 -0.043552797 1.3709732e-38 348 276
0.035084199 0.69 -0.043552797 1.3893764e-38 349 276
0.036346599 0.69099998 -0.043615919 1.4078511e-38 350 276
0.03755815 0.69099998 -0.043615919 1.4262902e-38 351 276
0.038769703 0.69099998 -0.043615919 1.3898064e-38 352 276
0.04009698 0.69300002 -0.043742158 1.399026e-38 353 276
0.041312039 0.69300002 -0.043742158 1.4083883e-38 354 276
0.042588469 0.69400001 -0.043805279 1.4083883e-38 355 276
0.043994639 0.69700003 -0.043994639 1.4266124e-38 356 276
0.045281585 0.69800001 -0.04405776 1.4173928e-38 357 276
0.046638668 0.69999999 -0.044183996 1.4080679e-38 358 276
0.047865998 0.69999999 -0.044183996 1.3895927e-38 359 276
0.049163464 0.70099998 -0.044247117 1.2523837e-38 360 276
0.050392549 0.70099998 -0.044247117 1.6949228e-38 361 276
-0.019805651 0.70599997 -0.04580057 1.8161464e-38 304 277
-0.018567799 0.70599997 -0.04580057 1.5948768e-38 305 277
-0.017329946 0.70599997 -0.04580057 1.4460259e-38 306 277
-0.016046507 0.704 -0.045670826 1.4552455e-38 307 277
-0.014812159 0.704 -0.045670826 1.6664262e-38 308 277
-0.013558527 0.70300001 -0.04560595 1.6295481e-38 309 277
-0.012290866 0.70099998 -0.045476202 1.6845055e-38 310 277
-0.011045999 0.69999999 -0.04541133 1.6661024e-38 311 277
-0.0097906133 0.69800001 -0.045281585 1.6845061e-38 312 277
-0.0085667865 0.69800001 -0.045281585 1.6660671e-38 313 277
-0.0073219193 0.69599998 -0.045151837 1.6660676e-38 314 277
-0.0060840664 0.69400001 -0.045022093 1.6660676e-38 315 277
-0.0048672534 0.69400001 -0.045022093 1.5739105e-38 316 277
-0.0036451798 0.69300002 -0.044957221 1.4540562e-38 317 277
-0.00243012 0.69300002 -0.044957221 1.389666e-38 318 277
-0.0012115532 0.69099998 -0.044827472 1.3988856e-38 319 277
0 0.69099998 -0.044827472 1.4454147e-38 320 277
0.0012097999 0.69 -0.0447626 1.4822928e-38 321 277
0.0024195998 0.69 -0.0447626 1.5647632e-38 322 277
0.0036188802 0.68800002 -0.044632856 1.5463242e-38 323 277
0.0048251734 0.68800002 -0.044632856 1.4820016e-38 324 277
0.0060314666 0.68800002 -0.044632856 1.4359038e-38 325 277
0.0072377604 0.68800002 -0.044632856 1.4726749e-38 326 277
0.0084440531 0.68800002 -0.044632856 1.491114e-38 327 277
0.0096363192 0.68699998 -0.044567976 1.4636001e-38 328 277
0.010840859 0.68699998 -0.044567976 1.4451251e-38 329 277
0.012045399 0.68699998 -0.044567976 1.454273e-38 330 277
0.013249939 0.68699998 -0.044567976 1.454273e-38 331 277
0.014454478 0.68699998 -0.044567976 1.4450184e-38 332 277
0.015659019 0.68699998 -0.044567976 1.4265791e-38 333 277
0.01686356 0.68699998 -0.044567976 1.4264717e-38 334 277
0.018068098 0.68699998 -0.044567976 1.4264717e-38 335 277
0.019272638 0.68699998 -0.044567976 1.3989206e-38 336 277
0.020477179 0.68699998 -0.044567976 1.389701e-38 337 277
0.021681719 0.68699998 -0.044567976 1.389701e-38 338 277
0.022886258 0.68699998 -0.044567976 1.3712618e-38 339 277
0.024090799 0.68699998 -0.044567976 1.36197e-38 340 277
0.025295338 0.68699998 -0.044567976 1.3343114e-38 341 277
0.026538454 0.68800002 -0.044632856 1.3065448e-38 342 277
0.027744746 0.68800002 -0.044632856 1.2789221e-38 343 277
0.028951041 0.68800002 -0.044632856 1.2697744e-38 344 277
0.030157333 0.68800002 -0.044632856 1.278994e-38 345 277
0.031363625 0.68800002 -0.044632856 1.2882851e-38 346 277
0.032664597 0.69 -0.0447626 1.2882851e-38 347 277
0.0338744 0.69 -0.0447626 1.3248041e-38 348 277
0.035084199 0.69 -0.0447626 1.306401e-38 349 277
0.036293998 0.69 -0.0447626 1.3432788e-38 350 277
0.037503798 0.69 -0.0447626 1.3709377e-38 351 277
0.038713597 0.69 -0.0447626 1.3713318e-38 352 277
0.0399234 0.69 -0.0447626 1.3805514e-38 353 277
0.041192811 0.69099998 -0.044827472 1.3899139e-38 354 277
0.042527102 0.69300002 -0.044957221 1.3899139e-38 355 277
0.043931518 0.69599998 -0.045151837 1.399026e-38 356 277
0.045216713 0.69700003 -0.045216713 1.3898064e-38 357 277
0.046505414 0.69800001 -0.045281585 1.4080676e-38 358 277
0.047865998 0.69999999 -0.04541133 1.4080676e-38 359 277
0.049093332 0.69999999 -0.04541133 1.2702468e-38 360 277
0.050320663 0.69999999 -0.04541133 1.6298456e-38 361 277
-0.021162732 0.70999998 -0.047304932 1.9453653e-38 303 278
-0.019805651 0.70599997 -0.047038425 1.7054391e-38 304 278
-0.018567799 0.70599997 -0.047038425 1.4380716e-38 305 278
-0.017280852 0.704 -0.046905171 1.4734327e-38 306 278
-0.016046507 0.704 -0.046905171 1.5287501e-38 307 278
-0.014791119 0.70300001 -0.046838548 1.6387682e-38 308 278
-0.013558527 0.70300001 -0.046838548 1.6202932e-38 309 278
-0.012273333 0.69999999 -0.046638668 1.6568477e-38 310 278
-0.011045999 0.69999999 -0.046638668 1.6476281e-38 311 278
-0.0097906133 0.69800001 -0.046505414 1.6475928e-38 312 278
-0.0085545136 0.69700003 -0.046438783 1.6475928e-38 313 278
-0.0073219193 0.69599998 -0.046372157 1.6476648e-38 314 278
-0.0060840664 0.69400001 -0.046238903 1.620042e-38 315 278
-0.00486024 0.69300002 -0.04617228 1.53696e-38 316 278
-0.0036451798 0.69300002 -0.04617228 1.4171057e-38 317 278
-0.0024231065 0.69099998 -0.046039023 1.3711916e-38 318 278
-0.0012097999 0.69 -0.045972396 1.3988503e-38 319 278
0 0.69 -0.045972396 1.3715525e-38 320 278
0.0012097999 0.69 -0.045972396 1.3900275e-38 321 278
0.0024195998 0.69 -0.045972396 1.4910452e-38 322 278
0.0036188802 0.68800002 -0.045839146 1.4818256e-38 323 278
0.0048251734 0.68800002 -0.045839146 1.4633494e-38 324 278
0.0060226996 0.68699998 -0.045772515 1.4172874e-38 325 278
0.0072272392 0.68699998 -0.045772515 1.4174669e-38 326 278
0.0084317802 0.68699998 -0.045772515 1.4267225e-38 327 278
0.0096363192 0.68699998 -0.045772515 1.4542733e-38 328 278
0.010825079 0.68599999 -0.045705888 1.4450537e-38 329 278
0.0119928 0.68400002 -0.045572639 1.4265786e-38 330 278
0.01319208 0.68400002 -0.045572639 1.4265786e-38 331 278
0.01443344 0.68599999 -0.045705888 1.3897729e-38 332 278
0.015636226 0.68599999 -0.045705888 1.3805534e-38 333 278
0.016839013 0.68599999 -0.045705888 1.3712262e-38 334 278
0.018041799 0.68599999 -0.045705888 1.3804818e-38 335 278
0.019244585 0.68599999 -0.045705888 1.3621149e-38 336 278
0.020447372 0.68599999 -0.045705888 1.3436757e-38 337 278
0.021650158 0.68599999 -0.045705888 1.3436754e-38 338 278
0.022852944 0.68599999 -0.045705888 1.3252363e-38 339 278
0.024055731 0.68599999 -0.045705888 1.3159798e-38 340 278
0.025258519 0.68599999 -0.045705888 1.2975047e-38 341 278
0.026461305 0.68599999 -0.045705888 1.279029e-38 342 278
0.027704418 0.68699998 -0.045772515 1.2698094e-38 343 278
0.028908957 0.68699998 -0.045772515 1.2514426e-38 344 278
0.030113498 0.68699998 -0.045772515 1.2698818e-38 345 278
0.031318039 0.68699998 -0.045772515 1.2882489e-38 346 278
0.032569919 0.68800002 -0.045839146 1.2789934e-38 347 278
0.033776212 0.68800002 -0.045839146 1.278814e-38 348 278
0.035084199 0.69 -0.045972396 1.278814e-38 349 278
0.036293998 0.69 -0.045972396 1.2697391e-38 350 278
0.037503798 0.69 -0.045972396 1.2881782e-38 351 278
0.038713597 0.69 -0.045972396 1.2884656e-38 352 278
0.0399234 0.69 -0.045972396 1.3345274e-38 353 278
0.041133199 0.69 -0.045972396 1.3622569e-38 354 278
0.042342998 0.69 -0.045972396 1.3622569e-38 355 278
0.043615919 0.69099998 -0.046039023 1.3897714e-38 356 278
0.044957221 0.69300002 -0.04617228 1.3805518e-38 357 278
0.046438783 0.69700003 -0.046438783 1.3897008e-38 358 278
0.047729239 0.69800001 -0.046505414 1.3897008e-38 359 278
0.048953064 0.69800001 -0.046505414 1.2792143e-38 360 278
0.050176892 0.69800001 -0.046505414 1.555837e-38 361 278
-0.021162732 0.70999998 -0.048549797 1.9360379e-38 303 279
-0.019833706 0.70700002 -0.048344657 1.6590519e-38 304 279
-0.018567799 0.70599997 -0.048276275 1.382501e-38 305 279
-0.017280852 0.704 -0.048139516 1.5561194e-38 306 279
-0.016046507 0.704 -0.048139516 1.5653389e-38 307 279
-0.014791119 0.70300001 -0.048071139 1.6386248e-38 308 279
-0.013519952 0.70099998 -0.047934376 1.6110019e-38 309 279
-0.012273333 0.69999999 -0.047865998 1.6475206e-38 310 279
-0.011045999 0.69999999 -0.047865998 1.6383011e-38 311 279
-0.0097906133 0.69800001 -0.047729239 1.6383364e-38 312 279
-0.0085545136 0.69700003 -0.047660861 1.6383364e-38 313 279
-0.0073008798 0.69400001 -0.047455717 1.6200417e-38 314 279
-0.0060753003 0.69300002 -0.047387339 1.6200417e-38 315 279
-0.00486024 0.69300002 -0.047387339 1.5002612e-38 316 279
-0.0036346598 0.69099998 -0.047250576 1.3527843e-38 317 279
-0.0024231065 0.69099998 -0.047250576 1.3345277e-38 318 279
-0.0012097999 0.69 -0.047182199 1.352967e-38 319 279
0 0.68800002 -0.047045439 1.3714786e-38 320 279
0.0012062934 0.68800002 -0.047045439 1.3899177e-38 321 279
0.0024125867 0.68800002 -0.047045439 1.4633847e-38 322 279
0.0036188802 0.68800002 -0.047045439 1.4633847e-38 323 279
0.0048181596 0.68699998 -0.046977058 1.4541287e-38 324 279
0.0060226996 0.68699998 -0.046977058 1.4448732e-38 325 279
0.0072167199 0.68599999 -0.046908677 1.4173578e-38 326 279
0.0083949603 0.68400002 -0.046771921 1.4357969e-38 327 279
0.0095942402 0.68400002 -0.046771921 1.4541637e-38 328 279
0.01077774 0.68300003 -0.04670354 1.4356887e-38 329 279
0.011975267 0.68300003 -0.04670354 1.408031e-38 330 279
0.01319208 0.68400002 -0.046771921 1.3988113e-38 331 279
0.01439136 0.68400002 -0.046771921 1.3894845e-38 332 279
0.015636226 0.68599999 -0.046908677 1.380265e-38 333 279
0.016839013 0.68599999 -0.046908677 1.3710817e-38 334 279
0.018041799 0.68599999 -0.046908677 1.3710817e-38 335 279
0.019244585 0.68599999 -0.046908677 1.3526433e-38 336 279
0.020447372 0.68599999 -0.046908677 1.3434237e-38 337 279
0.021650158 0.68599999 -0.046908677 1.3342404e-38 338 279
0.022852944 0.68599999 -0.046908677 1.3066176e-38 339 279
0.024055731 0.68599999 -0.046908677 1.2882135e-38 340 279
0.025258519 0.68599999 -0.046908677 1.278994e-38 341 279
0.026461305 0.68599999 -0.046908677 1.2421513e-38 342 279
0.027664091 0.68599999 -0.046908677 1.2605544e-38 343 279
0.02886688 0.68599999 -0.046908677 1.2605897e-38 344 279
0.030113498 0.68699998 -0.046977058 1.2605897e-38 345 279
0.031318039 0.68699998 -0.046977058 1.3064716e-38 346 279
0.032522578 0.68699998 -0.046977058 1.3248747e-38 347 279
0.033776212 0.68800002 -0.047045439 1.260446e-38 348 279
0.03498251 0.68800002 -0.047045439 1.2511905e-38 349 279
0.036293998 0.69 -0.047182199 1.251263e-38 350 279
0.037503798 0.69 -0.047182199 1.2697021e-38 351 279
0.038713597 0.69 -0.047182199 1.3157999e-38 352 279
0.0399234 0.69 -0.047182199 1.3250195e-38 353 279
0.041133199 0.69 -0.047182199 1.3712965e-38 354 279
0.042342998 0.69 -0.047182199 1.3712965e-38 355 279
0.043552797 0.69 -0.047182199 1.3805162e-38 356 279
0.044957221 0.69300002 -0.047387339 1.3805162e-38 357 279
0.04617228 0.69300002 -0.047387339 1.353002e-38 358 279
0.047592476 0.69599998 -0.047592476 1.3806966e-38 359 279
0.048953064 0.69800001 -0.047729239 1.3253471e-38 360 279
0.050176892 0.69800001 -0.047729239 1.5005548e-38 361 279
0.051400717 0.69800001 -0.047729239 1.5852979e-38 362 279
-0.021162732 0.70999998 -0.049794663 1.8715007e-38 303 280
-0.01986176 0.708 -0.049654398 1.5944417e-38 304 280
-0.018567799 0.70599997 -0.04951413 1.3546972e-38 305 280
-0.017280852 0.704 -0.049373865 1.5651226e-38 306 280
-0.016023712 0.70300001 -0.049303733 1.5651226e-38 307 280
-0.014791119 0.70300001 -0.049303733 1.5925638e-38 308 280
-0.013519952 0.70099998 -0.049163464 1.5741607e-38 309 280
-0.012273333 0.69999999 -0.049093332 1.5832723e-38 310 280
-0.011045999 0.69999999 -0.049093332 1.5740528e-38 311 280
-0.0097906133 0.69800001 -0.048953064 1.601567e-38 312 280
-0.0085545136 0.69700003 -0.048882935 1.601567e-38 313 280
-0.0073008798 0.69400001 -0.048672531 1.6016026e-38 314 280
-0.0060753003 0.69300002 -0.048602402 1.5831276e-38 315 280
-0.00486024 0.69300002 -0.048602402 1.5278108e-38 316 280
-0.0036293997 0.69 -0.048391998 1.4632738e-38 317 280
-0.0024125867 0.68800002 -0.048251733 1.408318e-38 318 280
-0.0012062934 0.68800002 -0.048251733 1.4267571e-38 319 280
0 0.68800002 -0.048251733 1.3990994e-38 320 280
0.0012062934 0.68800002 -0.048251733 1.4083548e-38 321 280
0.0024125867 0.68800002 -0.048251733 1.4082476e-38 322 280
0.0036136196 0.68699998 -0.048181597 1.3805531e-38 323 280
0.0048111463 0.68599999 -0.048111461 1.3989556e-38 324 280
0.0060139326 0.68599999 -0.048111461 1.4266142e-38 325 280
0.0071956799 0.68400002 -0.0479712 1.3807313e-38 326 280
0.0083949603 0.68400002 -0.0479712 1.3622922e-38 327 280
0.0095942402 0.68400002 -0.0479712 1.3988477e-38 328 280
0.01077774 0.68300003 -0.047901068 1.3620054e-38 329 280
0.011975267 0.68300003 -0.047901068 1.352643e-38 330 280
0.013172794 0.68300003 -0.047901068 1.352643e-38 331 280
0.01439136 0.68400002 -0.0479712 1.334276e-38 332 280
0.01559064 0.68400002 -0.0479712 1.334276e-38 333 280
0.016839013 0.68599999 -0.048111461 1.334204e-38 334 280
0.018041799 0.68599999 -0.048111461 1.334204e-38 335 280
0.01918848 0.68400002 -0.0479712 1.3066179e-38 336 280
0.020387759 0.68400002 -0.0479712 1.3066179e-38 337 280
0.02158704 0.68400002 -0.0479712 1.2791031e-38 338 280
0.022786319 0.68400002 -0.0479712 1.2514444e-38 339 280
0.0239856 0.68400002 -0.0479712 1.2514079e-38 340 280
0.025184879 0.68400002 -0.0479712 1.2329327e-38 341 280
0.02638416 0.68400002 -0.0479712 1.2237129e-38 342 280
0.027583439 0.68400002 -0.0479712 1.2237129e-38 343 280
0.02886688 0.68599999 -0.048111461 1.1870507e-38 344 280
0.030069664 0.68599999 -0.048111461 1.1870507e-38 345 280
0.031318039 0.68699998 -0.048181597 1.205275e-38 346 280
0.032522578 0.68699998 -0.048181597 1.205275e-38 347 280
0.033776212 0.68800002 -0.048251733 1.1686126e-38 348 280
0.03498251 0.68800002 -0.048251733 1.1409899e-38 349 280
0.0361888 0.68800002 -0.048251733 1.1410265e-38 350 280
0.037503798 0.69 -0.048391998 1.150246e-38 351 280
0.038713597 0.69 -0.048391998 1.1319867e-38 352 280
0.0399234 0.69 -0.048391998 1.1780845e-38 353 280
0.041133199 0.69 -0.048391998 1.2793187e-38 354 280
0.042342998 0.69 -0.048391998 1.3161609e-38 355 280
0.043552797 0.69 -0.048391998 1.3254158e-38 356 280
0.044827472 0.69099998 -0.04846213 1.3254158e-38 357 280
0.046039023 0.69099998 -0.04846213 1.3071213e-38 358 280
0.047250576 0.69099998 -0.04846213 1.3255963e-38 359 280
0.048672531 0.69400001 -0.048672531 1.3253474e-38 360 280
0.050176892 0.69800001 -0.048953064 1.4544213e-38 361 280
0.051400717 0.69800001 -0.048953064 1.4560077e-38 362 280
-0.022407599 0.70999998 -0.051039528 1.9176343e-38 302 281
-0.021162732 0.70999998 -0.051039528 1.7885605e-38 303 281
-0.01986176 0.708 -0.050895758 1.5942616e-38 304 281
-0.018594101 0.70700002 -0.050823875 1.3822117e-38 305 281
-0.017329946 0.70599997 -0.050751984 1.5466833e-38 306 281
-0.016023712 0.70300001 -0.050536323 1.5005856e-38 307 281
-0.014749039 0.70099998 -0.050392549 1.5739806e-38 308 281
-0.013519952 0.70099998 -0.050392549 1.5739806e-38 309 281
-0.012273333 0.69999999 -0.050320663 1.5740159e-38 310 281
-0.01101444 0.69800001 -0.050176892 1.5740159e-38 311 281
-0.0097765867 0.69700003 -0.050105009 1.5923104e-38 312 281
-0.0085422397 0.69599998 -0.050033119 1.5830909e-38 313 281
-0.0073008798 0.69400001 -0.049889345 1.5647243e-38 314 281
-0.0060753003 0.69300002 -0.049817458 1.5647243e-38 315 281
-0.0048462129 0.69099998 -0.049673684 1.5096237e-38 316 281
-0.0036293997 0.69 -0.049601797 1.4911846e-38 317 281
-0.0024125867 0.68800002 -0.049458027 1.4271161e-38 318 281
-0.0012062934 0.68800002 -0.049458027 1.4271161e-38 319 281
0 0.68800002 -0.049458027 1.39935e-38 320 281
0.0012062934 0.68800002 -0.049458027 1.3440326e-38 321 281
0.0024125867 0.68800002 -0.049458027 1.398811e-38 322 281
0.0036136196 0.68699998 -0.049386136 1.3711523e-38 323 281
0.0048111463 0.68599999 -0.049314249 1.3712602e-38 324 281
0.0060139326 0.68599999 -0.049314249 1.398883e-38 325 281
0.0071956799 0.68400002 -0.049170479 1.380587e-38 326 281
0.0083826864 0.68300003 -0.049098592 1.362112e-38 327 281
0.0095802136 0.68300003 -0.049098592 1.3803353e-38 328 281
0.01077774 0.68300003 -0.049098592 1.3710799e-38 329 281
0.011975267 0.68300003 -0.049098592 1.3526409e-38 330 281
0.013172794 0.68300003 -0.049098592 1.3618606e-38 331 281
0.01439136 0.68400002 -0.049170479 1.3343461e-38 332 281
0.01559064 0.68400002 -0.049170479 1.3251264e-38 333 281
0.016789921 0.68400002 -0.049170479 1.3250548e-38 334 281
0.0179892 0.68400002 -0.049170479 1.3065798e-38 335 281
0.01918848 0.68400002 -0.049170479 1.2881414e-38 336 281
0.020387759 0.68400002 -0.049170479 1.2881414e-38 337 281
0.02158704 0.68400002 -0.049170479 1.260699e-38 338 281
0.022786319 0.68400002 -0.049170479 1.2514795e-38 339 281
0.0239856 0.68400002 -0.049170479 1.2422243e-38 340 281
0.025184879 0.68400002 -0.049170479 1.2146015e-38 341 281
0.02638416 0.68400002 -0.049170479 1.1778309e-38 342 281
0.027583439 0.68400002 -0.049170479 1.1778309e-38 343 281
0.02886688 0.68599999 -0.049314249 1.1776877e-38 344 281
0.030069664 0.68599999 -0.049314249 1.1500648e-38 345 281
0.031318039 0.68699998 -0.049386136 1.1682889e-38 346 281
0.032522578 0.68699998 -0.049386136 1.1682889e-38 347 281
0.033776212 0.68800002 -0.049458027 1.1407025e-38 348 281
0.03498251 0.68800002 -0.049458027 1.1407025e-38 349 281
0.0361888 0.68800002 -0.049458027 1.1315904e-38 350 281
0.037503798 0.69 -0.049601797 1.1315904e-38 351 281
0.038713597 0.69 -0.049601797 1.14081e-38 352 281
0.0399234 0.69 -0.049601797 1.14081e-38 353 281
0.041133199 0.69 -0.049601797 1.1320939e-38 354 281
0.042342998 0.69 -0.049601797 1.1966308e-38 355 281
0.043552797 0.69 -0.049601797 1.2883583e-38 356 281
0.044827472 0.69099998 -0.049673684 1.3252007e-38 357 281
0.046039023 0.69099998 -0.049673684 1.3068694e-38 358 281
0.047250576 0.69099998 -0.049673684 1.3437476e-38 359 281
0.048672531 0.69400001 -0.049889345 1.3437497e-38 360 281
0.049889345 0.69400001 -0.049889345 1.3898475e-38 361 281
0.051253434 0.69599998 -0.050033119 1.3358287e-38 362 281
-0.022407599 0.70999998 -0.052284397 1.8991233e-38 302 282
-0.021162732 0.70999998 -0.052284397 1.7331352e-38 303 282
-0.01986176 0.708 -0.052137118 1.5756423e-38 304 282
-0.018594101 0.70700002 -0.05206348 1.391251e-38 305 282
-0.017329946 0.70599997 -0.051989835 1.5282436e-38 306 282
-0.015978126 0.70099998 -0.051621638 1.4729263e-38 307 282
-0.014749039 0.70099998 -0.051621638 1.5463215e-38 308 282
-0.013500666 0.69999999 -0.051547997 1.5555769e-38 309 282
-0.012238266 0.69800001 -0.051400717 1.5372098e-38 310 282
-0.01101444 0.69800001 -0.051400717 1.5372098e-38 311 282
-0.0097625591 0.69599998 -0.051253434 1.5554695e-38 312 282
-0.0085176928 0.69400001 -0.051106159 1.5462499e-38 313 282
-0.0072903596 0.69300002 -0.051032521 1.5370666e-38 314 282
-0.0060577663 0.69099998 -0.050885238 1.5463221e-38 315 282
-0.0048391996 0.69 -0.050811596 1.5096593e-38 316 282
-0.0036188802 0.68800002 -0.050664321 1.5096593e-38 317 282
-0.0024125867 0.68800002 -0.050664321 1.4913641e-38 318 282
-0.0012062934 0.68800002 -0.050664321 1.472925e-38 319 282
0 0.68800002 -0.050664321 1.4634905e-38 320 282
0.0012045399 0.68699998 -0.050590675 1.3989535e-38 321 282
0.0024090798 0.68699998 -0.050590675 1.3618253e-38 322 282
0.00360836 0.68599999 -0.050517038 1.343386e-38 323 282
0.0048111463 0.68599999 -0.050517038 1.3159796e-38 324 282
0.0059964 0.68400002 -0.050369758 1.3344187e-38 325 282
0.0071851597 0.68300003 -0.05029612 1.3528208e-38 326 282
0.0083826864 0.68300003 -0.05029612 1.3436013e-38 327 282
0.0095802136 0.68300003 -0.05029612 1.3435294e-38 328 282
0.01077774 0.68300003 -0.05029612 1.3343097e-38 329 282
0.011975267 0.68300003 -0.05029612 1.3251261e-38 330 282
0.013172794 0.68300003 -0.05029612 1.306723e-38 331 282
0.014370319 0.68300003 -0.05029612 1.3067233e-38 332 282
0.01559064 0.68400002 -0.050369758 1.2882483e-38 333 282
0.016789921 0.68400002 -0.050369758 1.3065082e-38 334 282
0.0179892 0.68400002 -0.050369758 1.2972886e-38 335 282
0.01918848 0.68400002 -0.050369758 1.2697744e-38 336 282
0.020387759 0.68400002 -0.050369758 1.2697744e-38 337 282
0.02158704 0.68400002 -0.050369758 1.2055616e-38 338 282
0.022786319 0.68400002 -0.050369758 1.2055616e-38 339 282
0.0239856 0.68400002 -0.050369758 1.1963419e-38 340 282
0.025184879 0.68400002 -0.050369758 1.1779028e-38 341 282
0.02638416 0.68400002 -0.050369758 1.1686476e-38 342 282
0.027583439 0.68400002 -0.050369758 1.1410249e-38 343 282
0.02886688 0.68599999 -0.050517038 1.1408816e-38 344 282
0.030069664 0.68599999 -0.050517038 1.1224785e-38 345 282
0.031318039 0.68699998 -0.050590675 1.1040756e-38 346 282
0.032522578 0.68699998 -0.050590675 1.1132952e-38 347 282
0.033727121 0.68699998 -0.050590675 1.0947845e-38 348 282
0.034931656 0.68699998 -0.050590675 1.0947845e-38 349 282
0.0361888 0.68800002 -0.050664321 1.0948208e-38 350 282
0.037395094 0.68800002 -0.050664321 1.0948208e-38 351 282
0.038601387 0.68800002 -0.050664321 1.085781e-38 352 282
0.039807681 0.68800002 -0.050664321 1.0950005e-38 353 282
0.041013971 0.68800002 -0.050664321 1.0951808e-38 354 282
0.042342998 0.69 -0.050811596 1.1320589e-38 355 282
0.043552797 0.69 -0.050811596 1.2148186e-38 356 282
0.044827472 0.69099998 -0.050885238 1.2332577e-38 357 282
0.04617228 0.69300002 -0.051032521 1.2608805e-38 358 282
0.047387339 0.69300002 -0.051032521 1.2701001e-38 359 282
0.048672531 0.69400001 -0.051106159 1.2704248e-38 360 282
0.050033119 0.69599998 -0.051253434 1.3073029e-38 361 282
0.051253434 0.69599998 -0.051253434 1.2527437e-38 362 282
0.052473757 0.69599998 -0.051253434 1.7229054e-38 363 282
-0.022344479 0.708 -0.053378478 1.8990152e-38 302 283
-0.021103119 0.708 -0.053378478 1.6777456e-38 303 283
-0.01986176 0.708 -0.053378478 1.5478394e-38 304 283
-0.018594101 0.70700002 -0.053303085 1.3819233e-38 305 283
-0.017329946 0.70599997 -0.053227689 1.5374269e-38 306 283
-0.015978126 0.70099998 -0.052850723 1.4821095e-38 307 283
-0.014727999 0.69999999 -0.052775331 1.5187341e-38 308 283
-0.013500666 0.69999999 -0.052775331 1.5187341e-38 309 283
-0.012238266 0.69800001 -0.052624546 1.5186988e-38 310 283
-0.01099866 0.69700003 -0.052549154 1.5186988e-38 311 283
-0.0097625591 0.69599998 -0.052473757 1.5370303e-38 312 283
-0.0085176928 0.69400001 -0.052322973 1.5370303e-38 313 283
-0.0072903596 0.69300002 -0.05224758 1.536995e-38 314 283
-0.0060577663 0.69099998 -0.052096792 1.5462146e-38 315 283
-0.0048391996 0.69 -0.052021399 1.509589e-38 316 283
-0.0036188802 0.68800002 -0.051870614 1.5279921e-38 317 283
-0.0024125867 0.68800002 -0.051870614 1.4912938e-38 318 283
-0.0012062934 0.68800002 -0.051870614 1.4728546e-38 319 283
0 0.68800002 -0.051870614 1.445052e-38 320 283
0.0012045399 0.68699998 -0.051795214 1.3896987e-38 321 283
0.0024055731 0.68599999 -0.051719822 1.3526056e-38 322 283
0.00360836 0.68599999 -0.051719822 1.3157275e-38 323 283
0.0048111463 0.68599999 -0.051719822 1.3250192e-38 324 283
0.0059964 0.68400002 -0.051569041 1.3342388e-38 325 283
0.0071851597 0.68300003 -0.051493648 1.3526053e-38 326 283
0.0083826864 0.68300003 -0.051493648 1.3433857e-38 327 283
0.0095802136 0.68300003 -0.051493648 1.3433857e-38 328 283
0.01077774 0.68300003 -0.051493648 1.3433857e-38 329 283
0.011975267 0.68300003 -0.051493648 1.3066154e-38 330 283
0.013172794 0.68300003 -0.051493648 1.3066154e-38 331 283
0.014370319 0.68300003 -0.051493648 1.288177e-38 332 283
0.015567848 0.68300003 -0.051493648 1.2697018e-38 333 283
0.016765373 0.68300003 -0.051493648 1.2604825e-38 334 283
0.017962901 0.68300003 -0.051493648 1.2604825e-38 335 283
0.019160427 0.68300003 -0.051493648 1.2328959e-38 336 283
0.020357953 0.68300003 -0.051493648 1.2421513e-38 337 283
0.02158704 0.68400002 -0.051569041 1.1963422e-38 338 283
0.022786319 0.68400002 -0.051569041 1.1963422e-38 339 283
0.0239856 0.68400002 -0.051569041 1.1687558e-38 340 283
0.02514806 0.68300003 -0.051493648 1.1595362e-38 341 283
0.026345588 0.68300003 -0.051493648 1.1410971e-38 342 283
0.027583439 0.68400002 -0.051569041 1.1226221e-38 343 283
0.02878272 0.68400002 -0.051569041 1.1225138e-38 344 283
0.030069664 0.68599999 -0.051719822 1.1132942e-38 345 283
0.031272452 0.68599999 -0.051719822 1.1225138e-38 346 283
0.032522578 0.68699998 -0.051795214 1.1132942e-38 347 283
0.033727121 0.68699998 -0.051795214 1.0948195e-38 348 283
0.034931656 0.68699998 -0.051795214 1.0855999e-38 349 283
0.036136195 0.68699998 -0.051795214 1.076488e-38 350 283
0.037395094 0.68800002 -0.051870614 1.0948911e-38 351 283
0.038601387 0.68800002 -0.051870614 1.0675201e-38 352 283
0.039807681 0.68800002 -0.051870614 1.0767397e-38 353 283
0.041013971 0.68800002 -0.051870614 1.1318419e-38 354 283
0.042220265 0.68800002 -0.051870614 1.1595365e-38 355 283
0.043552797 0.69 -0.052021399 1.196307e-38 356 283
0.044827472 0.69099998 -0.052096792 1.2147461e-38 357 283
0.04617228 0.69300002 -0.05224758 1.2147111e-38 358 283
0.047387339 0.69300002 -0.05224758 1.2331142e-38 359 283
0.048672531 0.69400001 -0.052322973 1.2244344e-38 360 283
0.049889345 0.69400001 -0.052322973 1.2797518e-38 361 283
0.051106159 0.69400001 -0.052322973 1.2709306e-38 362 283
0.052322973 0.69400001 -0.052322973 1.6765915e-38 363 283
-0.022344479 0.708 -0.054619838 1.8714637e-38 302 284
-0.021103119 0.708 -0.054619838 1.6225356e-38 303 284
-0.01986176 0.708 -0.054619838 1.5201441e-38 304 284
-0.0186204 0.708 -0.054619838 1.354192e-38 305 284
-0.017329946 0.70599997 -0.054465543 1.4729616e-38 306 284
-0.015955333 0.69999999 -0.054002665 1.4453389e-38 307 284
-0.014727999 0.69999999 -0.054002665 1.500295e-38 308 284
-0.013462093 0.69800001 -0.053848371 1.4910394e-38 309 284
-0.012238266 0.69800001 -0.053848371 1.5001521e-38 310 284
-0.01099866 0.69700003 -0.053771228 1.4909325e-38 311 284
-0.0097345067 0.69400001 -0.053539783 1.5001877e-38 312 284
-0.0085054198 0.69300002 -0.053462639 1.5185909e-38 313 284
-0.0072903596 0.69300002 -0.053462639 1.5278108e-38 314 284
-0.0060489997 0.69 -0.053231198 1.5278108e-38 315 284
-0.0048251734 0.68800002 -0.053076908 1.500261e-38 316 284
-0.0036188802 0.68800002 -0.053076908 1.5094805e-38 317 284
-0.0024125867 0.68800002 -0.053076908 1.4820019e-38 318 284
-0.0012062934 0.68800002 -0.053076908 1.4543434e-38 319 284
0 0.68800002 -0.053076908 1.4266489e-38 320 284
0.0012045399 0.68699998 -0.052999757 1.3528924e-38 321 284
0.0024055731 0.68599999 -0.05292261 1.3342744e-38 322 284
0.00360836 0.68599999 -0.05292261 1.3065798e-38 323 284
0.0047971201 0.68400002 -0.05276832 1.2883205e-38 324 284
0.0059964 0.68400002 -0.05276832 1.29754e-38 325 284
0.0071851597 0.68300003 -0.052691177 1.3250548e-38 326 284
0.0083826864 0.68300003 -0.052691177 1.3157994e-38 327 284
0.0095802136 0.68300003 -0.052691177 1.3157275e-38 328 284
0.01077774 0.68300003 -0.052691177 1.3157275e-38 329 284
0.011975267 0.68300003 -0.052691177 1.279029e-38 330 284
0.013172794 0.68300003 -0.052691177 1.2605897e-38 331 284
0.014370319 0.68300003 -0.052691177 1.2421157e-38 332 284
0.015567848 0.68300003 -0.052691177 1.214457e-38 333 284
0.016765373 0.68300003 -0.052691177 1.2144217e-38 334 284
0.017962901 0.68300003 -0.052691177 1.2144217e-38 335 284
0.019160427 0.68300003 -0.052691177 1.1960905e-38 336 284
0.020357953 0.68300003 -0.052691177 1.2053101e-38 337 284
0.02155548 0.68300003 -0.052691177 1.1320573e-38 338 284
0.022786319 0.68400002 -0.05276832 1.1320573e-38 339 284
0.0239856 0.68400002 -0.05276832 1.12273e-38 340 284
0.02514806 0.68300003 -0.052691177 1.12273e-38 341 284
0.026345588 0.68300003 -0.052691177 1.1226221e-38 342 284
0.027543113 0.68300003 -0.052691177 1.0949993e-38 343 284
0.02878272 0.68400002 -0.05276832 1.1041109e-38 344 284
0.029982001 0.68400002 -0.05276832 1.1041109e-38 345 284
0.031272452 0.68599999 -0.05292261 1.1316252e-38 346 284
0.032475237 0.68599999 -0.05292261 1.1408447e-38 347 284
0.033727121 0.68699998 -0.052999757 1.0948911e-38 348 284
0.034931656 0.68699998 -0.052999757 1.0672684e-38 349 284
0.036136195 0.68699998 -0.052999757 1.049081e-38 350 284
0.037395094 0.68800002 -0.053076908 1.0583005e-38 351 284
0.038601387 0.68800002 -0.053076908 1.0675201e-38 352 284
0.039807681 0.68800002 -0.053076908 1.0675201e-38 353 284
0.041013971 0.68800002 -0.053076908 1.1135107e-38 354 284
0.042220265 0.68800002 -0.053076908 1.150353e-38 355 284
0.043552797 0.69 -0.053231198 1.1780474e-38 356 284
0.044827472 0.69099998 -0.053308345 1.1780474e-38 357 284
0.046039023 0.69099998 -0.053308345 1.187124e-38 358 284
0.047387339 0.69300002 -0.053462639 1.1687208e-38 359 284
0.048672531 0.69400001 -0.053539783 1.1875559e-38 360 284
0.049889345 0.69400001 -0.053539783 1.2613124e-38 361 284
0.051106159 0.69400001 -0.053539783 1.3259958e-38 362 284
0.052322973 0.69400001 -0.053539783 1.6763392e-38 363 284
0.053539783 0.69400001 -0.053539783 1.8068917e-38 364 284
-0.023585839 0.708 -0.055861197 2.0828672e-38 301 285
-0.022344479 0.708 -0.055861197 1.8439482e-38 302 285
-0.021103119 0.708 -0.055861197 1.5673254e-38 303 285
-0.01986176 0.708 -0.055861197 1.5015605e-38 304 285
-0.0186204 0.708 -0.055861197 1.3263528e-38 305 285
-0.017329946 0.70599997 -0.055703394 1.4361193e-38 306 285
-0.015955333 0.69999999 -0.055229999 1.4361193e-38 307 285
-0.014727999 0.69999999 -0.055229999 1.4358672e-38 308 285
-0.013462093 0.69800001 -0.0550722 1.4174281e-38 309 285
-0.012220734 0.69700003 -0.054993302 1.4173931e-38 310 285
-0.010982879 0.69599998 -0.054914396 1.4266126e-38 311 285
-0.0097345067 0.69400001 -0.054756597 1.4359391e-38 312 285
-0.0085054198 0.69300002 -0.054677699 1.4451587e-38 313 285
-0.0072693196 0.69099998 -0.054519895 1.4818932e-38 314 285
-0.0060489997 0.69 -0.054440998 1.4726735e-38 315 285
-0.0048251734 0.68800002 -0.054283202 1.4725675e-38 316 285
-0.0036188802 0.68800002 -0.054283202 1.4817872e-38 317 285
-0.0024125867 0.68800002 -0.054283202 1.4175745e-38 318 285
-0.0012045399 0.68699998 -0.054204296 1.4083548e-38 319 285
0 0.68699998 -0.054204296 1.3715118e-38 320 285
0.0012045399 0.68699998 -0.054204296 1.3069748e-38 321 285
0.0024055731 0.68599999 -0.054125395 1.3434211e-38 322 285
0.00359784 0.68400002 -0.053967599 1.3250179e-38 323 285
0.0047971201 0.68400002 -0.053967599 1.2975751e-38 324 285
0.0059876335 0.68300003 -0.053888701 1.3068305e-38 325 285
0.0071851597 0.68300003 -0.053888701 1.2975753e-38 326 285
0.0083826864 0.68300003 -0.053888701 1.2883558e-38 327 285
0.0095802136 0.68300003 -0.053888701 1.315835e-38 328 285
0.01077774 0.68300003 -0.053888701 1.3066154e-38 329 285
0.011975267 0.68300003 -0.053888701 1.2698092e-38 330 285
0.013172794 0.68300003 -0.053888701 1.2329668e-38 331 285
0.014370319 0.68300003 -0.053888701 1.1961255e-38 332 285
0.015567848 0.68300003 -0.053888701 1.186906e-38 333 285
0.016765373 0.68300003 -0.053888701 1.1500648e-38 334 285
0.017962901 0.68300003 -0.053888701 1.1500648e-38 335 285
0.019160427 0.68300003 -0.053888701 1.1317347e-38 336 285
0.020357953 0.68300003 -0.053888701 1.1317347e-38 337 285
0.02155548 0.68300003 -0.053888701 1.0859965e-38 338 285
0.022786319 0.68400002 -0.053967599 1.0859965e-38 339 285
0.023950534 0.68300003 -0.053888701 1.0767046e-38 340 285
0.02514806 0.68300003 -0.053888701 1.0767046e-38 341 285
0.026345588 0.68300003 -0.053888701 1.0674132e-38 342 285
0.027543113 0.68300003 -0.053888701 1.0581936e-38 343 285
0.02878272 0.68400002 -0.053967599 1.0489382e-38 344 285
0.029982001 0.68400002 -0.053967599 1.0489382e-38 345 285
0.031272452 0.68599999 -0.054125395 1.1041107e-38 346 285
0.032475237 0.68599999 -0.054125395 1.1041107e-38 347 285
0.033727121 0.68699998 -0.054204296 1.076488e-38 348 285
0.034931656 0.68699998 -0.054204296 1.076488e-38 349 285
0.036136195 0.68699998 -0.054204296 1.0307139e-38 350 285
0.037395094 0.68800002 -0.054283202 1.0399693e-38 351 285
0.038601387 0.68800002 -0.054283202 1.0857444e-38 352 285
0.039807681 0.68800002 -0.054283202 1.094964e-38 353 285
0.041013971 0.68800002 -0.054283202 1.0584104e-38 354 285
0.042220265 0.68800002 -0.054283202 1.0860331e-38 355 285
0.043426562 0.68800002 -0.054283202 1.1320583e-38 356 285
0.044827472 0.69099998 -0.054519895 1.1413139e-38 357 285
0.046039023 0.69099998 -0.054519895 1.1412063e-38 358 285
0.047387339 0.69300002 -0.054677699 1.150426e-38 359 285
0.048672531 0.69400001 -0.054756597 1.1600051e-38 360 285
0.049889345 0.69400001 -0.054756597 1.2337616e-38 361 285
0.051106159 0.69400001 -0.054756597 1.2984448e-38 362 285
0.052322973 0.69400001 -0.054756597 1.6303492e-38 363 285
0.053539783 0.69400001 -0.054756597 1.7608659e-38 364 285
-0.023585839 0.708 -0.057102561 2.046456e-38 301 286
-0.022344479 0.708 -0.057102561 1.8254369e-38 302 286
-0.021103119 0.708 -0.057102561 1.5580696e-38 303 286
-0.01986176 0.708 -0.057102561 1.5013806e-38 304 286
-0.0186204 0.708 -0.057102561 1.3446122e-38 305 286
-0.017280852 0.704 -0.056779943 1.3991703e-38 306 286
-0.015955333 0.69999999 -0.056457333 1.3991703e-38 307 286
-0.01468592 0.69800001 -0.056296028 1.4357243e-38 308 286
-0.013442807 0.69700003 -0.056215372 1.3896265e-38 309 286
-0.0122032 0.69599998 -0.056134716 1.3895902e-38 310 286
-0.01095132 0.69400001 -0.055973411 1.4079933e-38 311 286
-0.0097204801 0.69300002 -0.055892758 1.4266474e-38 312 286
-0.008480873 0.69099998 -0.055731449 1.4266474e-38 313 286
-0.0072693196 0.69099998 -0.055731449 1.4542338e-38 314 286
-0.0060489997 0.69 -0.055650797 1.4357946e-38 315 286
