# .PCD v.7 - Point Cloud Data file format
FIELDS x y z rgb imX imY
SIZE 4 4 4 4 4 4
TYPE F F F F F F
COUNT 1 1 1 1 1 1
WIDTH 840
HEIGHT 1
VIEWPOINT 0 0 0 1 0 0 0
POINTS 840
DATA ascii
0.01466488 0.69700003 -0.046438783 1.389804e-38 332 278
0.015909746 0.69800001 -0.046505414 1.389804e-38 333 278
0.017133573 0.69800001 -0.046505414 1.3713656e-38 334 278
0.0183574 0.69800001 -0.046505414 1.3897687e-38 335 278
0.019637333 0.69999999 -0.046638668 1.3896968e-38 336 278
0.020864666 0.69999999 -0.046638668 1.3989164e-38 337 278
0.022091998 0.69999999 -0.046638668 1.3806571e-38 338 278
0.023319334 0.69999999 -0.046638668 1.3806571e-38 339 278
0.024546666 0.69999999 -0.046638668 1.3624332e-38 340 278
0.025773998 0.69999999 -0.046638668 1.3624332e-38 341 278
0.027001332 0.69999999 -0.046638668 1.3624681e-38 342 278
0.028349647 0.70300001 -0.046838548 1.3624681e-38 343 278
0.029582238 0.70300001 -0.046838548 1.3716527e-38 344 278
0.030814834 0.70300001 -0.046838548 1.3808723e-38 345 278
0.032093015 0.704 -0.046905171 1.3809092e-38 346 278
0.03332736 0.704 -0.046905171 1.3809092e-38 347 278
0.034659892 0.70599997 -0.047038425 1.3625774e-38 348 278
0.035948593 0.70700002 -0.047105055 1.3809805e-38 349 278
0.037188202 0.70700002 -0.047105055 1.3719044e-38 350 278
0.038482159 0.708 -0.047171678 1.3811241e-38 351 278
0.039723519 0.708 -0.047171678 1.3810888e-38 352 278
0.041080594 0.70999998 -0.047304932 1.3810888e-38 353 278
0.042385083 0.71100003 -0.047371563 1.3627944e-38 354 278
0.043754432 0.713 -0.047504812 1.3627944e-38 355 278
0.045004558 0.713 -0.047504812 1.371979e-38 356 278
0.046449307 0.71600002 -0.047704693 1.3996016e-38 357 278
0.047704693 0.71600002 -0.047704693 1.3535414e-38 358 278
0.04902846 0.71700001 -0.04777132 1.3904198e-38 359 278
0.0502856 0.71700001 -0.04777132 1.6219926e-38 360 278
0.05168651 0.71899998 -0.04790457 1.7971642e-38 361 278
-0.022723202 0.72000003 -0.0492336 1.5572745e-38 302 279
-0.021430992 0.71899998 -0.049165215 1.3636637e-38 303 279
-0.020170346 0.71899998 -0.049165215 1.5010891e-38 304 279
-0.0188308 0.71600002 -0.048960082 1.4550272e-38 305 279
-0.017526319 0.71399999 -0.048823316 1.500978e-38 306 279
-0.016251646 0.713 -0.048754938 1.4364411e-38 307 279
-0.015001519 0.713 -0.048754938 1.4731373e-38 308 279
-0.01371282 0.71100003 -0.048618179 1.4455146e-38 309 279
-0.0124662 0.71100003 -0.048618179 1.5097266e-38 310 279
-0.011203799 0.70999998 -0.048549797 1.5005069e-38 311 279
-0.0099308798 0.708 -0.048413038 1.5004353e-38 312 279
-0.0086649731 0.70599997 -0.048276275 1.5004353e-38 313 279
-0.0074060797 0.704 -0.048139516 1.4911804e-38 314 279
-0.0061717331 0.704 -0.048139516 1.4911804e-38 315 279
-0.0049373866 0.704 -0.048139516 1.4911448e-38 316 279
-0.0037030398 0.704 -0.048139516 1.4819253e-38 317 279
-0.0024651866 0.70300001 -0.048071139 1.4818186e-38 318 279
-0.0012325933 0.70300001 -0.048071139 1.4725991e-38 319 279
0 0.70300001 -0.048071139 1.4541969e-38 320 279
0.0012290865 0.70099998 -0.047934376 1.4449774e-38 321 279
0.0024581731 0.70099998 -0.047934376 1.426718e-38 322 279
0.0036819996 0.69999999 -0.047865998 1.4359376e-38 323 279
0.0049093333 0.69999999 -0.047865998 1.4267899e-38 324 279
0.0061366665 0.69999999 -0.047865998 1.4267899e-38 325 279
0.0073639993 0.69999999 -0.047865998 1.4175703e-38 326 279
0.0085667865 0.69800001 -0.047729239 1.4175703e-38 327 279
0.0097906133 0.69800001 -0.047729239 1.4082789e-38 328 279
0.01101444 0.69800001 -0.047729239 1.3990233e-38 329 279
0.012220734 0.69700003 -0.047660861 1.4173182e-38 330 279
0.013442807 0.69700003 -0.047660861 1.4173182e-38 331 279
0.01466488 0.69700003 -0.047660861 1.362253e-38 332 279
0.015886955 0.69700003 -0.047660861 1.362253e-38 333 279
0.017133573 0.69800001 -0.047729239 1.3622174e-38 334 279
0.0183574 0.69800001 -0.047729239 1.3622174e-38 335 279
0.019581227 0.69800001 -0.047729239 1.380477e-38 336 279
0.020805053 0.69800001 -0.047729239 1.3712574e-38 337 279
0.02202888 0.69800001 -0.047729239 1.3621455e-38 338 279
0.023319334 0.69999999 -0.047865998 1.3714009e-38 339 279
0.024546666 0.69999999 -0.047865998 1.3439212e-38 340 279
0.025773998 0.69999999 -0.047865998 1.3531766e-38 341 279
0.027001332 0.69999999 -0.047865998 1.3623959e-38 342 279
0.028268991 0.70099998 -0.047934376 1.3623959e-38 343 279
0.029582238 0.70300001 -0.048071139 1.3624325e-38 344 279
0.030814834 0.70300001 -0.048071139 1.3624325e-38 345 279
0.032093015 0.704 -0.048139516 1.3807288e-38 346 279
0.03332736 0.704 -0.048139516 1.3899842e-38 347 279
0.034561705 0.704 -0.048139516 1.3717246e-38 348 279
0.035948593 0.70700002 -0.048344657 1.3809442e-38 349 279
0.037188202 0.70700002 -0.048344657 1.3810158e-38 350 279
0.038482159 0.708 -0.048413038 1.3626127e-38 351 279
0.039723519 0.708 -0.048413038 1.344318e-38 352 279
0.041080594 0.70999998 -0.048549797 1.344318e-38 353 279
0.042385083 0.71100003 -0.048618179 1.3535023e-38 354 279
0.043754432 0.713 -0.048754938 1.3719414e-38 355 279
0.045004558 0.713 -0.048754938 1.3627594e-38 356 279
0.046319555 0.71399999 -0.048823316 1.3996016e-38 357 279
0.047704693 0.71600002 -0.048960082 1.3535061e-38 358 279
0.04902846 0.71700001 -0.04902846 1.3996399e-38 359 279
0.0502856 0.71700001 -0.04902846 1.6312124e-38 360 279
0.05168651 0.71899998 -0.049165215 1.806384e-38 361 279
-0.022723202 0.72000003 -0.050496001 1.6308509e-38 302 280
-0.021371379 0.71700001 -0.0502856 1.3819586e-38 303 280
-0.020114239 0.71700001 -0.0502856 1.5195636e-38 304 280
-0.018778199 0.71399999 -0.050075196 1.5011244e-38 305 280
-0.017501773 0.713 -0.050005067 1.4918291e-38 306 280
-0.016251646 0.713 -0.050005067 1.454951e-38 307 280
-0.015001519 0.713 -0.050005067 1.4548411e-38 308 280
-0.01371282 0.71100003 -0.049864799 1.436402e-38 309 280
-0.0124662 0.71100003 -0.049864799 1.4638095e-38 310 280
-0.011203799 0.70999998 -0.049794663 1.454554e-38 311 280
-0.0099308798 0.708 -0.049654398 1.4820334e-38 312 280
-0.0086649731 0.70599997 -0.04951413 1.4728139e-38 313 280
-0.0074060797 0.704 -0.049373865 1.4728139e-38 314 280
-0.0061717331 0.704 -0.049373865 1.4728139e-38 315 280
-0.0049373866 0.704 -0.049373865 1.4452278e-38 316 280
-0.0037030398 0.704 -0.049373865 1.4452278e-38 317 280
-0.0024651866 0.70300001 -0.049303733 1.4359726e-38 318 280
-0.0012325933 0.70300001 -0.049303733 1.4267531e-38 319 280
0 0.70300001 -0.049303733 1.426718e-38 320 280
0.0012290865 0.70099998 -0.049163464 1.4174985e-38 321 280
0.0024581731 0.70099998 -0.049163464 1.380837e-38 322 280
0.0036819996 0.69999999 -0.049093332 1.380837e-38 323 280
0.0049093333 0.69999999 -0.049093332 1.3716893e-38 324 280
0.0061366665 0.69999999 -0.049093332 1.3716893e-38 325 280
0.0073429602 0.69800001 -0.048953064 1.3808726e-38 326 280
0.0085667865 0.69800001 -0.048953064 1.3623976e-38 327 280
0.0097906133 0.69800001 -0.048953064 1.3807291e-38 328 280
0.01101444 0.69800001 -0.048953064 1.3623258e-38 329 280
0.012220734 0.69700003 -0.048882935 1.353106e-38 330 280
0.013442807 0.69700003 -0.048882935 1.353106e-38 331 280
0.01466488 0.69700003 -0.048882935 1.3256265e-38 332 280
0.015886955 0.69700003 -0.048882935 1.3256265e-38 333 280
0.017133573 0.69800001 -0.048953064 1.3438864e-38 334 280
0.0183574 0.69800001 -0.048953064 1.3346669e-38 335 280
0.019581227 0.69800001 -0.048953064 1.3529265e-38 336 280
0.020805053 0.69800001 -0.048953064 1.3529265e-38 337 280
0.02202888 0.69800001 -0.048953064 1.3529978e-38 338 280
0.023319334 0.69999999 -0.049093332 1.3622174e-38 339 280
0.024546666 0.69999999 -0.049093332 1.3256265e-38 340 280
0.025773998 0.69999999 -0.049093332 1.334882e-38 341 280
0.027001332 0.69999999 -0.049093332 1.3348817e-38 342 280
0.028268991 0.70099998 -0.049163464 1.3348817e-38 343 280
0.029582238 0.70300001 -0.049303733 1.3348464e-38 344 280
0.030814834 0.70300001 -0.049303733 1.3440661e-38 345 280
0.032093015 0.704 -0.049373865 1.3256637e-38 346 280
0.03332736 0.704 -0.049373865 1.3348834e-38 347 280
0.034561705 0.704 -0.049373865 1.3258436e-38 348 280
0.035897743 0.70599997 -0.04951413 1.3258436e-38 349 280
0.037188202 0.70700002 -0.049584266 1.3259152e-38 350 280
0.038427804 0.70700002 -0.049584266 1.3259152e-38 351 280
0.039723519 0.708 -0.049654398 1.3350987e-38 352 280
0.041080594 0.70999998 -0.049794663 1.3350987e-38 353 280
0.042325463 0.70999998 -0.049794663 1.3351353e-38 354 280
0.043631699 0.71100003 -0.049864799 1.3535746e-38 355 280
0.045004558 0.713 -0.050005067 1.362796e-38 356 280
0.046319555 0.71399999 -0.050075196 1.3812351e-38 357 280
0.047704693 0.71600002 -0.050215468 1.3536503e-38 358 280
0.04902846 0.71700001 -0.0502856 1.3721254e-38 359 280
0.0502856 0.71700001 -0.0502856 1.6405039e-38 360 280
0.05168651 0.71899998 -0.050425861 1.806456e-38 361 280
-0.02262852 0.71700001 -0.051542737 1.6953881e-38 302 281
-0.021371379 0.71700001 -0.051542737 1.381923e-38 303 281
-0.020114239 0.71700001 -0.051542737 1.5104892e-38 304 281
-0.018751899 0.713 -0.051255193 1.4735749e-38 305 281
-0.017501773 0.713 -0.051255193 1.5010146e-38 306 281
-0.016251646 0.713 -0.051255193 1.4457332e-38 307 281
-0.015001519 0.713 -0.051255193 1.4548063e-38 308 281
-0.01371282 0.71100003 -0.051111419 1.4271118e-38 309 281
-0.0124662 0.71100003 -0.051111419 1.4728855e-38 310 281
-0.011203799 0.70999998 -0.051039528 1.4636659e-38 311 281
-0.0099168532 0.70700002 -0.050823875 1.4452275e-38 312 281
-0.0086649731 0.70599997 -0.050751984 1.4636306e-38 313 281
-0.0074060797 0.704 -0.050608214 1.4452275e-38 314 281
-0.0061717331 0.704 -0.050608214 1.4452275e-38 315 281
-0.0049373866 0.704 -0.050608214 1.4360079e-38 316 281
-0.0037030398 0.704 -0.050608214 1.4267884e-38 317 281
-0.0024651866 0.70300001 -0.050536323 1.4176054e-38 318 281
-0.0012325933 0.70300001 -0.050536323 1.3992023e-38 319 281
0 0.70300001 -0.050536323 1.3991669e-38 320 281
0.0012290865 0.70099998 -0.050392549 1.3991669e-38 321 281
0.0024581731 0.70099998 -0.050392549 1.3715821e-38 322 281
0.0036819996 0.69999999 -0.050320663 1.3808017e-38 323 281
0.0049093333 0.69999999 -0.050320663 1.353323e-38 324 281
0.0061366665 0.69999999 -0.050320663 1.353323e-38 325 281
0.0073429602 0.69800001 -0.050176892 1.3623625e-38 326 281
0.0085667865 0.69800001 -0.050176892 1.3531428e-38 327 281
0.0097906133 0.69800001 -0.050176892 1.3621826e-38 328 281
0.01101444 0.69800001 -0.050176892 1.3621826e-38 329 281
0.012238266 0.69800001 -0.050176892 1.3346315e-38 330 281
0.013462093 0.69800001 -0.050176892 1.3438511e-38 331 281
0.01468592 0.69800001 -0.050176892 1.3438508e-38 332 281
0.015909746 0.69800001 -0.050176892 1.3346313e-38 333 281
0.017133573 0.69800001 -0.050176892 1.3346315e-38 334 281
0.0183574 0.69800001 -0.050176892 1.325412e-38 335 281
0.019581227 0.69800001 -0.050176892 1.3437066e-38 336 281
0.020805053 0.69800001 -0.050176892 1.3529262e-38 337 281
0.02202888 0.69800001 -0.050176892 1.3254467e-38 338 281
0.023319334 0.69999999 -0.050320663 1.3254467e-38 339 281
0.024546666 0.69999999 -0.050320663 1.3072227e-38 340 281
0.025773998 0.69999999 -0.050320663 1.3072227e-38 341 281
0.027001332 0.69999999 -0.050320663 1.3164776e-38 342 281
0.028268991 0.70099998 -0.050392549 1.3256972e-38 343 281
0.029582238 0.70300001 -0.050536323 1.3164426e-38 344 281
0.030814834 0.70300001 -0.050536323 1.3164426e-38 345 281
0.032093015 0.704 -0.050608214 1.3256271e-38 346 281
0.03332736 0.704 -0.050608214 1.3440664e-38 347 281
0.034561705 0.704 -0.050608214 1.3349187e-38 348 281
0.035897743 0.70599997 -0.050751984 1.3441382e-38 349 281
0.037188202 0.70700002 -0.050823875 1.3349184e-38 350 281
0.038427804 0.70700002 -0.050823875 1.3349184e-38 351 281
0.039723519 0.708 -0.050895758 1.3441736e-38 352 281
0.041080594 0.70999998 -0.051039528 1.3441736e-38 353 281
0.042325463 0.70999998 -0.051039528 1.35343e-38 354 281
0.043631699 0.71100003 -0.051111419 1.3626495e-38 355 281
0.045004558 0.713 -0.051255193 1.3535758e-38 356 281
0.046319555 0.71399999 -0.05132708 1.3812704e-38 357 281
0.047704693 0.71600002 -0.051470853 1.353614e-38 358 281
0.04902846 0.71700001 -0.051542737 1.4181509e-38 359 281
0.0502856 0.71700001 -0.051542737 1.6865295e-38 360 281
0.051542737 0.71700001 -0.051542737 1.8340784e-38 361 281
-0.021252153 0.713 -0.052505318 1.3912863e-38 303 282
-0.020002026 0.713 -0.052505318 1.5286755e-38 304 282
-0.018751899 0.713 -0.052505318 1.5102724e-38 305 282
-0.017501773 0.713 -0.052505318 1.500978e-38 306 282
-0.016251646 0.713 -0.052505318 1.4549162e-38 307 282
-0.015001519 0.713 -0.052505318 1.4548063e-38 308 282
-0.01371282 0.71100003 -0.052358042 1.4363313e-38 309 282
-0.0124662 0.71100003 -0.052358042 1.4545543e-38 310 282
-0.011203799 0.70999998 -0.052284397 1.4453347e-38 311 282
-0.0099168532 0.70700002 -0.05206348 1.4452994e-38 312 282
-0.0086649731 0.70599997 -0.051989835 1.4360798e-38 313 282
-0.0074271196 0.70599997 -0.051989835 1.4268247e-38 314 282
-0.0061717331 0.704 -0.051842559 1.4268247e-38 315 282
-0.0049373866 0.704 -0.051842559 1.4267533e-38 316 282
-0.0037030398 0.704 -0.051842559 1.4082782e-38 317 282
-0.0024686933 0.704 -0.051842559 1.3899118e-38 318 282
-0.0012325933 0.70300001 -0.051768921 1.3806921e-38 319 282
0 0.70300001 -0.051768921 1.3806568e-38 320 282
0.0012290865 0.70099998 -0.051621638 1.3806568e-38 321 282
0.0024546667 0.69999999 -0.051547997 1.343996e-38 322 282
0.0036819996 0.69999999 -0.051547997 1.3623991e-38 323 282
0.0049093333 0.69999999 -0.051547997 1.3257011e-38 324 282
0.006119133 0.69800001 -0.051400717 1.3164815e-38 325 282
0.0073429602 0.69800001 -0.051400717 1.3531075e-38 326 282
0.0085667865 0.69800001 -0.051400717 1.3346684e-38 327 282
0.0097906133 0.69800001 -0.051400717 1.3345965e-38 328 282
0.01101444 0.69800001 -0.051400717 1.3345965e-38 329 282
0.012238266 0.69800001 -0.051400717 1.3070454e-38 330 282
0.013462093 0.69800001 -0.051400717 1.316265e-38 331 282
0.01468592 0.69800001 -0.051400717 1.316265e-38 332 282
0.015909746 0.69800001 -0.051400717 1.3070454e-38 333 282
0.017133573 0.69800001 -0.051400717 1.3161571e-38 334 282
0.0183574 0.69800001 -0.051400717 1.3161571e-38 335 282
0.019581227 0.69800001 -0.051400717 1.2978256e-38 336 282
0.020864666 0.69999999 -0.051547997 1.2886059e-38 337 282
0.022091998 0.69999999 -0.051547997 1.2795297e-38 338 282
0.023319334 0.69999999 -0.051547997 1.2795297e-38 339 282
0.024546666 0.69999999 -0.051547997 1.2795291e-38 340 282
0.025773998 0.69999999 -0.051547997 1.2979681e-38 341 282
0.027001332 0.69999999 -0.051547997 1.307223e-38 342 282
0.028268991 0.70099998 -0.051621638 1.307223e-38 343 282
0.029582238 0.70300001 -0.051768921 1.2979325e-38 344 282
0.030814834 0.70300001 -0.051768921 1.3071521e-38 345 282
0.032093015 0.704 -0.051842559 1.3071171e-38 346 282
0.03332736 0.704 -0.051842559 1.3163366e-38 347 282
0.034561705 0.704 -0.051842559 1.2888577e-38 348 282
0.035897743 0.70599997 -0.051989835 1.2980773e-38 349 282
0.037188202 0.70700002 -0.05206348 1.2981129e-38 350 282
0.038427804 0.70700002 -0.05206348 1.2981129e-38 351 282
0.039723519 0.708 -0.052137118 1.3074042e-38 352 282
0.041080594 0.70999998 -0.052284397 1.3166237e-38 353 282
0.042325463 0.70999998 -0.052284397 1.3258802e-38 354 282
0.043631699 0.71100003 -0.052358042 1.3535749e-38 355 282
0.045004558 0.713 -0.052505318 1.3444291e-38 356 282
0.046449307 0.71600002 -0.052726239 1.390527e-38 357 282
0.047704693 0.71600002 -0.052726239 1.344539e-38 358 282
0.04902846 0.71700001 -0.052799881 1.4366986e-38 359 282
0.0502856 0.71700001 -0.052799881 1.7418468e-38 360 282
-0.018778199 0.71399999 -0.053830836 1.4919777e-38 305 283
-0.017526319 0.71399999 -0.053830836 1.5102699e-38 306 283
-0.016274439 0.71399999 -0.053830836 1.4641721e-38 307 283
-0.015001519 0.713 -0.053755447 1.4916123e-38 308 283
-0.01371282 0.71100003 -0.053604662 1.4455146e-38 309 283
-0.0124662 0.71100003 -0.053604662 1.4546263e-38 310 283
-0.011203799 0.70999998 -0.053529263 1.4270035e-38 311 283
-0.0099168532 0.70700002 -0.053303085 1.4636306e-38 312 283
-0.0086649731 0.70599997 -0.053227689 1.4452275e-38 313 283
-0.0074271196 0.70599997 -0.053227689 1.4267528e-38 314 283
-0.0061717331 0.704 -0.053076904 1.4175332e-38 315 283
-0.0049373866 0.704 -0.053076904 1.4358294e-38 316 283
-0.0037030398 0.704 -0.053076904 1.4082066e-38 317 283
-0.0024686933 0.704 -0.053076904 1.3990239e-38 318 283
-0.0012325933 0.70300001 -0.053001512 1.3897684e-38 319 283
0 0.70099998 -0.052850723 1.3714022e-38 320 283
0.0012290865 0.70099998 -0.052850723 1.3714022e-38 321 283
0.0024546667 0.69999999 -0.052775331 1.3531078e-38 322 283
0.0036819996 0.69999999 -0.052775331 1.3623275e-38 323 283
0.0049093333 0.69999999 -0.052775331 1.3439607e-38 324 283
0.006119133 0.69800001 -0.052624546 1.3439607e-38 325 283
0.0073429602 0.69800001 -0.052624546 1.3438527e-38 326 283
0.0085667865 0.69800001 -0.052624546 1.3346331e-38 327 283
0.0097906133 0.69800001 -0.052624546 1.3345965e-38 328 283
0.01101444 0.69800001 -0.052624546 1.325377e-38 329 283
0.012238266 0.69800001 -0.052624546 1.3161571e-38 330 283
0.013462093 0.69800001 -0.052624546 1.3253767e-38 331 283
0.01468592 0.69800001 -0.052624546 1.3070099e-38 332 283
0.015909746 0.69800001 -0.052624546 1.3162653e-38 333 283
0.017133573 0.69800001 -0.052624546 1.3070099e-38 334 283
0.0183574 0.69800001 -0.052624546 1.2977903e-38 335 283
0.019581227 0.69800001 -0.052624546 1.2702391e-38 336 283
0.020864666 0.69999999 -0.052775331 1.2610195e-38 337 283
0.022091998 0.69999999 -0.052775331 1.2793863e-38 338 283
0.023319334 0.69999999 -0.052775331 1.2886059e-38 339 283
0.024546666 0.69999999 -0.052775331 1.2702741e-38 340 283
0.025773998 0.69999999 -0.052775331 1.2702741e-38 341 283
0.027001332 0.69999999 -0.052775331 1.2795647e-38 342 283
0.028268991 0.70099998 -0.052850723 1.2795647e-38 343 283
0.029582238 0.70300001 -0.053001512 1.2978606e-38 344 283
0.030814834 0.70300001 -0.053001512 1.2978606e-38 345 283
0.032093015 0.704 -0.053076904 1.3161568e-38 346 283
0.03332736 0.704 -0.053076904 1.3253764e-38 347 283
0.034561705 0.704 -0.053076904 1.3071171e-38 348 283
0.035897743 0.70599997 -0.053227689 1.3071171e-38 349 283
0.037135597 0.70599997 -0.053227689 1.2888927e-38 350 283
0.038373452 0.70599997 -0.053227689 1.2981123e-38 351 283
0.039723519 0.708 -0.053378478 1.2890362e-38 352 283
0.041080594 0.70999998 -0.053529263 1.3166591e-38 353 283
0.042325463 0.70999998 -0.053529263 1.3258802e-38 354 283
0.043631699 0.71100003 -0.053604662 1.3535749e-38 355 283
0.045004558 0.713 -0.053755447 1.3536493e-38 356 283
0.046449307 0.71600002 -0.053981625 1.4089308e-38 357 283
0.047704693 0.71600002 -0.053981625 1.3814537e-38 358 283
0.04902846 0.71700001 -0.054057021 1.4736495e-38 359 283
0.050706398 0.72299999 -0.054509375 1.7787976e-38 360 283
-0.020086186 0.71600002 -0.055237014 1.5197453e-38 304 284
-0.0188308 0.71600002 -0.055237014 1.4644279e-38 305 284
-0.017526319 0.71399999 -0.05508272 1.5011948e-38 306 284
-0.016274439 0.71399999 -0.05508272 1.4458774e-38 307 284
-0.015001519 0.713 -0.055005573 1.4916137e-38 308 284
-0.01371282 0.71100003 -0.054851279 1.4455159e-38 309 284
-0.0124662 0.71100003 -0.054851279 1.4362244e-38 310 284
-0.011203799 0.70999998 -0.054774132 1.4270047e-38 311 284
-0.0099168532 0.70700002 -0.054542694 1.4360445e-38 312 284
-0.0086649731 0.70599997 -0.054465543 1.4268249e-38 313 284
-0.0074271196 0.70599997 -0.054465543 1.4175335e-38 314 284
-0.0061717331 0.704 -0.054311249 1.4175335e-38 315 284
-0.0049373866 0.704 -0.054311249 1.3807274e-38 316 284
-0.0037030398 0.704 -0.054311249 1.3715078e-38 317 284
-0.0024686933 0.704 -0.054311249 1.3622177e-38 318 284
-0.0012325933 0.70300001 -0.054234106 1.3529981e-38 319 284
0 0.70099998 -0.054079808 1.316265e-38 320 284
0.0012290865 0.70099998 -0.054079808 1.316265e-38 321 284
0.0024546667 0.69999999 -0.054002665 1.3346331e-38 322 284
0.0036819996 0.69999999 -0.054002665 1.3438527e-38 323 284
0.0049093333 0.69999999 -0.054002665 1.3438173e-38 324 284
0.006119133 0.69800001 -0.053848371 1.3438173e-38 325 284
0.0073429602 0.69800001 -0.053848371 1.3345978e-38 326 284
0.0085913334 0.69999999 -0.054002665 1.3345978e-38 327 284
0.0098186666 0.69999999 -0.054002665 1.3163016e-38 328 284
0.011045999 0.69999999 -0.054002665 1.307082e-38 329 284
0.012273333 0.69999999 -0.054002665 1.2978622e-38 330 284
0.013500666 0.69999999 -0.054002665 1.2978622e-38 331 284
0.014727999 0.69999999 -0.054002665 1.2978625e-38 332 284
0.015955333 0.69999999 -0.054002665 1.2978625e-38 333 284
0.017182667 0.69999999 -0.054002665 1.2794591e-38 334 284
0.018409999 0.69999999 -0.054002665 1.2702394e-38 335 284
0.019637333 0.69999999 -0.054002665 1.2610195e-38 336 284
0.020864666 0.69999999 -0.054002665 1.2518e-38 337 284
0.022091998 0.69999999 -0.054002665 1.2701668e-38 338 284
0.023319334 0.69999999 -0.054002665 1.2701668e-38 339 284
0.024546666 0.69999999 -0.054002665 1.2793142e-38 340 284
0.025810819 0.70099998 -0.054079808 1.2885337e-38 341 284
0.027039904 0.70099998 -0.054079808 1.2610901e-38 342 284
0.028389972 0.704 -0.054311249 1.2610901e-38 343 284
0.029624319 0.704 -0.054311249 1.2794214e-38 344 284
0.030858666 0.704 -0.054311249 1.2886409e-38 345 284
0.032093015 0.704 -0.054311249 1.2885337e-38 346 284
0.03332736 0.704 -0.054311249 1.2977533e-38 347 284
0.034561705 0.704 -0.054311249 1.2795294e-38 348 284
0.035897743 0.70599997 -0.054465543 1.2795294e-38 349 284
0.037135597 0.70599997 -0.054465543 1.2797085e-38 350 284
0.038373452 0.70599997 -0.054465543 1.2889281e-38 351 284
0.039723519 0.708 -0.054619838 1.2890727e-38 352 284
0.041080594 0.70999998 -0.054774132 1.2982922e-38 353 284
0.042385083 0.71100003 -0.054851279 1.3075492e-38 354 284
0.043631699 0.71100003 -0.054851279 1.335208e-38 355 284
0.045004558 0.713 -0.055005573 1.3261698e-38 356 284
0.046319555 0.71399999 -0.05508272 1.3722676e-38 357 284
0.047704693 0.71600002 -0.055237014 1.4092923e-38 358 284
0.049438741 0.72299999 -0.055777039 1.5660249e-38 359 284
-0.018857099 0.71700001 -0.056571297 1.4368787e-38 305 285
-0.017599959 0.71700001 -0.056571297 1.5104144e-38 306 285
-0.016320027 0.71600002 -0.056492399 1.455097e-38 307 285
-0.015022559 0.71399999 -0.0563346 1.4916137e-38 308 285
-0.013751393 0.713 -0.056255698 1.4547713e-38 309 285
-0.0124662 0.71100003 -0.056097899 1.4637392e-38 310 285
-0.01121958 0.71100003 -0.056097899 1.4545195e-38 311 285
-0.0099589331 0.70999998 -0.056018997 1.417713e-38 312 285
-0.008677247 0.70700002 -0.055782299 1.4084934e-38 313 285
-0.0074271196 0.70599997 -0.055703394 1.4176407e-38 314 285
-0.0061892662 0.70599997 -0.055703394 1.3992017e-38 315 285
-0.0049373866 0.704 -0.055545598 1.3990942e-38 316 285
-0.0037030398 0.704 -0.055545598 1.3714357e-38 317 285
-0.0024686933 0.704 -0.055545598 1.3345594e-38 318 285
-0.0012325933 0.70300001 -0.0554667 1.3345594e-38 319 285
0 0.70300001 -0.0554667 1.325377e-38 320 285
0.0012290865 0.70099998 -0.055308893 1.3345965e-38 321 285
0.0024546667 0.69999999 -0.055229999 1.3161944e-38 322 285
0.0036819996 0.69999999 -0.055229999 1.3346334e-38 323 285
0.0049093333 0.69999999 -0.055229999 1.3254508e-38 324 285
0.006119133 0.69800001 -0.0550722 1.3070117e-38 325 285
0.0073429602 0.69800001 -0.0550722 1.3253066e-38 326 285
0.0085913334 0.69999999 -0.055229999 1.3345262e-38 327 285
0.0098186666 0.69999999 -0.055229999 1.3070823e-38 328 285
0.011045999 0.69999999 -0.055229999 1.3163019e-38 329 285
0.012273333 0.69999999 -0.055229999 1.2978625e-38 330 285
0.013500666 0.69999999 -0.055229999 1.2978625e-38 331 285
0.014727999 0.69999999 -0.055229999 1.2702041e-38 332 285
0.015955333 0.69999999 -0.055229999 1.2702041e-38 333 285
0.017182667 0.69999999 -0.055229999 1.2702041e-38 334 285
0.018409999 0.69999999 -0.055229999 1.2517649e-38 335 285
0.019637333 0.69999999 -0.055229999 1.2425804e-38 336 285
0.020864666 0.69999999 -0.055229999 1.2425804e-38 337 285
0.022091998 0.69999999 -0.055229999 1.2608395e-38 338 285
0.023319334 0.69999999 -0.055229999 1.2700949e-38 339 285
0.024581732 0.70099998 -0.055308893 1.2793142e-38 340 285
0.025810819 0.70099998 -0.055308893 1.2700946e-38 341 285
0.027039904 0.70099998 -0.055308893 1.2518703e-38 342 285
0.028389972 0.704 -0.055545598 1.2518703e-38 343 285
0.029624319 0.704 -0.055545598 1.2610896e-38 344 285
0.030858666 0.704 -0.055545598 1.270345e-38 345 285
0.032093015 0.704 -0.055545598 1.2886409e-38 346 285
0.033422034 0.70599997 -0.055703394 1.2978606e-38 347 285
0.034659892 0.70599997 -0.055703394 1.2795644e-38 348 285
0.035897743 0.70599997 -0.055703394 1.2979676e-38 349 285
0.0372408 0.708 -0.055861197 1.2706321e-38 350 285
0.038482159 0.708 -0.055861197 1.2798517e-38 351 285
0.039723519 0.708 -0.055861197 1.289073e-38 352 285
0.041080594 0.70999998 -0.056018997 1.3075121e-38 353 285
0.042385083 0.71100003 -0.056097899 1.3167332e-38 354 285
0.043631699 0.71100003 -0.056097899 1.362831e-38 355 285
0.045004558 0.713 -0.056255698 1.3354969e-38 356 285
0.046319555 0.71399999 -0.0563346 1.3447166e-38 357 285
0.047571439 0.71399999 -0.0563346 1.4739011e-38 358 285
-0.017599959 0.71700001 -0.057828441 1.5011247e-38 306 286
-0.016320027 0.71600002 -0.057747785 1.4826497e-38 307 286
-0.01506464 0.71600002 -0.057747785 1.4825767e-38 308 286
-0.013751393 0.713 -0.057505824 1.4456626e-38 309 286
-0.012501267 0.713 -0.057505824 1.4363341e-38 310 286
-0.01121958 0.71100003 -0.057344519 1.417895e-38 311 286
-0.0099589331 0.70999998 -0.057263866 1.4269697e-38 312 286
-0.008677247 0.70700002 -0.057021905 1.4085306e-38 313 286
-0.0074271196 0.70599997 -0.056941248 1.3992751e-38 314 286
-0.0061892662 0.70599997 -0.056941248 1.380872e-38 315 286
-0.0049514128 0.70599997 -0.056941248 1.3807644e-38 316 286
-0.0037135598 0.70599997 -0.056941248 1.3531057e-38 317 286
-0.0024686933 0.704 -0.056779943 1.3346666e-38 318 286
-0.0012343467 0.704 -0.056779943 1.325447e-38 319 286
0 0.70300001 -0.056699295 1.3070805e-38 320 286
0.0012325933 0.70300001 -0.056699295 1.3070805e-38 321 286
0.0024581731 0.70099998 -0.056537982 1.3070099e-38 322 286
0.0036819996 0.69999999 -0.056457333 1.3070099e-38 323 286
0.0049093333 0.69999999 -0.056457333 1.3161944e-38 324 286
0.0061366665 0.69999999 -0.056457333 1.3069748e-38 325 286
0.0073639993 0.69999999 -0.056457333 1.3160865e-38 326 286
0.0085913334 0.69999999 -0.056457333 1.325306e-38 327 286
0.0098186666 0.69999999 -0.056457333 1.2978625e-38 328 286
0.011045999 0.69999999 -0.056457333 1.2978625e-38 329 286
0.012273333 0.69999999 -0.056457333 1.2977903e-38 330 286
0.013500666 0.69999999 -0.056457333 1.2885706e-38 331 286
0.014727999 0.69999999 -0.056457333 1.2793513e-38 332 286
0.015955333 0.69999999 -0.056457333 1.2700959e-38 333 286
0.017182667 0.69999999 -0.056457333 1.2701315e-38 334 286
0.018409999 0.69999999 -0.056457333 1.2517284e-38 335 286
0.019637333 0.69999999 -0.056457333 1.2517634e-38 336 286
0.020864666 0.69999999 -0.056457333 1.2517634e-38 337 286
0.022091998 0.69999999 -0.056457333 1.2517631e-38 338 286
0.023352645 0.70099998 -0.056537982 1.2517631e-38 339 286
0.024581732 0.70099998 -0.056537982 1.2425789e-38 340 286
0.025884461 0.70300001 -0.056699295 1.2517984e-38 341 286
0.027117053 0.70300001 -0.056699295 1.2426505e-38 342 286
0.028389972 0.704 -0.056779943 1.25187e-38 343 286
0.029624319 0.704 -0.056779943 1.2702015e-38 344 286
0.030858666 0.704 -0.056779943 1.2886407e-38 345 286
0.032093015 0.704 -0.056779943 1.2795294e-38 346 286
0.033422034 0.70599997 -0.056941248 1.2795294e-38 347 286
0.034659892 0.70599997 -0.056941248 1.279601e-38 348 286
0.035897743 0.70599997 -0.056941248 1.298076e-38 349 286
0.0372408 0.708 -0.057102561 1.2706687e-38 350 286
0.038482159 0.708 -0.057102561 1.289108e-38 351 286
0.039835732 0.70999998 -0.057263866 1.3075124e-38 352 286
0.041080594 0.70999998 -0.057263866 1.3075124e-38 353 286
0.042385083 0.71100003 -0.057344519 1.3260251e-38 354 286
0.043631699 0.71100003 -0.057344519 1.3444642e-38 355 286
0.045004558 0.713 -0.057505824 1.38138e-38 356 286
0.046319555 0.71399999 -0.057586476 1.4274778e-38 357 286
0.047571439 0.71399999 -0.057586476 1.5663145e-38 358 286
-0.017599959 0.71700001 -0.059085581 1.5194935e-38 306 287
-0.016320027 0.71600002 -0.059003171 1.4825794e-38 307 287
-0.015022559 0.71399999 -0.058838356 1.4916531e-38 308 287
-0.013751393 0.713 -0.058755953 1.4455554e-38 309 287
-0.012501267 0.713 -0.058755953 1.4639203e-38 310 287
-0.01121958 0.71100003 -0.058591139 1.4454811e-38 311 287
-0.0099589331 0.70999998 -0.058508728 1.4269697e-38 312 287
-0.008689519 0.708 -0.058343921 1.4177501e-38 313 287
-0.0074376399 0.70700002 -0.05826151 1.4084584e-38 314 287
-0.0061892662 0.70599997 -0.058179103 1.3992388e-38 315 287
-0.0049514128 0.70599997 -0.058179103 1.380799e-38 316 287
-0.0037135598 0.70599997 -0.058179103 1.3531763e-38 317 287
-0.0024686933 0.704 -0.058014292 1.3347022e-38 318 287
-0.0012343467 0.704 -0.058014292 1.3254467e-38 319 287
0 0.704 -0.058014292 1.3070808e-38 320 287
0.0012325933 0.70300001 -0.057931885 1.3070808e-38 321 287
0.0024581731 0.70099998 -0.057767071 1.3070099e-38 322 287
0.0036819996 0.69999999 -0.05768466 1.3162653e-38 323 287
0.0049093333 0.69999999 -0.05768466 1.2978625e-38 324 287
0.0061366665 0.69999999 -0.05768466 1.2978625e-38 325 287
0.0073639993 0.69999999 -0.05768466 1.2978625e-38 326 287
0.0085913334 0.69999999 -0.05768466 1.2702396e-38 327 287
0.0098186666 0.69999999 -0.05768466 1.2794593e-38 328 287
0.011045999 0.69999999 -0.05768466 1.2794593e-38 329 287
0.012273333 0.69999999 -0.05768466 1.2702396e-38 330 287
0.013500666 0.69999999 -0.05768466 1.2609842e-38 331 287
0.014727999 0.69999999 -0.05768466 1.2700959e-38 332 287
0.015955333 0.69999999 -0.05768466 1.2700959e-38 333 287
0.017182667 0.69999999 -0.05768466 1.2517281e-38 334 287
0.018409999 0.69999999 -0.05768466 1.2517281e-38 335 287
0.019637333 0.69999999 -0.05768466 1.2426157e-38 336 287
0.020894472 0.70099998 -0.057767071 1.2333603e-38 337 287
0.022123558 0.70099998 -0.057767071 1.2517634e-38 338 287
0.023352645 0.70099998 -0.057767071 1.2517634e-38 339 287
0.024651866 0.70300001 -0.057931885 1.2425433e-38 340 287
0.02592128 0.704 -0.058014292 1.2517987e-38 341 287
0.027155625 0.704 -0.058014292 1.2243195e-38 342 287
0.028389972 0.704 -0.058014292 1.2335391e-38 343 287
0.029624319 0.704 -0.058014292 1.2610901e-38 344 287
0.030946331 0.70599997 -0.058179103 1.2703097e-38 345 287
0.032184184 0.70599997 -0.058179103 1.2795297e-38 346 287
0.033422034 0.70599997 -0.058179103 1.2795297e-38 347 287
0.034659892 0.70599997 -0.058179103 1.2796732e-38 348 287
0.035948593 0.70700002 -0.05826151 1.2888927e-38 349 287
0.0372408 0.708 -0.058343921 1.2889653e-38 350 287
0.038482159 0.708 -0.058343921 1.3074045e-38 351 287
0.039835732 0.70999998 -0.058508728 1.2981869e-38 352 287
0.041080594 0.70999998 -0.058508728 1.3258454e-38 353 287
0.042385083 0.71100003 -0.058591139 1.325955e-38 354 287
0.043631699 0.71100003 -0.058591139 1.3812724e-38 355 287
0.045067675 0.71399999 -0.058838356 1.3814537e-38 356 287
0.046319555 0.71399999 -0.058838356 1.4644299e-38 357 287
-0.018857099 0.71700001 -0.060342718 1.5020309e-38 305 288
-0.017599959 0.71700001 -0.060342718 1.5379699e-38 306 288
-0.016320027 0.71600002 -0.06025856 1.4918721e-38 307 288
-0.015022559 0.71399999 -0.060090236 1.4826147e-38 308 288
-0.013751393 0.713 -0.060006075 1.4365528e-38 309 288
-0.012501267 0.713 -0.060006075 1.4548105e-38 310 288
-0.01121958 0.71100003 -0.059837762 1.4363354e-38 311 288
-0.0099589331 0.70999998 -0.059753593 1.4270067e-38 312 288
-0.008689519 0.708 -0.059585281 1.4270067e-38 313 288
-0.0074376399 0.70700002 -0.059501119 1.390164e-38 314 288
-0.0061980332 0.70700002 -0.059501119 1.3809086e-38 315 288
-0.0049514128 0.70599997 -0.059416957 1.3441736e-38 316 288
-0.0037135598 0.70599997 -0.059416957 1.3164788e-38 317 288
-0.0024686933 0.704 -0.059248637 1.3163354e-38 318 288
-0.0012343467 0.704 -0.059248637 1.2978962e-38 319 288
0 0.704 -0.059248637 1.3161568e-38 320 288
0.0012325933 0.70300001 -0.059164476 1.3161568e-38 321 288
0.0024581731 0.70099998 -0.058996156 1.3161215e-38 322 288
0.0036872597 0.70099998 -0.058996156 1.3161215e-38 323 288
0.0049163462 0.70099998 -0.058996156 1.2978975e-38 324 288
0.0061366665 0.69999999 -0.058911994 1.2978975e-38 325 288
0.0073639993 0.69999999 -0.058911994 1.2794588e-38 326 288
0.0085913334 0.69999999 -0.058911994 1.2794588e-38 327 288
0.0098186666 0.69999999 -0.058911994 1.2884987e-38 328 288
0.011045999 0.69999999 -0.058911994 1.2977183e-38 329 288
0.012273333 0.69999999 -0.058911994 1.2793507e-38 330 288
0.013500666 0.69999999 -0.058911994 1.2701312e-38 331 288
0.014727999 0.69999999 -0.058911994 1.2700596e-38 332 288
0.015955333 0.69999999 -0.058911994 1.2792791e-38 333 288
0.017182667 0.69999999 -0.058911994 1.2517284e-38 334 288
0.018409999 0.69999999 -0.058911994 1.2517284e-38 335 288
0.019665385 0.70099998 -0.058996156 1.2425448e-38 336 288
0.020894472 0.70099998 -0.058996156 1.2518002e-38 337 288
0.022123558 0.70099998 -0.058996156 1.2334331e-38 338 288
0.023419274 0.70300001 -0.059164476 1.2334331e-38 339 288
0.024651866 0.70300001 -0.059164476 1.2426154e-38 340 288
0.02592128 0.704 -0.059248637 1.2426154e-38 341 288
0.027155625 0.704 -0.059248637 1.2426507e-38 342 288
0.028470624 0.70599997 -0.059416957 1.2518703e-38 343 288
0.029708479 0.70599997 -0.059416957 1.2610899e-38 344 288
0.030946331 0.70599997 -0.059416957 1.2703094e-38 345 288
0.032184184 0.70599997 -0.059416957 1.2703097e-38 346 288
0.033469379 0.70700002 -0.059501119 1.2979325e-38 347 288
0.034708988 0.70700002 -0.059501119 1.2888574e-38 348 288
0.035948593 0.70700002 -0.059501119 1.2981129e-38 349 288
0.0372408 0.708 -0.059585281 1.2889303e-38 350 288
0.038590867 0.70999998 -0.059753593 1.3073336e-38 351 288
0.039835732 0.70999998 -0.059753593 1.325773e-38 352 288
0.041080594 0.70999998 -0.059753593 1.3350284e-38 353 288
0.042385083 0.71100003 -0.059837762 1.3168781e-38 354 288
0.043631699 0.71100003 -0.059837762 1.3629758e-38 355 288
0.045067675 0.71399999 -0.060090236 1.4093648e-38 356 288
-0.017575413 0.71600002 -0.061513945 1.5381867e-38 306 289
-0.016320027 0.71600002 -0.061513945 1.4736497e-38 307 289
-0.01506464 0.71600002 -0.061513945 1.5193843e-38 308 289
-0.01377068 0.71399999 -0.061342116 1.4825061e-38 309 289
-0.012501267 0.713 -0.061256204 1.4732134e-38 310 289
-0.01121958 0.71100003 -0.061084379 1.4455907e-38 311 289
-0.0099589331 0.70999998 -0.060998458 1.4454461e-38 312 289
-0.008689519 0.708 -0.060826641 1.4269711e-38 313 289
-0.0074481601 0.708 -0.060826641 1.3902356e-38 314 289
-0.0062067998 0.708 -0.060826641 1.3810161e-38 315 289
-0.0049584266 0.70700002 -0.060740728 1.3717594e-38 316 289
-0.0037135598 0.70599997 -0.060654808 1.334917e-38 317 289
-0.0024757064 0.70599997 -0.060654808 1.3439933e-38 318 289
-0.0012343467 0.704 -0.060482983 1.3163707e-38 319 289
0 0.704 -0.060482983 1.3070452e-38 320 289
0.0012343467 0.704 -0.060482983 1.3070452e-38 321 289
0.0024651866 0.70300001 -0.06039707 1.2978259e-38 322 289
0.0036872597 0.70099998 -0.060225245 1.3070454e-38 323 289
0.0049163462 0.70099998 -0.060225245 1.3071171e-38 324 289
0.0061454331 0.70099998 -0.060225245 1.3071171e-38 325 289
0.0073639993 0.69999999 -0.060139328 1.2978622e-38 326 289
0.0085913334 0.69999999 -0.060139328 1.2794591e-38 327 289
0.0098326923 0.70099998 -0.060225245 1.2885706e-38 328 289
0.011045999 0.69999999 -0.060139328 1.2977903e-38 329 289
0.012273333 0.69999999 -0.060139328 1.2793507e-38 330 289
0.013519952 0.70099998 -0.060225245 1.2793507e-38 331 289
0.014749039 0.70099998 -0.060225245 1.2701312e-38 332 289
0.015978126 0.70099998 -0.060225245 1.2701312e-38 333 289
0.017207211 0.70099998 -0.060225245 1.2701312e-38 334 289
0.018436298 0.70099998 -0.060225245 1.2793507e-38 335 289
0.019665385 0.70099998 -0.060225245 1.2610198e-38 336 289
0.020954086 0.70300001 -0.06039707 1.2702394e-38 337 289
0.02218668 0.70300001 -0.06039707 1.2427605e-38 338 289
0.023419274 0.70300001 -0.06039707 1.233505e-38 339 289
0.024686933 0.704 -0.060482983 1.2517997e-38 340 289
0.02592128 0.704 -0.060482983 1.2610551e-38 341 289
0.027232772 0.70599997 -0.060654808 1.2335038e-38 342 289
0.028470624 0.70599997 -0.060654808 1.2519069e-38 343 289
0.029708479 0.70599997 -0.060654808 1.2702741e-38 344 289
0.030946331 0.70599997 -0.060654808 1.2795297e-38 345 289
0.032184184 0.70599997 -0.060654808 1.2888211e-38 346 289
0.033469379 0.70700002 -0.060740728 1.2888211e-38 347 289
0.034708988 0.70700002 -0.060740728 1.2888574e-38 348 289
0.03599944 0.708 -0.060826641 1.3073324e-38 349 289
0.037345998 0.70999998 -0.060998458 1.2890023e-38 350 289
0.038590867 0.70999998 -0.060998458 1.2982219e-38 351 289
0.039835732 0.70999998 -0.060998458 1.2982943e-38 352 289
0.041138459 0.71100003 -0.061084379 1.325953e-38 353 289
0.042385083 0.71100003 -0.061084379 1.3261701e-38 354 289
0.043631699 0.71100003 -0.061084379 1.390707e-38 355 289
0.044878319 0.71100003 -0.061084379 1.4094741e-38 356 289
-0.017575413 0.71600002 -0.062769331 1.5476949e-38 306 290
-0.016320027 0.71600002 -0.062769331 1.4555352e-38 307 290
-0.015022559 0.71399999 -0.062593997 1.5378956e-38 308 290
-0.01377068 0.71399999 -0.062593997 1.5010175e-38 309 290
-0.012501267 0.713 -0.062506333 1.4733572e-38 310 290
-0.01121958 0.71100003 -0.062331002 1.4548822e-38 311 290
-0.0099729598 0.71100003 -0.062331002 1.4364063e-38 312 290
-0.0087140659 0.70999998 -0.062243331 1.4179313e-38 313 290
-0.0074481601 0.708 -0.062068 1.3903793e-38 314 290
-0.0062067998 0.708 -0.062068 1.3626846e-38 315 290
-0.0049584266 0.70700002 -0.061980337 1.3809792e-38 316 290
-0.0037135598 0.70599997 -0.061892662 1.3625401e-38 317 290
-0.0024757064 0.70599997 -0.061892662 1.334882e-38 318 290
-0.0012378532 0.70599997 -0.061892662 1.316407e-38 319 290
0 0.70599997 -0.061892662 1.3163719e-38 320 290
0.0012343467 0.704 -0.061717331 1.3071524e-38 321 290
0.0024686933 0.704 -0.061717331 1.3070808e-38 322 290
0.0036977797 0.70300001 -0.061629668 1.3163003e-38 323 290
0.0049303733 0.70300001 -0.061629668 1.3163722e-38 324 290
0.0061629666 0.70300001 -0.061629668 1.3163722e-38 325 290
0.0073745195 0.70099998 -0.06145433 1.316265e-38 326 290
0.0086036054 0.70099998 -0.06145433 1.316265e-38 327 290
0.0098326923 0.70099998 -0.06145433 1.3070454e-38 328 290
0.011061779 0.70099998 -0.06145433 1.3070454e-38 329 290
0.012290866 0.70099998 -0.06145433 1.2702747e-38 330 290
0.013519952 0.70099998 -0.06145433 1.2702747e-38 331 290
0.014749039 0.70099998 -0.06145433 1.2886056e-38 332 290
0.015978126 0.70099998 -0.06145433 1.2886056e-38 333 290
0.017207211 0.70099998 -0.06145433 1.2702744e-38 334 290
0.018488899 0.70300001 -0.061629668 1.2702744e-38 335 290
0.019721493 0.70300001 -0.061629668 1.2702391e-38 336 290
0.020983893 0.704 -0.061717331 1.2702391e-38 337 290
0.022218239 0.704 -0.061717331 1.2610917e-38 338 290
0.023452586 0.704 -0.061717331 1.2610917e-38 339 290
0.024686933 0.704 -0.061717331 1.2702391e-38 340 290
0.025994917 0.70599997 -0.061892662 1.2702391e-38 341 290
0.027232772 0.70599997 -0.061892662 1.2427599e-38 342 290
0.028470624 0.70599997 -0.061892662 1.261235e-38 343 290
0.029708479 0.70599997 -0.061892662 1.2887858e-38 344 290
0.030990168 0.70700002 -0.061980337 1.2887858e-38 345 290
0.032229774 0.70700002 -0.061980337 1.2888574e-38 346 290
0.033469379 0.70700002 -0.061980337 1.2888574e-38 347 290
0.034708988 0.70700002 -0.061980337 1.2797461e-38 348 290
0.03599944 0.708 -0.062068 1.2889656e-38 349 290
0.037345998 0.70999998 -0.062243331 1.2982222e-38 350 290
0.038590867 0.70999998 -0.062243331 1.3074417e-38 351 290
0.039891839 0.71100003 -0.062331002 1.3075502e-38 352 290
0.041138459 0.71100003 -0.062331002 1.3260253e-38 353 290
0.042385083 0.71100003 -0.062331002 1.3353911e-38 354 290
0.043631699 0.71100003 -0.062331002 1.3907083e-38 355 290
-0.016274439 0.71399999 -0.063845873 1.4649712e-38 307 291
-0.015022559 0.71399999 -0.063845873 1.5471516e-38 308 291
-0.01377068 0.71399999 -0.063845873 1.5103093e-38 309 291
-0.012518799 0.71399999 -0.063845873 1.4551342e-38 310 291
-0.011251139 0.713 -0.063756458 1.4275114e-38 311 291
-0.0099729598 0.71100003 -0.063577622 1.4273311e-38 312 291
-0.0087140659 0.70999998 -0.063488193 1.4181115e-38 313 291
-0.0074691991 0.70999998 -0.063488193 1.4087471e-38 314 291
-0.0062243328 0.70999998 -0.063488193 1.3811244e-38 315 291
-0.0049654399 0.708 -0.063309364 1.3810158e-38 316 291
-0.0037188199 0.70700002 -0.063219935 1.3533931e-38 317 291
-0.0024757064 0.70599997 -0.063130513 1.3258423e-38 318 291
-0.0012378532 0.70599997 -0.063130513 1.3073672e-38 319 291
0 0.70599997 -0.063130513 1.3164435e-38 320 291
0.0012378532 0.70599997 -0.063130513 1.2980404e-38 321 291
0.0024686933 0.704 -0.062951677 1.3163719e-38 322 291
0.0037030398 0.704 -0.062951677 1.3255915e-38 323 291
0.0049373866 0.704 -0.062951677 1.3164438e-38 324 291
0.0061629666 0.70300001 -0.062862262 1.3164438e-38 325 291
0.0073955595 0.70300001 -0.062862262 1.3163722e-38 326 291
0.0086281532 0.70300001 -0.062862262 1.3163722e-38 327 291
0.0098607466 0.70300001 -0.062862262 1.3163366e-38 328 291
0.01109334 0.70300001 -0.062862262 1.3071171e-38 329 291
0.012325933 0.70300001 -0.062862262 1.2887858e-38 330 291
0.013558527 0.70300001 -0.062862262 1.2795663e-38 331 291
0.014791119 0.70300001 -0.062862262 1.279566e-38 332 291
0.016023712 0.70300001 -0.062862262 1.2703464e-38 333 291
0.017256306 0.70300001 -0.062862262 1.2795663e-38 334 291
0.018488899 0.70300001 -0.062862262 1.2795663e-38 335 291
0.019749546 0.704 -0.062951677 1.2703111e-38 336 291
0.021043506 0.70599997 -0.063130513 1.2703111e-38 337 291
0.022281358 0.70599997 -0.063130513 1.2794588e-38 338 291
0.023519212 0.70599997 -0.063130513 1.2978978e-38 339 291
0.024757065 0.70599997 -0.063130513 1.2703467e-38 340 291
0.025994917 0.70599997 -0.063130513 1.2795663e-38 341 291
0.027232772 0.70599997 -0.063130513 1.2520515e-38 342 291
0.028470624 0.70599997 -0.063130513 1.2613069e-38 343 291
0.029750559 0.70700002 -0.063219935 1.288858e-38 344 291
0.030990168 0.70700002 -0.063219935 1.288858e-38 345 291
0.032229774 0.70700002 -0.063219935 1.2980776e-38 346 291
0.033516716 0.708 -0.063309364 1.288858e-38 347 291
0.034856264 0.70999998 -0.063488193 1.3072971e-38 348 291
0.036101133 0.70999998 -0.063488193 1.3165168e-38 349 291
0.037398599 0.71100003 -0.063577622 1.2890742e-38 350 291
0.038645219 0.71100003 -0.063577622 1.3075492e-38 351 291
0.039891839 0.71100003 -0.063577622 1.31677e-38 352 291
0.041138459 0.71100003 -0.063577622 1.3352452e-38 353 291
0.042385083 0.71100003 -0.063577622 1.3170601e-38 354 291
-0.016251646 0.713 -0.065006584 1.4651877e-38 307 292
-0.015001519 0.713 -0.065006584 1.5013062e-38 308 292
-0.013751393 0.713 -0.065006584 1.4644279e-38 309 292
-0.012501267 0.713 -0.065006584 1.4919402e-38 310 292
-0.011251139 0.713 -0.065006584 1.4550619e-38 311 292
-0.0099729598 0.71100003 -0.064824238 1.4550247e-38 312 292
-0.0087263398 0.71100003 -0.064824238 1.4181466e-38 313 292
-0.0074691991 0.70999998 -0.064733058 1.4271496e-38 314 292
-0.0062243328 0.70999998 -0.064733058 1.3994908e-38 315 292
-0.0049794666 0.70999998 -0.064733058 1.3901988e-38 316 292
-0.00372408 0.708 -0.06455072 1.3717597e-38 317 292
-0.0024792133 0.70700002 -0.064459547 1.3534284e-38 318 292
-0.0012396066 0.70700002 -0.064459547 1.3442089e-38 319 292
0 0.70700002 -0.064459547 1.3349536e-38 320 292
0.0012396066 0.70700002 -0.064459547 1.325734e-38 321 292
0.0024757064 0.70599997 -0.064368367 1.3256984e-38 322 292
0.0037030398 0.704 -0.064186029 1.3256984e-38 323 292
0.0049373866 0.704 -0.064186029 1.3256987e-38 324 292
0.0061629666 0.70300001 -0.064094849 1.3256987e-38 325 292
0.0073955595 0.70300001 -0.064094849 1.3348464e-38 326 292
0.0086281532 0.70300001 -0.064094849 1.3348464e-38 327 292
0.0098607466 0.70300001 -0.064094849 1.3439583e-38 328 292
0.01109334 0.70300001 -0.064094849 1.3439583e-38 329 292
0.012325933 0.70300001 -0.064094849 1.3164791e-38 330 292
0.013577812 0.704 -0.064186029 1.298076e-38 331 292
0.014812159 0.704 -0.064186029 1.3071874e-38 332 292
0.016046507 0.704 -0.064186029 1.3071874e-38 333 292
0.017280852 0.704 -0.064186029 1.3071521e-38 334 292
0.018515198 0.704 -0.064186029 1.3071521e-38 335 292
0.019805651 0.70599997 -0.064368367 1.2978972e-38 336 292
0.021043506 0.70599997 -0.064368367 1.2794941e-38 337 292
0.022281358 0.70599997 -0.064368367 1.2794944e-38 338 292
0.023519212 0.70599997 -0.064368367 1.2978975e-38 339 292
0.024757065 0.70599997 -0.064368367 1.2612345e-38 340 292
0.025994917 0.70599997 -0.064368367 1.2612345e-38 341 292
0.027271347 0.70700002 -0.064459547 1.2613064e-38 342 292
0.028510952 0.70700002 -0.064459547 1.2705618e-38 343 292
0.02979264 0.708 -0.06455072 1.2797461e-38 344 292
0.031034 0.708 -0.06455072 1.2797461e-38 345 292
0.03227536 0.708 -0.06455072 1.298042e-38 346 292
0.033611398 0.70999998 -0.064733058 1.298042e-38 347 292
0.034856264 0.70999998 -0.064733058 1.2797826e-38 348 292
0.036151983 0.71100003 -0.064824238 1.2890023e-38 349 292
0.037398599 0.71100003 -0.064824238 1.2799275e-38 350 292
0.038645219 0.71100003 -0.064824238 1.2891471e-38 351 292
0.039891839 0.71100003 -0.064824238 1.2983683e-38 352 292
0.041138459 0.71100003 -0.064824238 1.3076238e-38 353 292
-0.016251646 0.713 -0.066256717 1.4654764e-38 307 293
-0.014959441 0.71100003 -0.066070862 1.492376e-38 308 293
-0.01371282 0.71100003 -0.066070862 1.4278391e-38 309 293
-0.012501267 0.713 -0.066256717 1.4736102e-38 310 293
-0.011251139 0.713 -0.066256717 1.4643907e-38 311 293
-0.010001013 0.713 -0.066256717 1.4459145e-38 312 293
-0.0087263398 0.71100003 -0.066070862 1.418256e-38 313 293
-0.0074797203 0.71100003 -0.066070862 1.4180395e-38 314 293
-0.0062330998 0.71100003 -0.066070862 1.3996004e-38 315 293
-0.0049794666 0.70999998 -0.065977924 1.3903086e-38 316 293
-0.0037345996 0.70999998 -0.065977924 1.3718694e-38 317 293
-0.00248272 0.708 -0.065792084 1.3626495e-38 318 293
-0.00124136 0.708 -0.065792084 1.3442104e-38 319 293
0 0.708 -0.065792084 1.3258786e-38 320 293
0.00124136 0.708 -0.065792084 1.3166591e-38 321 293
0.0024792133 0.70700002 -0.065699153 1.3258067e-38 322 293
0.0037135598 0.70599997 -0.065606222 1.3258067e-38 323 293
0.0049514128 0.70599997 -0.065606222 1.3165519e-38 324 293
0.0061717331 0.704 -0.065420374 1.3257714e-38 325 293
0.0074060797 0.704 -0.065420374 1.3348113e-38 326 293
0.0086404262 0.704 -0.065420374 1.3348113e-38 327 293
0.0098607466 0.70300001 -0.065327443 1.3256634e-38 328 293
0.01109334 0.70300001 -0.065327443 1.3348831e-38 329 293
0.012343466 0.704 -0.065420374 1.2890006e-38 330 293
0.013577812 0.704 -0.065420374 1.2797811e-38 331 293
0.014812159 0.704 -0.065420374 1.3164435e-38 332 293
0.016092092 0.70599997 -0.065606222 1.2888209e-38 333 293
0.017329946 0.70599997 -0.065606222 1.288893e-38 334 293
0.018567799 0.70599997 -0.065606222 1.288893e-38 335 293
0.019833706 0.70700002 -0.065699153 1.2887858e-38 336 293
0.021073313 0.70700002 -0.065699153 1.2795663e-38 337 293
0.022312919 0.70700002 -0.065699153 1.279531e-38 338 293
0.023552528 0.70700002 -0.065699153 1.2887505e-38 339 293
0.024792133 0.70700002 -0.065699153 1.261235e-38 340 293
0.026068559 0.708 -0.065792084 1.2796382e-38 341 293
0.027309919 0.708 -0.065792084 1.2613783e-38 342 293
0.02855128 0.708 -0.065792084 1.2613783e-38 343 293
0.02979264 0.708 -0.065792084 1.2980773e-38 344 293
0.031121666 0.70999998 -0.065977924 1.2980773e-38 345 293
0.032366529 0.70999998 -0.065977924 1.2797107e-38 346 293
0.033611398 0.70999998 -0.065977924 1.2889303e-38 347 293
0.034905359 0.71100003 -0.066070862 1.2614511e-38 348 293
0.036151983 0.71100003 -0.066070862 1.2707067e-38 349 293
0.037398599 0.71100003 -0.066070862 1.2890745e-38 350 293
0.038645219 0.71100003 -0.066070862 1.2982941e-38 351 293
0.039891839 0.71100003 -0.066070862 1.2707095e-38 352 293
-0.014959441 0.71100003 -0.067317478 1.4742261e-38 308 294
-0.01371282 0.71100003 -0.067317478 1.4096892e-38 309 294
-0.012501267 0.713 -0.067506835 1.4736834e-38 310 294
-0.011266919 0.71399999 -0.067601517 1.4459888e-38 311 294
-0.010001013 0.713 -0.067506835 1.4459145e-38 312 294
-0.0087508867 0.713 -0.067506835 1.4090364e-38 313 294
-0.0075007593 0.713 -0.067506835 1.4639575e-38 314 294
