# .PCD v.7 - Point Cloud Data file format
FIELDS x y z rgb imX imY
SIZE 4 4 4 4 4 4
TYPE F F F F F F
COUNT 1 1 1 1 1 1
WIDTH 832
HEIGHT 1
VIEWPOINT 0 0 0 1 0 0 0
POINTS 832
DATA ascii
-0.020983893 0.704 -0.037030395 1.4912239e-38 303 270
-0.019749546 0.704 -0.037030395 1.5463595e-38 304 270
-0.018515198 0.704 -0.037030395 1.5647626e-38 305 270
-0.017280852 0.704 -0.037030395 1.5556515e-38 306 270
-0.016023712 0.70300001 -0.036977798 1.5924937e-38 307 270
-0.014749039 0.70099998 -0.036872596 1.5741622e-38 308 270
-0.013500666 0.69999999 -0.036819998 1.5741622e-38 309 270
-0.012273333 0.69999999 -0.036819998 1.592529e-38 310 270
-0.011045999 0.69999999 -0.036819998 1.592529e-38 311 270
-0.0098186666 0.69999999 -0.036819998 1.5924218e-38 312 270
-0.0085913334 0.69999999 -0.036819998 1.5924218e-38 313 270
-0.0073429602 0.69800001 -0.0367148 1.574055e-38 314 270
-0.006119133 0.69800001 -0.0367148 1.574055e-38 315 270
-0.0048953067 0.69800001 -0.0367148 1.5741272e-38 316 270
-0.00366622 0.69700003 -0.036662199 1.5833469e-38 317 270
-0.0024406398 0.69599998 -0.036609598 1.5743071e-38 318 270
-0.0012203199 0.69599998 -0.036609598 1.6111852e-38 319 270
0 0.69599998 -0.036609598 1.6294443e-38 320 270
0.0012168133 0.69400001 -0.036504399 1.6294443e-38 321 270
0.0024336267 0.69400001 -0.036504399 1.6018585e-38 322 270
0.0036504399 0.69400001 -0.036504399 1.6387008e-38 323 270
0.00486024 0.69300002 -0.036451802 1.6756866e-38 324 270
0.0060753003 0.69300002 -0.036451802 1.6756866e-38 325 270
0.0072693196 0.69099998 -0.036346599 1.7031642e-38 326 270
0.008480873 0.69099998 -0.036346599 1.6939447e-38 327 270
0.0096924258 0.69099998 -0.036346599 1.6844745e-38 328 270
0.010935539 0.69300002 -0.036451802 1.6384127e-38 329 270
0.012150601 0.69300002 -0.036451802 1.60211e-38 330 270
0.01336566 0.69300002 -0.036451802 1.6851219e-38 331 270
0.014580719 0.69300002 -0.036451802 1.6939444e-38 332 270
0.015795778 0.69300002 -0.036451802 1.6386629e-38 333 270
0.01701084 0.69300002 -0.036451802 1.6385544e-38 334 270
0.0182522 0.69400001 -0.036504399 1.6109317e-38 335 270
0.019469013 0.69400001 -0.036504399 1.6199711e-38 336 270
0.020685827 0.69400001 -0.036504399 1.5830928e-38 337 270
0.021902639 0.69400001 -0.036504399 1.5555413e-38 338 270
0.023186078 0.69599998 -0.036609598 1.5555413e-38 339 270
0.024441468 0.69700003 -0.036662199 1.5372098e-38 340 270
0.025700359 0.69800001 -0.0367148 1.5372098e-38 341 270
0.026924185 0.69800001 -0.0367148 1.5647611e-38 342 270
0.028148014 0.69800001 -0.0367148 1.5647611e-38 343 270
0.029371841 0.69800001 -0.0367148 1.5830926e-38 344 270
0.030683333 0.69999999 -0.036819998 1.5830926e-38 345 270
0.031910665 0.69999999 -0.036819998 1.5831279e-38 346 270
0.03318534 0.70099998 -0.036872596 1.5831279e-38 347 270
0.034414422 0.70099998 -0.036872596 1.5372101e-38 348 270
0.035796054 0.704 -0.037030395 1.5279906e-38 349 270
0.037030395 0.704 -0.037030395 1.4635647e-38 350 270
-0.02603174 0.70700002 -0.038427804 1.5216252e-38 299 271
-0.024686933 0.704 -0.038264744 1.4926649e-38 300 271
-0.023452586 0.704 -0.038264744 1.1607248e-38 301 271
-0.022218239 0.704 -0.038264744 1.5463945e-38 302 271
-0.020983893 0.704 -0.038264744 1.5463945e-38 303 271
-0.019749546 0.704 -0.038264744 1.5278849e-38 304 271
-0.018515198 0.704 -0.038264744 1.5463242e-38 305 271
-0.017280852 0.704 -0.038264744 1.564836e-38 306 271
-0.016023712 0.70300001 -0.038210396 1.5924588e-38 307 271
-0.014749039 0.70099998 -0.038101684 1.5924584e-38 308 271
-0.013500666 0.69999999 -0.038047329 1.6016781e-38 309 271
-0.012273333 0.69999999 -0.038047329 1.5740906e-38 310 271
-0.01101444 0.69800001 -0.037938625 1.5740906e-38 311 271
-0.0097906133 0.69800001 -0.037938625 1.5740906e-38 312 271
-0.0085667865 0.69800001 -0.037938625 1.5648711e-38 313 271
-0.0073429602 0.69800001 -0.037938625 1.5557231e-38 314 271
-0.0061103669 0.69700003 -0.037884273 1.5557231e-38 315 271
-0.0048882933 0.69700003 -0.037884273 1.5465764e-38 316 271
-0.0036609597 0.69599998 -0.037829921 1.555796e-38 317 271
-0.0024406398 0.69599998 -0.037829921 1.5741639e-38 318 271
-0.0012203199 0.69599998 -0.037829921 1.6018585e-38 319 271
0 0.69400001 -0.037721213 1.6201897e-38 320 271
0.0012168133 0.69400001 -0.037721213 1.6109701e-38 321 271
0.00243012 0.69300002 -0.037666857 1.5650172e-38 322 271
0.0036451798 0.69300002 -0.037666857 1.5834563e-38 323 271
0.00486024 0.69300002 -0.037666857 1.6205141e-38 324 271
0.0060753003 0.69300002 -0.037666857 1.6481728e-38 325 271
0.0072693196 0.69099998 -0.03755815 1.6756497e-38 326 271
0.0084686 0.69 -0.037503798 1.6664302e-38 327 271
0.0096783992 0.69 -0.037503798 1.675398e-38 328 271
0.01090398 0.69099998 -0.03755815 1.6477392e-38 329 271
0.012115533 0.69099998 -0.03755815 1.5653041e-38 330 271
0.013327086 0.69099998 -0.03755815 1.5837791e-38 331 271
0.014538639 0.69099998 -0.03755815 1.6294799e-38 332 271
0.015750192 0.69099998 -0.03755815 1.6110049e-38 333 271
0.016961746 0.69099998 -0.03755815 1.6200786e-38 334 271
0.018225901 0.69300002 -0.037666857 1.610859e-38 335 271
0.019469013 0.69400001 -0.037721213 1.5832005e-38 336 271
0.020685827 0.69400001 -0.037721213 1.5555416e-38 337 271
0.021902639 0.69400001 -0.037721213 1.5463215e-38 338 271
0.023186078 0.69599998 -0.037829921 1.5463215e-38 339 271
0.024441468 0.69700003 -0.037884273 1.5280259e-38 340 271
0.025663542 0.69700003 -0.037884273 1.5280259e-38 341 271
0.026924185 0.69800001 -0.037938625 1.5463218e-38 342 271
0.028148014 0.69800001 -0.037938625 1.5555413e-38 343 271
0.029371841 0.69800001 -0.037938625 1.5462865e-38 344 271
0.030683333 0.69999999 -0.038047329 1.555506e-38 345 271
0.031910665 0.69999999 -0.038047329 1.5372101e-38 346 271
0.033137999 0.69999999 -0.038047329 1.5372101e-38 347 271
0.034365334 0.69999999 -0.038047329 1.5096591e-38 348 271
0.035745207 0.70300001 -0.038210396 1.5096591e-38 349 271
0.037135597 0.70599997 -0.038373452 1.5096237e-38 350 271
-0.027271347 0.70700002 -0.039667413 1.7704429e-38 298 272
-0.02603174 0.70700002 -0.039667413 1.1435485e-38 299 272
-0.024792133 0.70700002 -0.039667413 1.4362305e-38 300 272
-0.023452586 0.704 -0.039499093 1.4362305e-38 301 272
-0.022218239 0.704 -0.039499093 1.5647979e-38 302 272
-0.020983893 0.704 -0.039499093 1.5371751e-38 303 272
-0.019749546 0.704 -0.039499093 1.5278849e-38 304 272
-0.018515198 0.704 -0.039499093 1.5647632e-38 305 272
-0.017256306 0.70300001 -0.039442986 1.5648355e-38 306 272
-0.016023712 0.70300001 -0.039442986 1.592494e-38 307 272
-0.014749039 0.70099998 -0.039330769 1.6016417e-38 308 272
-0.013500666 0.69999999 -0.039274666 1.5924221e-38 309 272
-0.012273333 0.69999999 -0.039274666 1.5832023e-38 310 272
-0.01101444 0.69800001 -0.039162453 1.5647632e-38 311 272
-0.0097906133 0.69800001 -0.039162453 1.5739827e-38 312 272
-0.0085667865 0.69800001 -0.039162453 1.5647632e-38 313 272
-0.0073429602 0.69800001 -0.039162453 1.5465035e-38 314 272
-0.0061103669 0.69700003 -0.039106347 1.5465035e-38 315 272
-0.0048812795 0.69599998 -0.039050236 1.5648355e-38 316 272
-0.0036609597 0.69599998 -0.039050236 1.5648355e-38 317 272
-0.0024336267 0.69400001 -0.038938027 1.5924584e-38 318 272
-0.0012168133 0.69400001 -0.038938027 1.6016781e-38 319 272
0 0.69400001 -0.038938027 1.6109333e-38 320 272
0.00121506 0.69300002 -0.03888192 1.6017137e-38 321 272
0.00243012 0.69300002 -0.03888192 1.5740923e-38 322 272
0.0036346598 0.69099998 -0.038769703 1.5833119e-38 323 272
0.0048462129 0.69099998 -0.038769703 1.6111147e-38 324 272
0.0060577663 0.69099998 -0.038769703 1.6295539e-38 325 272
0.0072587994 0.69 -0.038713597 1.6756503e-38 326 272
0.0084440531 0.68800002 -0.038601387 1.6664307e-38 327 272
0.0096503468 0.68800002 -0.038601387 1.6479557e-38 328 272
0.010888199 0.69 -0.038713597 1.6111133e-38 329 272
0.012097999 0.69 -0.038713597 1.5743437e-38 330 272
0.013327086 0.69099998 -0.038769703 1.5282819e-38 331 272
0.014517599 0.69 -0.038713597 1.601677e-38 332 272
0.015727401 0.69 -0.038713597 1.6108967e-38 333 272
0.016961746 0.69099998 -0.038769703 1.5924919e-38 334 272
0.018225901 0.69300002 -0.03888192 1.5648332e-38 335 272
0.01944096 0.69300002 -0.03888192 1.5647966e-38 336 272
0.020685827 0.69400001 -0.038938027 1.5463215e-38 337 272
0.021902639 0.69400001 -0.038938027 1.5462499e-38 338 272
0.023119451 0.69400001 -0.038938027 1.5370303e-38 339 272
0.0244064 0.69599998 -0.039050236 1.5371022e-38 340 272
0.025663542 0.69700003 -0.039106347 1.5186991e-38 341 272
0.026885614 0.69700003 -0.039106347 1.5370303e-38 342 272
0.028148014 0.69800001 -0.039162453 1.5462499e-38 343 272
0.029371841 0.69800001 -0.039162453 1.5370303e-38 344 272
0.030595668 0.69800001 -0.039162453 1.5554695e-38 345 272
0.031819493 0.69800001 -0.039162453 1.5280259e-38 346 272
0.033043321 0.69800001 -0.039162453 1.5280259e-38 347 272
0.034267146 0.69800001 -0.039162453 1.5096588e-38 348 272
0.035592664 0.69999999 -0.039274666 1.5004392e-38 349 272
0.037135597 0.70599997 -0.039611302 1.4912194e-38 350 272
0.038373452 0.70599997 -0.039611302 1.4266824e-38 351 272
-0.027271347 0.70700002 -0.040907022 1.6868531e-38 298 273
-0.02603174 0.70700002 -0.040907022 1.0691784e-38 299 273
-0.024792133 0.70700002 -0.040907022 1.4265423e-38 300 273
-0.023452586 0.704 -0.040733438 1.5556162e-38 301 273
-0.022218239 0.704 -0.040733438 1.5372118e-38 302 273
-0.020983893 0.704 -0.040733438 1.5279921e-38 303 273
-0.019749546 0.704 -0.040733438 1.5372121e-38 304 273
-0.018515198 0.704 -0.040733438 1.5556512e-38 305 273
-0.017256306 0.70300001 -0.040675577 1.5373212e-38 306 273
-0.015978126 0.70099998 -0.040559858 1.5465408e-38 307 273
-0.014727999 0.69999999 -0.040502001 1.5556528e-38 308 273
-0.013500666 0.69999999 -0.040502001 1.5464332e-38 309 273
-0.012238266 0.69800001 -0.040386278 1.5463613e-38 310 273
-0.01101444 0.69800001 -0.040386278 1.5371417e-38 311 273
-0.0097906133 0.69800001 -0.040386278 1.5188821e-38 312 273
-0.0085667865 0.69800001 -0.040386278 1.5188821e-38 313 273
-0.0073429602 0.69800001 -0.040386278 1.5280295e-38 314 273
-0.0060840664 0.69400001 -0.040154841 1.5280295e-38 315 273
-0.0048672534 0.69400001 -0.040154841 1.5463976e-38 316 273
-0.0036504399 0.69400001 -0.040154841 1.555653e-38 317 273
-0.0024336267 0.69400001 -0.040154841 1.5557255e-38 318 273
-0.00121506 0.69300002 -0.04009698 1.5557255e-38 319 273
0 0.69300002 -0.04009698 1.5648726e-38 320 273
0.00121506 0.69300002 -0.04009698 1.5648726e-38 321 273
0.0024231065 0.69099998 -0.039981257 1.5190269e-38 322 273
0.0036293997 0.69 -0.0399234 1.5282466e-38 323 273
0.0048251734 0.68800002 -0.039807681 1.4824727e-38 324 273
0.0060314666 0.68800002 -0.039807681 1.5470097e-38 325 273
0.0072377604 0.68800002 -0.039807681 1.6849063e-38 326 273
0.0084440531 0.68800002 -0.039807681 1.6480639e-38 327 273
0.0096503468 0.68800002 -0.039807681 1.647991e-38 328 273
0.010856641 0.68800002 -0.039807681 1.6018932e-38 329 273
0.012097999 0.69 -0.0399234 1.574092e-38 330 273
0.0133078 0.69 -0.0399234 1.5556528e-38 331 273
0.014517599 0.69 -0.0399234 1.5466483e-38 332 273
0.015727401 0.69 -0.0399234 1.5650876e-38 333 273
0.016961746 0.69099998 -0.039981257 1.5557581e-38 334 273
0.0181733 0.69099998 -0.039981257 1.5281355e-38 335 273
0.01944096 0.69300002 -0.04009698 1.509624e-38 336 273
0.020656019 0.69300002 -0.04009698 1.4911849e-38 337 273
0.021871079 0.69300002 -0.04009698 1.5095158e-38 338 273
0.023119451 0.69400001 -0.040154841 1.5095158e-38 339 273
0.024336265 0.69400001 -0.040154841 1.5186638e-38 340 273
0.025626717 0.69599998 -0.040270556 1.5186638e-38 341 273
0.026885614 0.69700003 -0.040328421 1.4911496e-38 342 273
0.028107686 0.69700003 -0.040328421 1.4911496e-38 343 273
0.02932976 0.69700003 -0.040328421 1.4912209e-38 344 273
0.030595668 0.69800001 -0.040386278 1.4912209e-38 345 273
0.03177391 0.69700003 -0.040328421 1.5004042e-38 346 273
0.03299598 0.69700003 -0.040328421 1.5096237e-38 347 273
0.034218054 0.69700003 -0.040328421 1.5004042e-38 348 273
0.035490975 0.69800001 -0.040386278 1.4911846e-38 349 273
0.036819998 0.69999999 -0.040502001 1.4636335e-38 350 273
0.038264744 0.704 -0.040733438 1.4359388e-38 351 273
0.039499093 0.704 -0.040733438 1.3808038e-38 352 273
-0.027232772 0.70599997 -0.042087011 1.3912147e-38 298 274
-0.025994917 0.70599997 -0.042087011 1.1238474e-38 299 274
-0.024686933 0.704 -0.041967787 1.5185932e-38 300 274
-0.023452586 0.704 -0.041967787 1.564691e-38 301 274
-0.022218239 0.704 -0.041967787 1.5372121e-38 302 274
-0.020983893 0.704 -0.041967787 1.5372121e-38 303 274
-0.019721493 0.70300001 -0.041908171 1.5006212e-38 304 274
-0.018488899 0.70300001 -0.041908171 1.5006212e-38 305 274
-0.017207211 0.70099998 -0.041788943 1.5556515e-38 306 274
-0.015955333 0.69999999 -0.041729331 1.5556515e-38 307 274
-0.014727999 0.69999999 -0.041729331 1.546361e-38 308 274
-0.013462093 0.69800001 -0.041610107 1.546361e-38 309 274
-0.012238266 0.69800001 -0.041610107 1.5188102e-38 310 274
-0.01099866 0.69700003 -0.041550495 1.5188102e-38 311 274
-0.0097765867 0.69700003 -0.041550495 1.5095907e-38 312 274
-0.0085545136 0.69700003 -0.041550495 1.5095907e-38 313 274
-0.0073008798 0.69400001 -0.041371655 1.509627e-38 314 274
-0.0060840664 0.69400001 -0.041371655 1.509627e-38 315 274
-0.0048672534 0.69400001 -0.041371655 1.5279945e-38 316 274
-0.0036451798 0.69300002 -0.041312039 1.5463976e-38 317 274
-0.00243012 0.69300002 -0.041312039 1.5464332e-38 318 274
-0.00121506 0.69300002 -0.041312039 1.5464332e-38 319 274
0 0.69300002 -0.041312039 1.5555806e-38 320 274
0.0012115532 0.69099998 -0.041192811 1.5371415e-38 321 274
0.0024195998 0.69 -0.041133199 1.4819691e-38 322 274
0.0036188802 0.68800002 -0.041013971 1.4634941e-38 323 274
0.0048251734 0.68800002 -0.041013971 1.3535789e-38 324 274
0.0060314666 0.68800002 -0.041013971 1.4641778e-38 325 274
0.0072377604 0.68800002 -0.041013971 1.6388806e-38 326 274
0.0084440531 0.68800002 -0.041013971 1.6296611e-38 327 274
0.0096503468 0.68800002 -0.041013971 1.6021453e-38 328 274
0.010856641 0.68800002 -0.041013971 1.5560475e-38 329 274
0.012062933 0.68800002 -0.041013971 1.5557957e-38 330 274
0.0133078 0.69 -0.041133199 1.5373566e-38 331 274
0.014517599 0.69 -0.041133199 1.5649424e-38 332 274
0.015727401 0.69 -0.041133199 1.5557228e-38 333 274
0.0169372 0.69 -0.041133199 1.5463948e-38 334 274
0.0181733 0.69099998 -0.041192811 1.5094805e-38 335 274
0.019384852 0.69099998 -0.041192811 1.5277757e-38 336 274
0.020656019 0.69300002 -0.041312039 1.5185203e-38 337 274
0.021871079 0.69300002 -0.041312039 1.4819651e-38 338 274
0.02308614 0.69300002 -0.041312039 1.4911846e-38 339 274
0.024336265 0.69400001 -0.041371655 1.5003316e-38 340 274
0.025553079 0.69400001 -0.041371655 1.4819285e-38 341 274
0.026847038 0.69599998 -0.041490879 1.5001521e-38 342 274
0.028067358 0.69599998 -0.041490879 1.5185912e-38 343 274
0.02932976 0.69700003 -0.041550495 1.5002963e-38 344 274
0.030551834 0.69700003 -0.041550495 1.5187354e-38 345 274
0.03177391 0.69700003 -0.041550495 1.4911849e-38 346 274
0.03299598 0.69700003 -0.041550495 1.4911849e-38 347 274
0.034218054 0.69700003 -0.041550495 1.5095161e-38 348 274
0.035490975 0.69800001 -0.041610107 1.5002966e-38 349 274
0.0367148 0.69800001 -0.041610107 1.4636338e-38 350 274
0.038101684 0.70099998 -0.041788943 1.4636338e-38 351 274
0.039330769 0.70099998 -0.041788943 1.4360487e-38 352 274
0.040675577 0.70300001 -0.041908171 1.4360487e-38 353 274
0.042087011 0.70599997 -0.042087011 1.4558966e-38 354 274
-0.027155625 0.704 -0.043202132 1.3534004e-38 298 275
-0.02592128 0.704 -0.043202132 1.298083e-38 299 275
-0.024686933 0.704 -0.043202132 1.5095887e-38 300 275
-0.023452586 0.704 -0.043202132 1.5095887e-38 301 275
-0.02218668 0.70300001 -0.043140765 1.4913294e-38 302 275
-0.020954086 0.70300001 -0.043140765 1.5189522e-38 303 275
-0.019721493 0.70300001 -0.043140765 1.5280999e-38 304 275
-0.018488899 0.70300001 -0.043140765 1.5188803e-38 305 275
-0.017207211 0.70099998 -0.043018032 1.5280651e-38 306 275
-0.015955333 0.69999999 -0.042956665 1.5188455e-38 307 275
-0.01468592 0.69800001 -0.042833932 1.5187746e-38 308 275
-0.013462093 0.69800001 -0.042833932 1.5187746e-38 309 275
-0.012238266 0.69800001 -0.042833932 1.4912239e-38 310 275
-0.01099866 0.69700003 -0.042772565 1.4912239e-38 311 275
-0.0097345067 0.69400001 -0.042588469 1.4728212e-38 312 275
-0.0085176928 0.69400001 -0.042588469 1.4636016e-38 313 275
-0.0073008798 0.69400001 -0.042588469 1.4637099e-38 314 275
-0.0060753003 0.69300002 -0.042527102 1.4637099e-38 315 275
-0.00486024 0.69300002 -0.042527102 1.4911891e-38 316 275
-0.0036451798 0.69300002 -0.042527102 1.4911891e-38 317 275
-0.00243012 0.69300002 -0.042527102 1.4911891e-38 318 275
-0.0012115532 0.69099998 -0.042404365 1.4819335e-38 319 275
0 0.69099998 -0.042404365 1.4728214e-38 320 275
0.0012097999 0.69 -0.042342998 1.4451629e-38 321 275
0.0024125867 0.68800002 -0.042220265 1.4266887e-38 322 275
0.0036188802 0.68800002 -0.042220265 1.4174692e-38 323 275
0.0048251734 0.68800002 -0.042220265 1.3809146e-38 324 275
0.0060314666 0.68800002 -0.042220265 1.4731461e-38 325 275
0.0072377604 0.68800002 -0.042220265 1.6203693e-38 326 275
0.0084440531 0.68800002 -0.042220265 1.6203693e-38 327 275
0.0096363192 0.68699998 -0.042158898 1.6202244e-38 328 275
0.010840859 0.68699998 -0.042158898 1.5741625e-38 329 275
0.012045399 0.68699998 -0.042158898 1.5740903e-38 330 275
0.013269227 0.68800002 -0.042220265 1.5924934e-38 331 275
0.014475521 0.68800002 -0.042220265 1.5466467e-38 332 275
0.015681813 0.68800002 -0.042220265 1.5097326e-38 333 275
0.016888106 0.68800002 -0.042220265 1.5187001e-38 334 275
0.018146999 0.69 -0.042342998 1.4818579e-38 335 275
0.019384852 0.69099998 -0.042404365 1.4634902e-38 336 275
0.020596405 0.69099998 -0.042404365 1.4634902e-38 337 275
0.021807959 0.69099998 -0.042404365 1.4452307e-38 338 275
0.02308614 0.69300002 -0.042527102 1.4452307e-38 339 275
0.024301201 0.69300002 -0.042527102 1.4817495e-38 340 275
0.025553079 0.69400001 -0.042588469 1.47253e-38 341 275
0.026769891 0.69400001 -0.042588469 1.4634186e-38 342 275
0.028067358 0.69599998 -0.042711195 1.4726381e-38 343 275
0.029287677 0.69599998 -0.042711195 1.4543789e-38 344 275
0.030551834 0.69700003 -0.042772565 1.4635985e-38 345 275
0.03177391 0.69700003 -0.042772565 1.4635629e-38 346 275
0.03299598 0.69700003 -0.042772565 1.4820019e-38 347 275
0.034218054 0.69700003 -0.042772565 1.4911493e-38 348 275
0.035490975 0.69800001 -0.042833932 1.4819297e-38 349 275
0.0367148 0.69800001 -0.042833932 1.4544508e-38 350 275
0.038047329 0.69999999 -0.042956665 1.4636704e-38 351 275
0.039274666 0.69999999 -0.042956665 1.436084e-38 352 275
0.040559858 0.70099998 -0.043018032 1.4176448e-38 353 275
0.041908171 0.70300001 -0.043140765 1.4919459e-38 354 275
0.043140765 0.70300001 -0.043140765 1.9621437e-38 355 275
-0.02592128 0.704 -0.044436477 1.3991377e-38 299 276
-0.024686933 0.704 -0.044436477 1.5003341e-38 300 276
-0.023419274 0.70300001 -0.04437336 1.5003341e-38 301 276
-0.02218668 0.70300001 -0.04437336 1.4821461e-38 302 276
-0.020954086 0.70300001 -0.04437336 1.4913658e-38 303 276
-0.019721493 0.70300001 -0.04437336 1.5188803e-38 304 276
-0.018436298 0.70099998 -0.044247117 1.5096606e-38 305 276
-0.017207211 0.70099998 -0.044247117 1.5096256e-38 306 276
-0.015955333 0.69999999 -0.044183996 1.5096256e-38 307 276
-0.01468592 0.69800001 -0.04405776 1.4911161e-38 308 276
-0.013442807 0.69700003 -0.043994639 1.4911161e-38 309 276
-0.012220734 0.69700003 -0.043994639 1.4728212e-38 310 276
-0.01095132 0.69400001 -0.043805279 1.4636016e-38 311 276
-0.0097345067 0.69400001 -0.043805279 1.4635294e-38 312 276
-0.0085176928 0.69400001 -0.043805279 1.4635294e-38 313 276
-0.0072903596 0.69300002 -0.043742158 1.4636013e-38 314 276
-0.0060753003 0.69300002 -0.043742158 1.4451982e-38 315 276
-0.00486024 0.69300002 -0.043742158 1.4634225e-38 316 276
-0.0036346598 0.69099998 -0.043615919 1.4634225e-38 317 276
-0.0024231065 0.69099998 -0.043615919 1.4542395e-38 318 276
-0.0012115532 0.69099998 -0.043615919 1.44502e-38 319 276
0 0.69 -0.043552797 1.4449478e-38 320 276
0.0012097999 0.69 -0.043552797 1.4265085e-38 321 276
0.0024125867 0.68800002 -0.043426562 1.3805183e-38 322 276
0.0036188802 0.68800002 -0.043426562 1.3805183e-38 323 276
0.0048181596 0.68699998 -0.043363437 1.3714064e-38 324 276
0.0060226996 0.68699998 -0.043363437 1.4820411e-38 325 276
0.0072377604 0.68800002 -0.043426562 1.5833472e-38 326 276
0.0084317802 0.68699998 -0.043363437 1.5741276e-38 327 276
0.0096363192 0.68699998 -0.043363437 1.59235e-38 328 276
0.010840859 0.68699998 -0.043363437 1.5831304e-38 329 276
0.012045399 0.68699998 -0.043363437 1.5924937e-38 330 276
0.013249939 0.68699998 -0.043363437 1.6017134e-38 331 276
0.014454478 0.68699998 -0.043363437 1.5466465e-38 332 276
0.015659019 0.68699998 -0.043363437 1.4821095e-38 333 276
0.016888106 0.68800002 -0.043426562 1.509444e-38 334 276
0.0180944 0.68800002 -0.043426562 1.4817851e-38 335 276
0.019356798 0.69 -0.043552797 1.4541985e-38 336 276
0.020596405 0.69099998 -0.043615919 1.463418e-38 337 276
0.021807959 0.69099998 -0.043615919 1.4634186e-38 338 276
0.023019511 0.69099998 -0.043615919 1.4541631e-38 339 276
0.024301201 0.69300002 -0.043742158 1.4540915e-38 340 276
0.02551626 0.69300002 -0.043742158 1.444872e-38 341 276
0.026769891 0.69400001 -0.043805279 1.4541985e-38 342 276
0.027986705 0.69400001 -0.043805279 1.463418e-38 343 276
0.029203519 0.69400001 -0.043805279 1.4634902e-38 344 276
0.030507999 0.69599998 -0.043931518 1.4727099e-38 345 276
0.031728316 0.69599998 -0.043931518 1.4726746e-38 346 276
0.032948639 0.69599998 -0.043931518 1.48193e-38 347 276
0.034218054 0.69700003 -0.043994639 1.4451954e-38 348 276
0.035440128 0.69700003 -0.043994639 1.4451954e-38 349 276
0.0367148 0.69800001 -0.04405776 1.436084e-38 350 276
0.038047329 0.69999999 -0.044183996 1.436084e-38 351 276
0.039274666 0.69999999 -0.044183996 1.4362638e-38 352 276
0.040559858 0.70099998 -0.044247117 1.4178247e-38 353 276
0.041908171 0.70300001 -0.04437336 1.4552829e-38 354 276
0.043140765 0.70300001 -0.04437336 1.8148457e-38 355 276
-0.027155625 0.704 -0.045670826 1.4265438e-38 298 277
-0.02592128 0.704 -0.045670826 1.4634222e-38 299 277
-0.024686933 0.704 -0.045670826 1.4818591e-38 300 277
-0.023419274 0.70300001 -0.04560595 1.4818591e-38 301 277
-0.02218668 0.70300001 -0.04560595 1.4819663e-38 302 277
-0.020954086 0.70300001 -0.04560595 1.4911859e-38 303 277
-0.019665385 0.70099998 -0.045476202 1.5003336e-38 304 277
-0.018409999 0.69999999 -0.04541133 1.509589e-38 305 277
-0.017182667 0.69999999 -0.04541133 1.5003341e-38 306 277
-0.015909746 0.69800001 -0.045281585 1.4726396e-38 307 277
-0.01466488 0.69700003 -0.045216713 1.4449467e-38 308 277
-0.013423519 0.69599998 -0.045151837 1.4449467e-38 309 277
-0.0122032 0.69599998 -0.045151837 1.4449834e-38 310 277
-0.01095132 0.69400001 -0.045022093 1.4449834e-38 311 277
-0.0097204801 0.69300002 -0.044957221 1.4542383e-38 312 277
-0.0085054198 0.69300002 -0.044957221 1.4542383e-38 313 277
-0.0072903596 0.69300002 -0.044957221 1.435943e-38 314 277
-0.0060753003 0.69300002 -0.044957221 1.4175039e-38 315 277
-0.0048462129 0.69099998 -0.044827472 1.408177e-38 316 277
-0.0036346598 0.69099998 -0.044827472 1.3897379e-38 317 277
-0.0024231065 0.69099998 -0.044827472 1.3988858e-38 318 277
-0.0012097999 0.69 -0.0447626 1.417289e-38 319 277
0 0.69 -0.0447626 1.389666e-38 320 277
0.0012062934 0.68800002 -0.044632856 1.3804464e-38 321 277
0.0024125867 0.68800002 -0.044632856 1.3437476e-38 322 277
0.0036188802 0.68800002 -0.044632856 1.3437476e-38 323 277
0.0048181596 0.68699998 -0.044567976 1.3804815e-38 324 277
0.0060226996 0.68699998 -0.044567976 1.4634575e-38 325 277
0.0072272392 0.68699998 -0.044567976 1.5371412e-38 326 277
0.0084317802 0.68699998 -0.044567976 1.5371412e-38 327 277
0.0096363192 0.68699998 -0.044567976 1.5646913e-38 328 277
0.010840859 0.68699998 -0.044567976 1.5831304e-38 329 277
0.012045399 0.68699998 -0.044567976 1.5834175e-38 330 277
0.013230653 0.68599999 -0.044503104 1.5465033e-38 331 277
0.01443344 0.68599999 -0.044503104 1.5186638e-38 332 277
0.015659019 0.68699998 -0.044567976 1.5002247e-38 333 277
0.01686356 0.68699998 -0.044567976 1.4909328e-38 334 277
0.0180944 0.68800002 -0.044632856 1.4724578e-38 335 277
0.019300694 0.68800002 -0.044632856 1.4449073e-38 336 277
0.020566599 0.69 -0.0447626 1.4449073e-38 337 277
0.021776399 0.69 -0.0447626 1.4356524e-38 338 277
0.022986198 0.69 -0.0447626 1.4356524e-38 339 277
0.024195999 0.69 -0.0447626 1.4356524e-38 340 277
0.025442619 0.69099998 -0.044827472 1.444872e-38 341 277
0.02673132 0.69300002 -0.044957221 1.4358675e-38 342 277
0.027946379 0.69300002 -0.044957221 1.4450871e-38 343 277
0.029161438 0.69300002 -0.044957221 1.4450515e-38 344 277
0.030420333 0.69400001 -0.045022093 1.4634905e-38 345 277
0.031728316 0.69599998 -0.045151837 1.4451234e-38 346 277
0.032948639 0.69599998 -0.045151837 1.4543789e-38 347 277
0.034218054 0.69700003 -0.045216713 1.4267921e-38 348 277
0.035440128 0.69700003 -0.045216713 1.4267921e-38 349 277
0.0367148 0.69800001 -0.045281585 1.4268289e-38 350 277
0.038047329 0.69999999 -0.04541133 1.4268289e-38 351 277
0.039274666 0.69999999 -0.04541133 1.4270445e-38 352 277
0.040502001 0.69999999 -0.04541133 1.4177891e-38 353 277
0.041729331 0.69999999 -0.04541133 1.455103e-38 354 277
0.042956665 0.69999999 -0.04541133 1.73169e-38 355 277
-0.028470624 0.70599997 -0.047038425 1.1790939e-38 297 278
-0.027232772 0.70599997 -0.047038425 1.4451256e-38 298 278
-0.02592128 0.704 -0.046905171 1.4451256e-38 299 278
-0.024686933 0.704 -0.046905171 1.4450534e-38 300 278
-0.023419274 0.70300001 -0.046838548 1.4173946e-38 301 278
-0.022123558 0.70099998 -0.046705291 1.4175378e-38 302 278
-0.020894472 0.70099998 -0.046705291 1.4175378e-38 303 278
-0.019637333 0.69999999 -0.046638668 1.4634198e-38 304 278
-0.0183574 0.69800001 -0.046505414 1.4726396e-38 305 278
-0.017133573 0.69800001 -0.046505414 1.4175395e-38 306 278
-0.015886955 0.69700003 -0.046438783 1.3806613e-38 307 278
-0.01466488 0.69700003 -0.046438783 1.3897382e-38 308 278
-0.013423519 0.69599998 -0.046372157 1.3989577e-38 309 278
-0.012168133 0.69400001 -0.046238903 1.3805909e-38 310 278
-0.01095132 0.69400001 -0.046238903 1.398994e-38 311 278
-0.0097204801 0.69300002 -0.04617228 1.3899177e-38 312 278
-0.0085054198 0.69300002 -0.04617228 1.3991374e-38 313 278
-0.0072903596 0.69300002 -0.04617228 1.3991727e-38 314 278
-0.0060577663 0.69099998 -0.046039023 1.3807334e-38 315 278
-0.0048462129 0.69099998 -0.046039023 1.3897376e-38 316 278
-0.0036293997 0.69 -0.045972396 1.380518e-38 317 278
-0.0024195998 0.69 -0.045972396 1.3620796e-38 318 278
-0.0012062934 0.68800002 -0.045839146 1.3528599e-38 319 278
0 0.68800002 -0.045839146 1.3711549e-38 320 278
0.0012062934 0.68800002 -0.045839146 1.3711549e-38 321 278
0.0024125867 0.68800002 -0.045839146 1.3530023e-38 322 278
0.0036136196 0.68699998 -0.045772515 1.3622219e-38 323 278
0.0048181596 0.68699998 -0.045772515 1.3715486e-38 324 278
0.0060226996 0.68699998 -0.045772515 1.4084629e-38 325 278
0.0072272392 0.68699998 -0.045772515 1.4452688e-38 326 278
0.0084317802 0.68699998 -0.045772515 1.4728915e-38 327 278
0.0096363192 0.68699998 -0.045772515 1.5372121e-38 328 278
0.010825079 0.68599999 -0.045705888 1.5464316e-38 329 278
0.012027865 0.68599999 -0.045705888 1.5372471e-38 330 278
0.013230653 0.68599999 -0.045705888 1.4634905e-38 331 278
0.01443344 0.68599999 -0.045705888 1.4816779e-38 332 278
0.015659019 0.68699998 -0.045772515 1.4724584e-38 333 278
0.01686356 0.68699998 -0.045772515 1.4632035e-38 334 278
0.018068098 0.68699998 -0.045772515 1.4539839e-38 335 278
0.019300694 0.68800002 -0.045839146 1.4264327e-38 336 278
0.020506985 0.68800002 -0.045839146 1.4171773e-38 337 278
0.021713281 0.68800002 -0.045839146 1.4171776e-38 338 278
0.022986198 0.69 -0.045972396 1.4171776e-38 339 278
0.024195999 0.69 -0.045972396 1.4080656e-38 340 278
0.025405798 0.69 -0.045972396 1.4173212e-38 341 278
0.026615599 0.69 -0.045972396 1.4266842e-38 342 278
0.027865725 0.69099998 -0.046039023 1.4359038e-38 343 278
0.029161438 0.69300002 -0.04617228 1.4359038e-38 344 278
0.0303765 0.69300002 -0.04617228 1.4359038e-38 345 278
0.031637147 0.69400001 -0.046238903 1.4175726e-38 346 278
0.032948639 0.69599998 -0.046372157 1.4175726e-38 347 278
0.034218054 0.69700003 -0.046438783 1.39917e-38 348 278
0.035440128 0.69700003 -0.046438783 1.39917e-38 349 278
0.0367148 0.69800001 -0.046505414 1.3900233e-38 350 278
0.038047329 0.69999999 -0.046638668 1.399243e-38 351 278
0.039274666 0.69999999 -0.046638668 1.4177896e-38 352 278
0.040502001 0.69999999 -0.046638668 1.4177896e-38 353 278
0.041729331 0.69999999 -0.046638668 1.4458116e-38 354 278
0.042956665 0.69999999 -0.046638668 1.6762646e-38 355 278
-0.029624319 0.704 -0.048139516 1.3074831e-38 296 279
-0.028470624 0.70599997 -0.048276275 1.2982635e-38 297 279
-0.027232772 0.70599997 -0.048276275 1.4450886e-38 298 279
-0.02592128 0.704 -0.048139516 1.4358691e-38 299 279
-0.024686933 0.704 -0.048139516 1.4081029e-38 300 279
-0.023419274 0.70300001 -0.048071139 1.3896636e-38 301 279
-0.022091998 0.69999999 -0.047865998 1.3712971e-38 302 279
-0.020864666 0.69999999 -0.047865998 1.3897364e-38 303 279
-0.019637333 0.69999999 -0.047865998 1.4172155e-38 304 279
-0.0183574 0.69800001 -0.047729239 1.407996e-38 305 279
-0.017133573 0.69800001 -0.047729239 1.4263272e-38 306 279
-0.015886955 0.69700003 -0.047660861 1.4171075e-38 307 279
-0.014643839 0.69599998 -0.047592476 1.3712615e-38 308 279
-0.013423519 0.69599998 -0.047592476 1.3712615e-38 309 279
-0.012168133 0.69400001 -0.047455717 1.3346358e-38 310 279
-0.01095132 0.69400001 -0.047455717 1.3622584e-38 311 279
-0.0097204801 0.69300002 -0.047387339 1.3807331e-38 312 279
-0.0085054198 0.69300002 -0.047387339 1.3899527e-38 313 279
-0.0072693196 0.69099998 -0.047250576 1.3623663e-38 314 279
-0.0060577663 0.69099998 -0.047250576 1.3531468e-38 315 279
-0.0048391996 0.69 -0.047182199 1.362294e-38 316 279
-0.0036293997 0.69 -0.047182199 1.3254158e-38 317 279
-0.0024195998 0.69 -0.047182199 1.3345274e-38 318 279
-0.0012062934 0.68800002 -0.047045439 1.3069048e-38 319 279
0 0.68800002 -0.047045439 1.3527505e-38 320 279
0.0012062934 0.68800002 -0.047045439 1.3895927e-38 321 279
0.0024125867 0.68800002 -0.047045439 1.3622206e-38 322 279
0.0036136196 0.68699998 -0.046977058 1.3898433e-38 323 279
0.0048181596 0.68699998 -0.046977058 1.3898064e-38 324 279
0.0060226996 0.68699998 -0.046977058 1.417465e-38 325 279
0.0072272392 0.68699998 -0.046977058 1.4634902e-38 326 279
0.0084195063 0.68599999 -0.046908677 1.4911849e-38 327 279
0.0096222926 0.68599999 -0.046908677 1.5187354e-38 328 279
0.01079352 0.68400002 -0.046771921 1.5002963e-38 329 279
0.0119928 0.68400002 -0.046771921 1.4999726e-38 330 279
0.01319208 0.68400002 -0.046771921 1.4815335e-38 331 279
0.01443344 0.68599999 -0.046908677 1.4906458e-38 332 279
0.015636226 0.68599999 -0.046908677 1.4722065e-38 333 279
0.01686356 0.68699998 -0.046977058 1.4538397e-38 334 279
0.018068098 0.68699998 -0.046977058 1.4538397e-38 335 279
0.019272638 0.68699998 -0.046977058 1.4354722e-38 336 279
0.020506985 0.68800002 -0.047045439 1.4262526e-38 337 279
0.021713281 0.68800002 -0.047045439 1.4079209e-38 338 279
0.022919573 0.68800002 -0.047045439 1.4079209e-38 339 279
0.024125867 0.68800002 -0.047045439 1.4265031e-38 340 279
0.02533216 0.68800002 -0.047045439 1.4357228e-38 341 279
0.026615599 0.69 -0.047182199 1.4266474e-38 342 279
0.027825398 0.69 -0.047182199 1.435867e-38 343 279
0.029077278 0.69099998 -0.047250576 1.4359388e-38 344 279
0.0303765 0.69300002 -0.047387339 1.4267193e-38 345 279
0.031637147 0.69400001 -0.047455717 1.4266477e-38 346 279
0.032853961 0.69400001 -0.047455717 1.4174281e-38 347 279
0.034168959 0.69599998 -0.047592476 1.3898783e-38 348 279
0.035440128 0.69700003 -0.047660861 1.3898783e-38 349 279
0.0367148 0.69800001 -0.047729239 1.3807669e-38 350 279
0.038047329 0.69999999 -0.047865998 1.39917e-38 351 279
0.039274666 0.69999999 -0.047865998 1.4269361e-38 352 279
0.040502001 0.69999999 -0.047865998 1.4361556e-38 353 279
0.041729331 0.69999999 -0.047865998 1.4090762e-38 354 279
0.042956665 0.69999999 -0.047865998 1.5749924e-38 355 279
-0.029624319 0.704 -0.049373865 1.2059953e-38 296 280
-0.028389972 0.704 -0.049373865 1.2797518e-38 297 280
-0.027155625 0.704 -0.049373865 1.3900598e-38 298 280
-0.02592128 0.704 -0.049373865 1.3439978e-38 299 280
-0.024651866 0.70300001 -0.049303733 1.398848e-38 300 280
-0.023352645 0.70099998 -0.049163464 1.3712252e-38 301 280
-0.022091998 0.69999999 -0.049093332 1.3254161e-38 302 280
-0.020864666 0.69999999 -0.049093332 1.3161965e-38 303 280
-0.019581227 0.69800001 -0.048953064 1.325381e-38 304 280
-0.018331099 0.69700003 -0.048882935 1.3161256e-38 305 280
-0.017109027 0.69700003 -0.048882935 1.2976867e-38 306 280
-0.015864158 0.69599998 -0.048812799 1.3069063e-38 307 280
-0.014643839 0.69599998 -0.048812799 1.2886104e-38 308 280
-0.013384946 0.69400001 -0.048672531 1.2886104e-38 309 280
-0.012168133 0.69400001 -0.048672531 1.2703873e-38 310 280
-0.010935539 0.69300002 -0.048602402 1.2888266e-38 311 280
-0.0097204801 0.69300002 -0.048602402 1.2888985e-38 312 280
-0.0085054198 0.69300002 -0.048602402 1.2981181e-38 313 280
-0.0072693196 0.69099998 -0.04846213 1.307301e-38 314 280
-0.0060489997 0.69 -0.048391998 1.307301e-38 315 280
-0.0048251734 0.68800002 -0.048251733 1.3438906e-38 316 280
-0.0036188802 0.68800002 -0.048251733 1.3161959e-38 317 280
-0.0024125867 0.68800002 -0.048251733 1.3161246e-38 318 280
-0.0012062934 0.68800002 -0.048251733 1.2976496e-38 319 280
0 0.68800002 -0.048251733 1.3252007e-38 320 280
0.0012045399 0.68699998 -0.048181597 1.3436757e-38 321 280
0.0024090798 0.68699998 -0.048181597 1.3712615e-38 322 280
0.0036136196 0.68699998 -0.048181597 1.3620419e-38 323 280
0.0048181596 0.68699998 -0.048181597 1.3527505e-38 324 280
0.0060139326 0.68599999 -0.048111461 1.36197e-38 325 280
0.0072167199 0.68599999 -0.048111461 1.4172503e-38 326 280
0.0084195063 0.68599999 -0.048111461 1.4541284e-38 327 280
0.0096222926 0.68599999 -0.048111461 1.4541281e-38 328 280
0.01079352 0.68400002 -0.0479712 1.4449086e-38 329 280
0.011975267 0.68300003 -0.047901068 1.4355099e-38 330 280
0.013172794 0.68300003 -0.047901068 1.4262902e-38 331 280
0.01443344 0.68599999 -0.048111461 1.4078861e-38 332 280
0.015636226 0.68599999 -0.048111461 1.4078861e-38 333 280
0.01686356 0.68699998 -0.048181597 1.3895193e-38 334 280
0.018068098 0.68699998 -0.048181597 1.3895193e-38 335 280
0.019272638 0.68699998 -0.048181597 1.3803353e-38 336 280
0.020477179 0.68699998 -0.048181597 1.3803353e-38 337 280
0.021713281 0.68800002 -0.048251733 1.3711871e-38 338 280
0.022919573 0.68800002 -0.048251733 1.3804066e-38 339 280
0.024125867 0.68800002 -0.048251733 1.3713669e-38 340 280
0.02533216 0.68800002 -0.048251733 1.3805864e-38 341 280
0.026538454 0.68800002 -0.048251733 1.3899139e-38 342 280
0.027744746 0.68800002 -0.048251733 1.408353e-38 343 280
0.029035198 0.69 -0.048391998 1.4083527e-38 344 280
0.030288832 0.69099998 -0.04846213 1.4083527e-38 345 280
0.031591557 0.69300002 -0.048602402 1.4175e-38 346 280
0.032853961 0.69400001 -0.048672531 1.3990969e-38 347 280
0.034168959 0.69599998 -0.048812799 1.3623275e-38 348 280
0.035440128 0.69700003 -0.048882935 1.3715471e-38 349 280
0.0367148 0.69800001 -0.048953064 1.3533246e-38 350 280
0.038047329 0.69999999 -0.049093332 1.3625442e-38 351 280
0.039274666 0.69999999 -0.049093332 1.3810553e-38 352 280
0.040502001 0.69999999 -0.049093332 1.4087499e-38 353 280
0.041729331 0.69999999 -0.049093332 1.4181872e-38 354 280
0.042956665 0.69999999 -0.049093332 1.5104188e-38 355 280
-0.029624319 0.704 -0.050608214 1.1046524e-38 296 281
-0.028389972 0.704 -0.050608214 1.215287e-38 297 281
-0.027155625 0.704 -0.050608214 1.3438903e-38 298 281
-0.025884461 0.70300001 -0.050536323 1.3254511e-38 299 281
-0.024581732 0.70099998 -0.050392549 1.3254861e-38 300 281
-0.023319334 0.69999999 -0.050320663 1.3162666e-38 301 281
-0.02202888 0.69800001 -0.050176892 1.3069395e-38 302 281
-0.020805053 0.69800001 -0.050176892 1.3161949e-38 303 281
-0.019581227 0.69800001 -0.050176892 1.3069045e-38 304 281
-0.018331099 0.69700003 -0.050105009 1.3069045e-38 305 281
-0.017109027 0.69700003 -0.050105009 1.2976496e-38 306 281
-0.015864158 0.69599998 -0.050033119 1.28843e-38 307 281
-0.014643839 0.69599998 -0.050033119 1.2700985e-38 308 281
-0.013384946 0.69400001 -0.049889345 1.279354e-38 309 281
-0.012168133 0.69400001 -0.049889345 1.2794621e-38 310 281
-0.010935539 0.69300002 -0.049817458 1.261059e-38 311 281
-0.0097204801 0.69300002 -0.049817458 1.2886467e-38 312 281
-0.0085054198 0.69300002 -0.049817458 1.2886467e-38 313 281
-0.0072693196 0.69099998 -0.049673684 1.2888619e-38 314 281
-0.0060314666 0.68800002 -0.049458027 1.2796424e-38 315 281
-0.0048251734 0.68800002 -0.049458027 1.2978294e-38 316 281
-0.0036188802 0.68800002 -0.049458027 1.2701707e-38 317 281
-0.0024125867 0.68800002 -0.049458027 1.2791387e-38 318 281
-0.0012062934 0.68800002 -0.049458027 1.2606637e-38 319 281
0 0.68800002 -0.049458027 1.3157293e-38 320 281
0.0012045399 0.68699998 -0.049386136 1.3526436e-38 321 281
0.0024090798 0.68699998 -0.049386136 1.3617905e-38 322 281
0.00360836 0.68599999 -0.049314249 1.3249123e-38 323 281
0.0048111463 0.68599999 -0.049314249 1.3338074e-38 324 281
0.0060139326 0.68599999 -0.049314249 1.3891248e-38 325 281
0.0072167199 0.68599999 -0.049314249 1.3344896e-38 326 281
0.0083949603 0.68400002 -0.049170479 1.3528927e-38 327 281
0.0095802136 0.68300003 -0.049098592 1.4172126e-38 328 281
0.01077774 0.68300003 -0.049098592 1.3895899e-38 329 281
0.011975267 0.68300003 -0.049098592 1.4169612e-38 330 281
0.013172794 0.68300003 -0.049098592 1.4261808e-38 331 281
0.01439136 0.68400002 -0.049170479 1.4077409e-38 332 281
0.015636226 0.68599999 -0.049314249 1.4077409e-38 333 281
0.016839013 0.68599999 -0.049314249 1.3894453e-38 334 281
0.018068098 0.68699998 -0.049386136 1.3894453e-38 335 281
0.019272638 0.68699998 -0.049386136 1.3894097e-38 336 281
0.020477179 0.68699998 -0.049386136 1.3801901e-38 337 281
0.021681719 0.68699998 -0.049386136 1.3619308e-38 338 281
0.022886258 0.68699998 -0.049386136 1.3711505e-38 339 281
0.024125867 0.68800002 -0.049458027 1.3713303e-38 340 281
0.02533216 0.68800002 -0.049458027 1.3713303e-38 341 281
0.026538454 0.68800002 -0.049458027 1.3622908e-38 342 281
0.027744746 0.68800002 -0.049458027 1.3806941e-38 343 281
0.029035198 0.69 -0.049601797 1.3899136e-38 344 281
0.030288832 0.69099998 -0.049673684 1.4083527e-38 345 281
0.031591557 0.69300002 -0.049817458 1.3990979e-38 346 281
0.032853961 0.69400001 -0.049889345 1.3898783e-38 347 281
0.034168959 0.69599998 -0.050033119 1.3623638e-38 348 281
0.035389278 0.69599998 -0.050033119 1.3439607e-38 349 281
0.036662199 0.69700003 -0.050105009 1.3623641e-38 350 281
0.037938625 0.69800001 -0.050176892 1.3715837e-38 351 281
0.039274666 0.69999999 -0.050320663 1.371799e-38 352 281
0.040502001 0.69999999 -0.050320663 1.4086414e-38 353 281
0.041729331 0.69999999 -0.050320663 1.3906364e-38 354 281
0.043140765 0.70300001 -0.050536323 1.5012712e-38 355 281
-0.030946331 0.70599997 -0.051989835 1.0969112e-38 295 282
-0.029624319 0.704 -0.051842559 1.0308959e-38 296 282
-0.028389972 0.704 -0.051842559 1.1414946e-38 297 282
-0.027155625 0.704 -0.051842559 1.261059e-38 298 282
-0.025884461 0.70300001 -0.051768921 1.2518395e-38 299 282
-0.024581732 0.70099998 -0.051621638 1.2977921e-38 300 282
-0.023319334 0.69999999 -0.051547997 1.2977921e-38 301 282
-0.02202888 0.69800001 -0.051400717 1.3069395e-38 302 282
-0.020805053 0.69800001 -0.051400717 1.2977199e-38 303 282
-0.019553173 0.69700003 -0.051327083 1.2793537e-38 304 282
-0.018331099 0.69700003 -0.051327083 1.2793537e-38 305 282
-0.017084479 0.69599998 -0.051253434 1.2792106e-38 306 282
-0.015864158 0.69599998 -0.051253434 1.2792106e-38 307 282
-0.01460176 0.69400001 -0.051106159 1.2516958e-38 308 282
-0.013384946 0.69400001 -0.051106159 1.2609155e-38 309 282
-0.012150601 0.69300002 -0.051032521 1.2426209e-38 310 282
-0.010935539 0.69300002 -0.051032521 1.2334013e-38 311 282
-0.0096924258 0.69099998 -0.050885238 1.2426212e-38 312 282
-0.0084686 0.69 -0.050811596 1.2610603e-38 313 282
-0.0072587994 0.69 -0.050811596 1.2427647e-38 314 282
-0.0060314666 0.68800002 -0.050664321 1.2335092e-38 315 282
-0.0048251734 0.68800002 -0.050664321 1.2608086e-38 316 282
-0.0036188802 0.68800002 -0.050664321 1.2331498e-38 317 282
-0.0024125867 0.68800002 -0.050664321 1.2514091e-38 318 282
-0.0012062934 0.68800002 -0.050664321 1.2421896e-38 319 282
0 0.68800002 -0.050664321 1.2604492e-38 320 282
0.0012045399 0.68699998 -0.050590675 1.2696688e-38 321 282
0.0024090798 0.68699998 -0.050590675 1.2971832e-38 322 282
0.00360836 0.68599999 -0.050517038 1.2879278e-38 323 282
0.0048111463 0.68599999 -0.050517038 1.2603756e-38 324 282
0.0060139326 0.68599999 -0.050517038 1.297218e-38 325 282
0.0071956799 0.68400002 -0.050369758 1.2974681e-38 326 282
0.0083949603 0.68400002 -0.050369758 1.3066877e-38 327 282
0.0095802136 0.68300003 -0.05029612 1.3526053e-38 328 282
0.01077774 0.68300003 -0.05029612 1.361825e-38 329 282
0.011975267 0.68300003 -0.05029612 1.3618602e-38 330 282
0.013172794 0.68300003 -0.05029612 1.3618602e-38 331 282
0.01439136 0.68400002 -0.050369758 1.3710788e-38 332 282
0.01559064 0.68400002 -0.050369758 1.3618233e-38 333 282
0.016789921 0.68400002 -0.050369758 1.370935e-38 334 282
0.018041799 0.68599999 -0.050517038 1.3617154e-38 335 282
0.019272638 0.68699998 -0.050590675 1.3617157e-38 336 282
0.020477179 0.68699998 -0.050590675 1.3709353e-38 337 282
0.021681719 0.68699998 -0.050590675 1.3434564e-38 338 282
0.022886258 0.68699998 -0.050590675 1.3526759e-38 339 282
0.024090799 0.68699998 -0.050590675 1.3436007e-38 340 282
0.02533216 0.68800002 -0.050664321 1.3528561e-38 341 282
0.026538454 0.68800002 -0.050664321 1.3621476e-38 342 282
0.027744746 0.68800002 -0.050664321 1.3713671e-38 343 282
0.029035198 0.69 -0.050811596 1.3622919e-38 344 282
0.030288832 0.69099998 -0.050885238 1.3715474e-38 345 282
0.031500384 0.69099998 -0.050885238 1.3897711e-38 346 282
0.03280662 0.69300002 -0.051032521 1.3897711e-38 347 282
0.034070771 0.69400001 -0.051106159 1.3622206e-38 348 282
0.035389278 0.69599998 -0.051253434 1.3530009e-38 349 282
0.036662199 0.69700003 -0.051327083 1.3347058e-38 350 282
0.037938625 0.69800001 -0.051400717 1.3623644e-38 351 282
0.039274666 0.69999999 -0.051547997 1.3441776e-38 352 282
0.040502001 0.69999999 -0.051547997 1.4087146e-38 353 282
0.041729331 0.69999999 -0.051547997 1.3906011e-38 354 282
0.043018032 0.70099998 -0.051621638 1.4459185e-38 355 282
0.044247117 0.70099998 -0.051621638 1.6402888e-38 356 282
-0.030946331 0.70599997 -0.053227689 1.0323021e-38 295 283
-0.029708479 0.70599997 -0.053227689 1.0584467e-38 296 283
-0.028389972 0.704 -0.053076904 1.1229836e-38 297 283
-0.027155625 0.704 -0.053076904 1.2699552e-38 298 283
-0.025884461 0.70300001 -0.053001512 1.2515521e-38 299 283
-0.024581732 0.70099998 -0.052850723 1.2609144e-38 300 283
-0.023252707 0.69800001 -0.052624546 1.2609144e-38 301 283
-0.02202888 0.69800001 -0.052624546 1.288536e-38 302 283
-0.020805053 0.69800001 -0.052624546 1.288536e-38 303 283
-0.019553173 0.69700003 -0.052549154 1.3160868e-38 304 283
-0.018331099 0.69700003 -0.052549154 1.2976837e-38 305 283
-0.017084479 0.69599998 -0.052473757 1.2792454e-38 306 283
-0.015864158 0.69599998 -0.052473757 1.2792454e-38 307 283
-0.01460176 0.69400001 -0.052322973 1.2609144e-38 308 283
-0.013384946 0.69400001 -0.052322973 1.2701341e-38 309 283
-0.012150601 0.69300002 -0.05224758 1.2609511e-38 310 283
-0.010935539 0.69300002 -0.05224758 1.2701707e-38 311 283
-0.0096924258 0.69099998 -0.052096792 1.2426562e-38 312 283
-0.0084440531 0.68800002 -0.051870614 1.2334366e-38 313 283
-0.0072377604 0.68800002 -0.051870614 1.2516961e-38 314 283
-0.0060314666 0.68800002 -0.051870614 1.2240734e-38 315 283
-0.0048251734 0.68800002 -0.051870614 1.2513372e-38 316 283
-0.0036136196 0.68699998 -0.051795214 1.2421177e-38 317 283
-0.0024090798 0.68699998 -0.051795214 1.2420454e-38 318 283
-0.0012045399 0.68699998 -0.051795214 1.2236063e-38 319 283
0 0.68699998 -0.051795214 1.2419375e-38 320 283
0.0012045399 0.68699998 -0.051795214 1.2419375e-38 321 283
0.0024055731 0.68599999 -0.051719822 1.2419012e-38 322 283
0.00360836 0.68599999 -0.051719822 1.2511207e-38 323 283
0.0048111463 0.68599999 -0.051719822 1.2237119e-38 324 283
0.0059964 0.68400002 -0.051569041 1.2605541e-38 325 283
0.0071956799 0.68400002 -0.051569041 1.2789924e-38 326 283
0.0083949603 0.68400002 -0.051569041 1.2789924e-38 327 283
0.0095942402 0.68400002 -0.051569041 1.3250179e-38 328 283
0.01077774 0.68300003 -0.051493648 1.3434211e-38 329 283
0.011975267 0.68300003 -0.051493648 1.3618952e-38 330 283
0.013172794 0.68300003 -0.051493648 1.3618952e-38 331 283
0.01439136 0.68400002 -0.051569041 1.3618589e-38 332 283
0.01559064 0.68400002 -0.051569041 1.3526394e-38 333 283
0.016789921 0.68400002 -0.051569041 1.3708631e-38 334 283
0.018041799 0.68599999 -0.051719822 1.3616435e-38 335 283
0.019244585 0.68599999 -0.051719822 1.3340928e-38 336 283
0.020477179 0.68699998 -0.051795214 1.3433123e-38 337 283
0.021681719 0.68699998 -0.051795214 1.3433842e-38 338 283
0.022886258 0.68699998 -0.051795214 1.3526038e-38 339 283
0.024090799 0.68699998 -0.051795214 1.3434561e-38 340 283
0.02533216 0.68800002 -0.051870614 1.3526756e-38 341 283
0.026538454 0.68800002 -0.051870614 1.3436363e-38 342 283
0.027744746 0.68800002 -0.051870614 1.3528559e-38 343 283
0.029035198 0.69 -0.052021399 1.362112e-38 344 283
0.030288832 0.69099998 -0.052096792 1.3713674e-38 345 283
0.031500384 0.69099998 -0.052096792 1.3712602e-38 346 283
0.03280662 0.69300002 -0.05224758 1.3896633e-38 347 283
0.034070771 0.69400001 -0.052322973 1.3712965e-38 348 283
0.035287585 0.69400001 -0.052322973 1.362077e-38 349 283
0.036662199 0.69700003 -0.052549154 1.3438173e-38 350 283
0.037938625 0.69800001 -0.052624546 1.3622925e-38 351 283
0.039274666 0.69999999 -0.052775331 1.353289e-38 352 283
0.040502001 0.69999999 -0.052775331 1.4178259e-38 353 283
0.041729331 0.69999999 -0.052775331 1.3723771e-38 354 283
0.043018032 0.70099998 -0.052850723 1.3908163e-38 355 283
0.044247117 0.70099998 -0.052850723 1.6311048e-38 356 283
-0.030858666 0.704 -0.054311249 1.0321222e-38 295 284
-0.029624319 0.704 -0.054311249 1.1597177e-38 296 284
-0.028349647 0.70300001 -0.054234106 1.1781568e-38 297 284
-0.027117053 0.70300001 -0.054234106 1.233148e-38 298 284
-0.025810819 0.70099998 -0.054079808 1.233148e-38 299 284
-0.024546666 0.69999999 -0.054002665 1.2241432e-38 300 284
-0.023252707 0.69800001 -0.053848371 1.2241432e-38 301 284
-0.02199732 0.69700003 -0.053771228 1.2792085e-38 302 284
-0.020775247 0.69700003 -0.053771228 1.288464e-38 303 284
-0.019553173 0.69700003 -0.053771228 1.3160152e-38 304 284
-0.018304799 0.69599998 -0.053694077 1.3160152e-38 305 284
-0.017084479 0.69599998 -0.053694077 1.2976483e-38 306 284
-0.015818574 0.69400001 -0.053539783 1.2976483e-38 307 284
-0.01460176 0.69400001 -0.053539783 1.2701694e-38 308 284
-0.01336566 0.69300002 -0.053462639 1.279389e-38 309 284
-0.012150601 0.69300002 -0.053462639 1.2335796e-38 310 284
-0.010935539 0.69300002 -0.053462639 1.2335796e-38 311 284
-0.0096924258 0.69099998 -0.053308345 1.2334366e-38 312 284
-0.0084440531 0.68800002 -0.053076908 1.2058138e-38 313 284
-0.0072377604 0.68800002 -0.053076908 1.2055984e-38 314 284
-0.0060314666 0.68800002 -0.053076908 1.1871593e-38 315 284
-0.0048251734 0.68800002 -0.053076908 1.2237135e-38 316 284
-0.0036136196 0.68699998 -0.052999757 1.2237135e-38 317 284
-0.0024090798 0.68699998 -0.052999757 1.2419725e-38 318 284
-0.0012045399 0.68699998 -0.052999757 1.2235694e-38 319 284
0 0.68699998 -0.052999757 1.1959117e-38 320 284
0.0012045399 0.68699998 -0.052999757 1.1775084e-38 321 284
0.0024055731 0.68599999 -0.05292261 1.1500295e-38 322 284
0.00360836 0.68599999 -0.05292261 1.1592492e-38 323 284
0.0048111463 0.68599999 -0.05292261 1.1869423e-38 324 284
