# .PCD v.7 - Point Cloud Data file format
FIELDS x y z rgb imX imY
SIZE 4 4 4 4 4 4
TYPE F F F F F F
COUNT 1 1 1 1 1 1
WIDTH 849
HEIGHT 1
VIEWPOINT 0 0 0 1 0 0 0
POINTS 849
DATA ascii
-0.027036399 0.77100003 0.01757366 1.4819666e-38 300 227
-0.025617953 0.76899999 0.017528072 1.4911862e-38 301 227
-0.024269639 0.76899999 0.017528072 1.518845e-38 302 227
-0.022861714 0.76700002 0.017482487 1.5465035e-38 303 227
-0.021516906 0.76700002 0.017482487 1.5557228e-38 304 227
-0.020172099 0.76700002 0.017482487 1.5649424e-38 305 227
-0.018876385 0.76899999 0.017528072 1.5925288e-38 306 227
-0.017482487 0.76700002 0.017482487 1.5925288e-38 307 227
-0.01613768 0.76700002 0.017482487 1.5466467e-38 308 227
-0.014792874 0.76700002 0.017482487 1.5373913e-38 309 227
-0.013448066 0.76700002 0.017482487 1.6197913e-38 310 227
-0.012087479 0.76599997 0.017459691 1.5644739e-38 311 227
-0.010744425 0.76599997 0.017459691 1.463383e-38 312 227
-0.0094136465 0.76700002 0.017482487 1.463383e-38 313 227
-0.00806884 0.76700002 0.017482487 1.3809834e-38 314 227
-0.0067152665 0.76599997 0.017459691 1.4823985e-38 315 227
-0.0053722127 0.76599997 0.017459691 1.5744131e-38 316 227
-0.0040186401 0.764 0.017414106 1.620475e-38 317 227
-0.0026790933 0.764 0.017414106 1.7676633e-38 318 227
-0.0013430532 0.76599997 0.017459691 1.7769188e-38 319 227
0 0.76599997 0.017459691 1.7310715e-38 320 227
0.0013430532 0.76599997 0.017459691 1.7218161e-38 321 227
0.0026861064 0.76599997 0.017459691 1.7033755e-38 322 227
0.0040291594 0.76599997 0.017459691 1.675681e-38 323 227
0.0053722127 0.76599997 0.017459691 1.7030153e-38 324 227
0.0067152665 0.76599997 0.017459691 1.666173e-38 325 227
0.0080583189 0.76599997 0.017459691 1.6385136e-38 326 227
0.0094013726 0.76599997 0.017459691 1.6292941e-38 327 227
0.010744425 0.76599997 0.017459691 1.6107826e-38 328 227
0.012087479 0.76599997 0.017459691 1.58316e-38 329 227
0.013430533 0.76599997 0.017459691 1.5739051e-38 330 227
0.014792874 0.76700002 0.017482487 1.5554301e-38 331 227
0.01613768 0.76700002 0.017482487 1.54614e-38 332 227
0.017482487 0.76700002 0.017482487 1.5185174e-38 333 227
0.018876385 0.76899999 0.017528072 1.4817848e-38 334 227
0.020277301 0.77100003 0.01757366 1.4910044e-38 335 227
0.021685226 0.773 0.017619247 1.3992449e-38 336 227
0.02307036 0.77399999 0.01764204 1.4637818e-38 337 227
0.02442744 0.77399999 0.01764204 1.3089979e-38 338 227
0.025784519 0.77399999 0.01764204 1.7331336e-38 339 227
0.027211733 0.77600002 0.017687626 1.7703025e-38 340 227
-0.042395595 0.77999997 0.016411198 9.6827019e-39 289 228
-0.041027997 0.77999997 0.016411198 1.2062474e-38 290 228
-0.039558705 0.778 0.016369121 1.1601496e-38 291 228
-0.038194612 0.778 0.016369121 1.2794253e-38 292 228
-0.036735836 0.77600002 0.01632704 1.2794253e-38 293 228
-0.035375252 0.77600002 0.01632704 1.2977565e-38 294 228
-0.033927001 0.77399999 0.016284959 1.3162315e-38 295 228
-0.032527838 0.773 0.016263919 1.35293e-38 296 228
-0.031091858 0.77100003 0.016221842 1.3805887e-38 297 228
-0.029740039 0.77100003 0.016221842 1.3990275e-38 298 228
-0.028388219 0.77100003 0.016221842 1.4267222e-38 299 228
-0.027036399 0.77100003 0.016221842 1.4360134e-38 300 228
-0.025617953 0.76899999 0.016179759 1.4728915e-38 301 228
-0.024206521 0.76700002 0.01613768 1.5189172e-38 302 228
-0.022861714 0.76700002 0.01613768 1.5281367e-38 303 228
-0.021516906 0.76700002 0.01613768 1.5464682e-38 304 228
-0.020172099 0.76700002 0.01613768 1.5188455e-38 305 228
-0.018827293 0.76700002 0.01613768 1.5189174e-38 306 228
-0.017482487 0.76700002 0.01613768 1.5557957e-38 307 228
-0.016116638 0.76599997 0.016116638 1.5741975e-38 308 228
-0.014773586 0.76599997 0.016116638 1.5741975e-38 309 228
-0.013430533 0.76599997 0.016116638 1.601532e-38 310 228
-0.012087479 0.76599997 0.016116638 1.5923124e-38 311 228
-0.010716373 0.764 0.016074561 1.5465386e-38 312 228
-0.0093768267 0.764 0.016074561 1.5281355e-38 313 228
-0.0080583189 0.76599997 0.016116638 1.5465386e-38 314 228
-0.0067152665 0.76599997 0.016116638 1.6202951e-38 315 228
-0.0053722127 0.76599997 0.016116638 1.6663207e-38 316 228
-0.0040186401 0.764 0.016074561 1.6755403e-38 317 228
-0.0026790933 0.764 0.016074561 1.7308212e-38 318 228
-0.0013430532 0.76599997 0.016116638 1.7676636e-38 319 228
0 0.76599997 0.016116638 1.7310362e-38 320 228
0.0013430532 0.76599997 0.016116638 1.712561e-38 321 228
0.0026861064 0.76599997 0.016116638 1.7124519e-38 322 228
0.0040291594 0.76599997 0.016116638 1.6755736e-38 323 228
0.0053722127 0.76599997 0.016116638 1.6754645e-38 324 228
0.0067152665 0.76599997 0.016116638 1.6477698e-38 325 228
0.0080583189 0.76599997 0.016116638 1.601743e-38 326 228
0.0094013726 0.76599997 0.016116638 1.5925233e-38 327 228
0.010744425 0.76599997 0.016116638 1.5831244e-38 328 228
0.012087479 0.76599997 0.016116638 1.5739048e-38 329 228
0.013430533 0.76599997 0.016116638 1.5553951e-38 330 228
0.014792874 0.76700002 0.01613768 1.5185527e-38 331 228
0.01613768 0.76700002 0.01613768 1.5000073e-38 332 228
0.017482487 0.76700002 0.01613768 1.4907878e-38 333 228
0.018876385 0.76899999 0.016179759 1.4632388e-38 334 228
0.0202247 0.76899999 0.016179759 1.4816779e-38 335 228
0.021685226 0.773 0.016263919 1.3900247e-38 336 228
0.02307036 0.77399999 0.016284959 1.380805e-38 337 228
0.02442744 0.77399999 0.016284959 1.2439205e-38 338 228
0.025851147 0.77600002 0.01632704 1.695679e-38 339 228
0.027211733 0.77600002 0.01632704 1.7425718e-38 340 228
-0.042286891 0.778 0.015005025 9.4032312e-39 289 229
-0.040922798 0.778 0.015005025 1.2705675e-38 290 229
-0.039457016 0.77600002 0.014966453 1.242873e-38 291 229
-0.038096428 0.77600002 0.014966453 1.2795328e-38 292 229
-0.036641158 0.77399999 0.014927879 1.2611297e-38 293 229
-0.03528408 0.77399999 0.014927879 1.2794253e-38 294 229
-0.033883166 0.773 0.014908593 1.2979003e-38 295 229
-0.032527838 0.773 0.014908593 1.3530023e-38 296 229
-0.031091858 0.77100003 0.01487002 1.3622219e-38 297 229
-0.029740039 0.77100003 0.01487002 1.3990278e-38 298 229
-0.028314579 0.76899999 0.014831445 1.4082474e-38 299 229
-0.026896132 0.76700002 0.014792874 1.4543805e-38 300 229
-0.025551327 0.76700002 0.014792874 1.4820392e-38 301 229
-0.024206521 0.76700002 0.014792874 1.4912587e-38 302 229
-0.022831906 0.76599997 0.014773586 1.4912587e-38 303 229
-0.021488851 0.76599997 0.014773586 1.5095904e-38 304 229
-0.020145798 0.76599997 0.014773586 1.4819316e-38 305 229
-0.018802745 0.76599997 0.014773586 1.4820759e-38 306 229
-0.017459691 0.76599997 0.014773586 1.5466128e-38 307 229
-0.016074561 0.764 0.014735013 1.6016781e-38 308 229
-0.014735013 0.764 0.014735013 1.6016781e-38 309 229
-0.013395466 0.764 0.014735013 1.5649427e-38 310 229
-0.01205592 0.764 0.014735013 1.5926374e-38 311 229
-0.01068832 0.76200002 0.01469644 1.6019283e-38 312 229
-0.0093522798 0.76200002 0.01469644 1.6019283e-38 313 229
-0.0080372803 0.764 0.014735013 1.6570291e-38 314 229
-0.006697733 0.764 0.014735013 1.7123465e-38 315 229
-0.0053441599 0.76200002 0.01469644 1.6938715e-38 316 229
-0.0040081199 0.76200002 0.01469644 1.7031269e-38 317 229
-0.0026790933 0.764 0.014735013 1.7307856e-38 318 229
-0.0013395466 0.764 0.014735013 1.7584084e-38 319 229
0 0.764 0.014735013 1.749369e-38 320 229
0.0013395466 0.764 0.014735013 1.7125267e-38 321 229
0.0026790933 0.764 0.014735013 1.6940503e-38 322 229
0.0040186401 0.764 0.014735013 1.657136e-38 323 229
0.0053581866 0.764 0.014735013 1.6386232e-38 324 229
0.0067152665 0.76599997 0.014773586 1.6109644e-38 325 229
0.0080583189 0.76599997 0.014773586 1.5924531e-38 326 229
0.0094013726 0.76599997 0.014773586 1.5647944e-38 327 229
0.010744425 0.76599997 0.014773586 1.5829814e-38 328 229
0.012087479 0.76599997 0.014773586 1.5737619e-38 329 229
0.013430533 0.76599997 0.014773586 1.5369558e-38 330 229
0.014792874 0.76700002 0.014792874 1.5000777e-38 331 229
0.01613768 0.76700002 0.014792874 1.5091546e-38 332 229
0.017482487 0.76700002 0.014792874 1.4722763e-38 333 229
0.018876385 0.76899999 0.014831445 1.4538748e-38 334 229
0.0202247 0.76899999 0.014831445 1.490753e-38 335 229
0.021685226 0.773 0.014908593 1.4083548e-38 336 229
0.02307036 0.77399999 0.014927879 1.3806963e-38 337 229
0.024490559 0.77600002 0.014966453 1.2709306e-38 338 229
0.025851147 0.77600002 0.014966453 1.6397133e-38 339 229
0.027211733 0.77600002 0.014966453 1.6134974e-38 340 229
-0.042178184 0.77600002 0.013605867 8.8482567e-39 289 230
-0.0408176 0.77600002 0.013605867 1.3346004e-38 290 230
-0.039457016 0.77600002 0.013605867 1.3346004e-38 291 230
-0.037998237 0.77399999 0.013570799 1.2886449e-38 292 230
-0.036641158 0.77399999 0.013570799 1.2702057e-38 293 230
-0.03528408 0.77399999 0.013570799 1.2794975e-38 294 230
-0.033883166 0.773 0.013553266 1.2979366e-38 295 230
-0.032527838 0.773 0.013553266 1.3254878e-38 296 230
-0.031091858 0.77100003 0.013518199 1.3254878e-38 297 230
-0.02966289 0.76899999 0.013483133 1.3805534e-38 298 230
-0.02824094 0.76700002 0.013448066 1.4082121e-38 299 230
-0.026896132 0.76700002 0.013448066 1.44509e-38 300 230
-0.025551327 0.76700002 0.013448066 1.463565e-38 301 230
-0.024174958 0.76599997 0.013430533 1.4728199e-38 302 230
-0.022831906 0.76599997 0.013430533 1.4728199e-38 303 230
-0.021488851 0.76599997 0.013430533 1.481896e-38 304 230
-0.020145798 0.76599997 0.013430533 1.500371e-38 305 230
-0.018802745 0.76599997 0.013430533 1.5556528e-38 306 230
-0.017414106 0.764 0.013395466 1.5833116e-38 307 230
-0.016074561 0.764 0.013395466 1.5926383e-38 308 230
-0.014735013 0.764 0.013395466 1.5834188e-38 309 230
-0.013395466 0.764 0.013395466 1.5649429e-38 310 230
-0.01202436 0.76200002 0.0133604 1.5833822e-38 311 230
-0.01068832 0.76200002 0.0133604 1.5743775e-38 312 230
-0.0093522798 0.76200002 0.0133604 1.5743775e-38 313 230
-0.0080162399 0.76200002 0.0133604 1.6478096e-38 314 230
-0.0066801999 0.76200002 0.0133604 1.6754684e-38 315 230
-0.0053441599 0.76200002 0.0133604 1.6756478e-38 316 230
-0.0040081199 0.76200002 0.0133604 1.6848673e-38 317 230
-0.00267208 0.76200002 0.0133604 1.7216382e-38 318 230
-0.0013395466 0.764 0.013395466 1.7031993e-38 319 230
0 0.764 0.013395466 1.7216026e-38 320 230
0.0013395466 0.764 0.013395466 1.6847604e-38 321 230
0.0026790933 0.764 0.013395466 1.675504e-38 322 230
0.0040186401 0.764 0.013395466 1.6478093e-38 323 230
0.0053581866 0.764 0.013395466 1.6293685e-38 324 230
0.006697733 0.764 0.013395466 1.5832708e-38 325 230
0.0080372803 0.764 0.013395466 1.6014577e-38 326 230
0.0093768267 0.764 0.013395466 1.5737991e-38 327 230
0.010716373 0.764 0.013395466 1.55536e-38 328 230
0.01205592 0.764 0.013395466 1.5369208e-38 329 230
0.013395466 0.764 0.013395466 1.5185176e-38 330 230
0.014773586 0.76599997 0.013430533 1.4908231e-38 331 230
0.016116638 0.76599997 0.013430533 1.4723485e-38 332 230
0.017459691 0.76599997 0.013430533 1.4723485e-38 333 230
0.018827293 0.76700002 0.013448066 1.4447268e-38 334 230
0.0202247 0.76899999 0.013483133 1.4539822e-38 335 230
0.021629119 0.77100003 0.013518199 1.3990263e-38 336 230
0.02307036 0.77399999 0.013570799 1.3898067e-38 337 230
0.024490559 0.77600002 0.013605867 1.2704616e-38 338 230
0.025851147 0.77600002 0.013605867 1.5470844e-38 339 230
0.027211733 0.77600002 0.013605867 1.5120455e-38 340 230
-0.042178184 0.77600002 0.01224528 9.1208835e-39 289 231
-0.0408176 0.77600002 0.01224528 1.2978299e-38 290 231
-0.039355319 0.77399999 0.01221372 1.2978299e-38 291 231
-0.037998237 0.77399999 0.01221372 1.261166e-38 292 231
-0.036641158 0.77399999 0.01221372 1.2519464e-38 293 231
-0.03528408 0.77399999 0.01221372 1.2519111e-38 294 231
-0.033883166 0.773 0.012197939 1.2703502e-38 295 231
-0.032527838 0.773 0.012197939 1.3162328e-38 296 231
-0.031091858 0.77100003 0.01216638 1.3162328e-38 297 231
-0.02966289 0.76899999 0.012134819 1.343712e-38 298 231
-0.02824094 0.76700002 0.01210326 1.3714067e-38 299 231
-0.026896132 0.76700002 0.01210326 1.3624032e-38 300 231
-0.025518013 0.76599997 0.012087479 1.3808783e-38 301 231
-0.024174958 0.76599997 0.012087479 1.4267603e-38 302 231
-0.022831906 0.76599997 0.012087479 1.4267603e-38 303 231
-0.021488851 0.76599997 0.012087479 1.4634941e-38 304 231
-0.020145798 0.76599997 0.012087479 1.4911888e-38 305 231
-0.018802745 0.76599997 0.012087479 1.5557611e-38 306 231
-0.017414106 0.764 0.01205592 1.5833837e-38 307 231
-0.016074561 0.764 0.01205592 1.5926389e-38 308 231
-0.014735013 0.764 0.01205592 1.5557608e-38 309 231
-0.0133604 0.76200002 0.01202436 1.5373212e-38 310 231
-0.01202436 0.76200002 0.01202436 1.5557605e-38 311 231
-0.01068832 0.76200002 0.01202436 1.5560475e-38 312 231
-0.0093522798 0.76200002 0.01202436 1.5653029e-38 313 231
-0.0080162399 0.76200002 0.01202436 1.6386629e-38 314 231
-0.0066801999 0.76200002 0.01202436 1.6755052e-38 315 231
-0.0053441599 0.76200002 0.01202436 1.648134e-38 316 231
-0.0040081199 0.76200002 0.01202436 1.6665371e-38 317 231
-0.00267208 0.76200002 0.01202436 1.684832e-38 318 231
-0.00133604 0.76200002 0.01202436 1.684832e-38 319 231
0 0.76200002 0.01202436 1.6755052e-38 320 231
0.00133604 0.76200002 0.01202436 1.657066e-38 321 231
0.0026790933 0.764 0.01205592 1.6477024e-38 322 231
0.0040186401 0.764 0.01205592 1.6292632e-38 323 231
0.0053581866 0.764 0.01205592 1.6108584e-38 324 231
0.006697733 0.764 0.01205592 1.5647966e-38 325 231
0.0080372803 0.764 0.01205592 1.5921307e-38 326 231
0.0093768267 0.764 0.01205592 1.5736915e-38 327 231
0.010716373 0.764 0.01205592 1.5185539e-38 328 231
0.01205592 0.764 0.01205592 1.5093344e-38 329 231
0.013395466 0.764 0.01205592 1.4908952e-38 330 231
0.014773586 0.76599997 0.012087479 1.4724563e-38 331 231
0.016116638 0.76599997 0.012087479 1.435686e-38 332 231
0.017459691 0.76599997 0.012087479 1.435686e-38 333 231
0.018827293 0.76700002 0.01210326 1.4264312e-38 334 231
0.0202247 0.76899999 0.012134819 1.4264312e-38 335 231
0.021629119 0.77100003 0.01216638 1.3805867e-38 336 231
0.023040552 0.773 0.012197939 1.3805867e-38 337 231
0.024490559 0.77600002 0.01224528 1.2703524e-38 338 231
0.025851147 0.77600002 0.01224528 1.4086459e-38 339 231
0.027211733 0.77600002 0.01224528 1.4380719e-38 340 231
-0.043538772 0.77600002 0.010884693 1.0591332e-38 288 232
-0.042178184 0.77600002 0.010884693 9.7612125e-39 289 232
-0.0408176 0.77600002 0.010884693 1.2884303e-38 290 232
-0.039355319 0.77399999 0.01085664 1.3068694e-38 291 232
-0.037998237 0.77399999 0.01085664 1.2794253e-38 292 232
-0.036641158 0.77399999 0.01085664 1.2702057e-38 293 232
-0.035238493 0.773 0.010842613 1.2336152e-38 294 232
-0.033883166 0.773 0.010842613 1.2428347e-38 295 232
-0.032443684 0.77100003 0.01081456 1.316124e-38 296 232
-0.031091858 0.77100003 0.01081456 1.334563e-38 297 232
-0.02966289 0.76899999 0.010786506 1.3345277e-38 298 232
-0.028314579 0.76899999 0.010786506 1.352967e-38 299 232
-0.026896132 0.76700002 0.010758453 1.3438203e-38 300 232
-0.025518013 0.76599997 0.010744425 1.3438203e-38 301 232
-0.024174958 0.76599997 0.010744425 1.4079619e-38 302 232
-0.022831906 0.76599997 0.010744425 1.4079619e-38 303 232
-0.021432746 0.764 0.010716373 1.4450903e-38 304 232
-0.020093199 0.764 0.010716373 1.5096272e-38 305 232
-0.018753653 0.764 0.010716373 1.5465761e-38 306 232
-0.01736852 0.76200002 0.01068832 1.5834544e-38 307 232
-0.01603248 0.76200002 0.01068832 1.5740556e-38 308 232
-0.01469644 0.76200002 0.01068832 1.5371415e-38 309 232
-0.0133604 0.76200002 0.01068832 1.5095907e-38 310 232
-0.01202436 0.76200002 0.01068832 1.5556525e-38 311 232
-0.01068832 0.76200002 0.01068832 1.5653743e-38 312 232
-0.0093522798 0.76200002 0.01068832 1.5561547e-38 313 232
-0.0080162399 0.76200002 0.01068832 1.6478096e-38 314 232
-0.0066714329 0.76099998 0.010674292 1.6662487e-38 315 232
-0.0053371461 0.76099998 0.010674292 1.6572088e-38 316 232
-0.0040028598 0.76099998 0.010674292 1.6756478e-38 317 232
-0.00267208 0.76200002 0.01068832 1.6756475e-38 318 232
-0.00133604 0.76200002 0.01068832 1.6480248e-38 319 232
0 0.76200002 0.01068832 1.6570644e-38 320 232
0.00133604 0.76200002 0.01068832 1.5925275e-38 321 232
0.00267208 0.76200002 0.01068832 1.5922405e-38 322 232
0.0040081199 0.76200002 0.01068832 1.6290828e-38 323 232
0.0053441599 0.76200002 0.01068832 1.5830926e-38 324 232
0.006697733 0.764 0.010716373 1.5554697e-38 325 232
0.0080372803 0.764 0.010716373 1.5277739e-38 326 232
0.0093768267 0.764 0.010716373 1.5185542e-38 327 232
0.010716373 0.764 0.010716373 1.4910029e-38 328 232
0.01205592 0.764 0.010716373 1.4817833e-38 329 232
0.013395466 0.764 0.010716373 1.4542325e-38 330 232
0.014773586 0.76599997 0.010744425 1.4449771e-38 331 232
0.01613768 0.76700002 0.010758453 1.4265734e-38 332 232
0.017482487 0.76700002 0.010758453 1.417318e-38 333 232
0.018876385 0.76899999 0.010786506 1.4080631e-38 334 232
0.0202247 0.76899999 0.010786506 1.38966e-38 335 232
0.021629119 0.77100003 0.01081456 1.3621473e-38 336 232
0.023040552 0.773 0.010842613 1.3713669e-38 337 232
0.024490559 0.77600002 0.010884693 1.3071215e-38 338 232
0.025851147 0.77600002 0.010884693 1.3531833e-38 339 232
0.027211733 0.77600002 0.010884693 1.3182163e-38 340 232
-0.043538772 0.77600002 0.009524107 1.0679559e-38 288 233
-0.042069476 0.77399999 0.0094995592 1.0679559e-38 289 233
-0.040712398 0.77399999 0.0094995592 1.2334013e-38 290 233
-0.039355319 0.77399999 0.0094995592 1.2334013e-38 291 233
-0.037998237 0.77399999 0.0094995592 1.2334366e-38 292 233
-0.036641158 0.77399999 0.0094995592 1.2334366e-38 293 233
-0.035238493 0.773 0.0094872871 1.1967739e-38 294 233
-0.033883166 0.773 0.0094872871 1.2059935e-38 295 233
-0.032443684 0.77100003 0.0094627403 1.2518758e-38 296 233
-0.031091858 0.77100003 0.0094627403 1.2611312e-38 297 233
-0.02966289 0.76899999 0.0094381925 1.2978297e-38 298 233
-0.028314579 0.76899999 0.0094381925 1.2978297e-38 299 233
-0.026896132 0.76700002 0.0094136465 1.3528247e-38 300 233
-0.025551327 0.76700002 0.0094136465 1.3343855e-38 301 233
-0.024174958 0.76599997 0.0094013726 1.3619363e-38 302 233
-0.022772292 0.764 0.0093768267 1.4264732e-38 303 233
-0.021432746 0.764 0.0093768267 1.4360502e-38 304 233
-0.020093199 0.764 0.0093768267 1.5005872e-38 305 233
-0.01870456 0.76200002 0.0093522798 1.5281738e-38 306 233
-0.01736852 0.76200002 0.0093522798 1.5281738e-38 307 233
-0.01603248 0.76200002 0.0093522798 1.4913323e-38 308 233
-0.01469644 0.76200002 0.0093522798 1.4729292e-38 309 233
-0.013342866 0.76099998 0.0093400059 1.4455216e-38 310 233
-0.012008579 0.76099998 0.0093400059 1.4639966e-38 311 233
-0.01068832 0.76200002 0.0093522798 1.5100939e-38 312 233
-0.0093522798 0.76200002 0.0093522798 1.5193134e-38 313 233
-0.0080162399 0.76200002 0.0093522798 1.5651948e-38 314 233
-0.0066714329 0.76099998 0.0093400059 1.5744143e-38 315 233
-0.0053371461 0.76099998 0.0093400059 1.6111837e-38 316 233
-0.0040028598 0.76099998 0.0093400059 1.6111837e-38 317 233
-0.00267208 0.76200002 0.0093522798 1.6295149e-38 318 233
-0.0013342865 0.76099998 0.0093400059 1.5926368e-38 319 233
0 0.76099998 0.0093400059 1.5741622e-38 320 233
0.00133604 0.76200002 0.0093522798 1.5465035e-38 321 233
0.00267208 0.76200002 0.0093522798 1.5371401e-38 322 233
0.0040081199 0.76200002 0.0093522798 1.5371401e-38 323 233
0.0053441599 0.76200002 0.0093522798 1.5187004e-38 324 233
0.0066801999 0.76200002 0.0093522798 1.5002612e-38 325 233
0.0080162399 0.76200002 0.0093522798 1.5002597e-38 326 233
0.0093522798 0.76200002 0.0093522798 1.472565e-38 327 233
0.01068832 0.76200002 0.0093522798 1.4726003e-38 328 233
0.01205592 0.764 0.0093768267 1.4541972e-38 329 233
0.013395466 0.764 0.0093768267 1.4174629e-38 330 233
0.014773586 0.76599997 0.0094013726 1.4082433e-38 331 233
0.01613768 0.76700002 0.0094136465 1.3989514e-38 332 233
0.017482487 0.76700002 0.0094136465 1.3897319e-38 333 233
0.018876385 0.76899999 0.0094381925 1.3622177e-38 334 233
0.0202247 0.76899999 0.0094381925 1.3622177e-38 335 233
0.021629119 0.77100003 0.0094627403 1.3162666e-38 336 233
0.023040552 0.773 0.0094872871 1.3439254e-38 337 233
0.024490559 0.77600002 0.009524107 1.3255609e-38 338 233
0.025851147 0.77600002 0.009524107 1.3070859e-38 339 233
0.027281865 0.778 0.0095486529 1.2990929e-38 340 233
0.028719598 0.77999997 0.0095731998 1.8523027e-38 341 233
-0.043538772 0.77600002 0.0081635201 1.0953988e-38 288 234
-0.042069476 0.77399999 0.0081424797 1.1138738e-38 289 234
-0.040712398 0.77399999 0.0081424797 1.2332577e-38 290 234
-0.039355319 0.77399999 0.0081424797 1.2516609e-38 291 234
-0.037998237 0.77399999 0.0081424797 1.2332927e-38 292 234
-0.036641158 0.77399999 0.0081424797 1.2148536e-38 293 234
-0.035238493 0.773 0.0081319595 1.2331848e-38 294 234
-0.033883166 0.773 0.0081319595 1.2424044e-38 295 234
-0.032443684 0.77100003 0.0081109209 1.251624e-38 296 234
-0.031091858 0.77100003 0.0081109209 1.2700991e-38 297 234
-0.02966289 0.76899999 0.0080898795 1.316124e-38 298 234
-0.028314579 0.76899999 0.0080898795 1.334563e-38 299 234
-0.026896132 0.76700002 0.00806884 1.3437107e-38 300 234
-0.025518013 0.76599997 0.0080583189 1.3437107e-38 301 234
-0.024174958 0.76599997 0.0080583189 1.3987763e-38 302 234
-0.022772292 0.764 0.0080372803 1.5001556e-38 303 234
-0.02137664 0.76200002 0.0080162399 1.4547755e-38 304 234
-0.0200406 0.76200002 0.0080162399 1.4547755e-38 305 234
-0.01870456 0.76200002 0.0080162399 1.5371401e-38 306 234
-0.01736852 0.76200002 0.0080162399 1.5186651e-38 307 234
-0.01603248 0.76200002 0.0080162399 1.4451253e-38 308 234
-0.01469644 0.76200002 0.0080162399 1.4543449e-38 309 234
-0.013342866 0.76099998 0.0080057196 1.45456e-38 310 234
-0.012008579 0.76099998 0.0080057196 1.4729993e-38 311 234
-0.010674292 0.76099998 0.0080057196 1.5281723e-38 312 234
-0.0093400059 0.76099998 0.0080057196 1.5281723e-38 313 234
-0.0080057196 0.76099998 0.0080057196 1.5373919e-38 314 234
-0.0066714329 0.76099998 0.0080057196 1.5281723e-38 315 234
-0.0053371461 0.76099998 0.0080057196 1.5739105e-38 316 234
-0.0040028598 0.76099998 0.0080057196 1.564691e-38 317 234
-0.0026685731 0.76099998 0.0080057196 1.5922055e-38 318 234
-0.0013342865 0.76099998 0.0080057196 1.5829858e-38 319 234
0 0.76099998 0.0080057196 1.5829489e-38 320 234
0.00133604 0.76200002 0.0080162399 1.5552544e-38 321 234
0.00267208 0.76200002 0.0080162399 1.5460348e-38 322 234
0.0040081199 0.76200002 0.0080162399 1.5368151e-38 323 234
0.0053441599 0.76200002 0.0080162399 1.5001524e-38 324 234
0.0066801999 0.76200002 0.0080162399 1.4909328e-38 325 234
0.0080162399 0.76200002 0.0080162399 1.4724568e-38 326 234
0.0093522798 0.76200002 0.0080162399 1.4724568e-38 327 234
0.01068832 0.76200002 0.0080162399 1.4540893e-38 328 234
0.01205592 0.764 0.0080372803 1.4540893e-38 329 234
0.013395466 0.764 0.0080372803 1.4172829e-38 330 234
0.014735013 0.764 0.0080372803 1.4080634e-38 331 234
0.016116638 0.76599997 0.0080583189 1.4080987e-38 332 234
0.017482487 0.76700002 0.00806884 1.3804401e-38 333 234
0.018827293 0.76700002 0.00806884 1.3437064e-38 334 234
0.0202247 0.76899999 0.0080898795 1.3529259e-38 335 234
0.021629119 0.77100003 0.0081109209 1.3161944e-38 336 234
0.02298094 0.77100003 0.0081109209 1.3346334e-38 337 234
0.02442744 0.77399999 0.0081424797 1.307301e-38 338 234
0.025851147 0.77600002 0.0081635201 1.2796424e-38 339 234
0.027211733 0.77600002 0.0081635201 1.2712901e-38 340 234
0.028645959 0.778 0.0081845606 1.8336834e-38 341 234
-0.045015078 0.778 0.0068204664 6.8253633e-39 287 235
-0.043538772 0.77600002 0.0068029333 1.0860709e-38 288 235
-0.042069476 0.77399999 0.0067853997 1.1506079e-38 289 235
-0.040712398 0.77399999 0.0067853997 1.2148551e-38 290 235
-0.039355319 0.77399999 0.0067853997 1.196452e-38 291 235
-0.037998237 0.77399999 0.0067853997 1.2331851e-38 292 235
-0.036593821 0.773 0.0067766332 1.2147461e-38 293 235
-0.035238493 0.773 0.0067766332 1.2238578e-38 294 235
-0.033883166 0.773 0.0067766332 1.2423328e-38 295 235
-0.032443684 0.77100003 0.0067590997 1.2240732e-38 296 235
-0.031011207 0.76899999 0.0067415666 1.2609155e-38 297 235
-0.02966289 0.76899999 0.0067415666 1.2978997e-38 298 235
-0.02824094 0.76700002 0.006724033 1.3163387e-38 299 235
-0.026896132 0.76700002 0.006724033 1.398883e-38 300 235
-0.025518013 0.76599997 0.0067152665 1.398883e-38 301 235
-0.024111839 0.764 0.006697733 1.4266139e-38 302 235
-0.02271268 0.76200002 0.0066801999 1.4819313e-38 303 235
-0.02137664 0.76200002 0.0066801999 1.4821461e-38 304 235
-0.0200406 0.76200002 0.0066801999 1.4729265e-38 305 235
-0.018680012 0.76099998 0.0066714329 1.4911145e-38 306 235
-0.017345725 0.76099998 0.0066714329 1.4818591e-38 307 235
-0.016011439 0.76099998 0.0066714329 1.4450532e-38 308 235
-0.014677152 0.76099998 0.0066714329 1.4450532e-38 309 235
-0.013342866 0.76099998 0.0066714329 1.436049e-38 310 235
-0.012008579 0.76099998 0.0066714329 1.4636717e-38 311 235
-0.010674292 0.76099998 0.0066714329 1.4729995e-38 312 235
-0.0093400059 0.76099998 0.0066714329 1.4729995e-38 313 235
-0.0080057196 0.76099998 0.0066714329 1.4913308e-38 314 235
-0.0066714329 0.76099998 0.0066714329 1.4728915e-38 315 235
-0.0053371461 0.76099998 0.0066714329 1.5001556e-38 316 235
-0.0040028598 0.76099998 0.0066714329 1.4817525e-38 317 235
-0.0026685731 0.76099998 0.0066714329 1.4725692e-38 318 235
-0.0013342865 0.76099998 0.0066714329 1.4725692e-38 319 235
0 0.76099998 0.0066714329 1.4816792e-38 320 235
0.0013342865 0.76099998 0.0066714329 1.4816792e-38 321 235
0.00267208 0.76200002 0.0066801999 1.4724584e-38 322 235
0.0040081199 0.76200002 0.0066801999 1.4908975e-38 323 235
0.0053441599 0.76200002 0.0066801999 1.4634183e-38 324 235
0.0066801999 0.76200002 0.0066801999 1.4449792e-38 325 235
0.0080162399 0.76200002 0.0066801999 1.4539822e-38 326 235
0.0093522798 0.76200002 0.0066801999 1.4447268e-38 327 235
0.01068832 0.76200002 0.0066801999 1.4172479e-38 328 235
0.01205592 0.764 0.006697733 1.4080283e-38 329 235
0.013395466 0.764 0.006697733 1.3804776e-38 330 235
0.014735013 0.764 0.006697733 1.3712221e-38 331 235
0.016116638 0.76599997 0.0067152665 1.3528543e-38 332 235
0.017459691 0.76599997 0.0067152665 1.3436346e-38 333 235
0.018827293 0.76700002 0.006724033 1.3161204e-38 334 235
0.0202247 0.76899999 0.0067415666 1.3161204e-38 335 235
0.021573013 0.76899999 0.0067415666 1.2977202e-38 336 235
0.02298094 0.77100003 0.0067590997 1.3345625e-38 337 235
0.02442744 0.77399999 0.0067853997 1.3073013e-38 338 235
0.025784519 0.77399999 0.0067853997 1.2888622e-38 339 235
0.027141599 0.77399999 0.0067853997 1.2894415e-38 340 235
0.028645959 0.778 0.0068204664 1.8426511e-38 341 235
-0.045015078 0.778 0.0054563731 7.2856072e-39 287 236
-0.043538772 0.77600002 0.0054423464 1.0858908e-38 288 236
-0.042069476 0.77399999 0.0054283198 1.1504278e-38 289 236
-0.0406598 0.773 0.0054213065 1.1871966e-38 290 236
-0.039304473 0.773 0.0054213065 1.1871966e-38 291 236
-0.037998237 0.77399999 0.0054283198 1.2238934e-38 292 236
-0.036593821 0.773 0.0054213065 1.2238934e-38 293 236
-0.035238493 0.773 0.0054213065 1.2239287e-38 294 236
-0.033795502 0.77100003 0.0054072798 1.2331483e-38 295 236
-0.032359518 0.76899999 0.0053932532 1.2332199e-38 296 236
-0.031011207 0.76899999 0.0053932532 1.2609144e-38 297 236
-0.029585747 0.76700002 0.0053792265 1.2979e-38 298 236
-0.02824094 0.76700002 0.0053792265 1.3163031e-38 299 236
-0.026861066 0.76599997 0.0053722127 1.3897714e-38 300 236
-0.025518013 0.76599997 0.0053722127 1.3989909e-38 301 236
-0.024111839 0.764 0.0053581866 1.4267924e-38 302 236
-0.022682872 0.76099998 0.0053371461 1.4544152e-38 303 236
-0.021348584 0.76099998 0.0053371461 1.48193e-38 304 236
-0.020014299 0.76099998 0.0053371461 1.4726746e-38 305 236
-0.018680012 0.76099998 0.0053371461 1.4908622e-38 306 236
-0.017345725 0.76099998 0.0053371461 1.4908622e-38 307 236
-0.016011439 0.76099998 0.0053371461 1.4449439e-38 308 236
-0.014677152 0.76099998 0.0053371461 1.4541634e-38 309 236
-0.013342866 0.76099998 0.0053371461 1.4451957e-38 310 236
-0.012008579 0.76099998 0.0053371461 1.4636348e-38 311 236
-0.010674292 0.76099998 0.0053371461 1.4545953e-38 312 236
-0.0093400059 0.76099998 0.0053371461 1.4545953e-38 313 236
-0.0080057196 0.76099998 0.0053371461 1.4819666e-38 314 236
-0.0066714329 0.76099998 0.0053371461 1.4635635e-38 315 236
-0.0053371461 0.76099998 0.0053371461 1.4816792e-38 316 236
-0.0040028598 0.76099998 0.0053371461 1.4448369e-38 317 236
-0.0026685731 0.76099998 0.0053371461 1.4539483e-38 318 236
-0.00133078 0.759 0.0053231199 1.4724233e-38 319 236
0 0.759 0.0053231199 1.4449073e-38 320 236
0.00133078 0.759 0.0053231199 1.4449073e-38 321 236
0.0026685731 0.76099998 0.0053371461 1.444907e-38 322 236
0.0040028598 0.76099998 0.0053371461 1.4541266e-38 323 236
0.0053441599 0.76200002 0.0053441599 1.4449789e-38 324 236
0.0066801999 0.76200002 0.0053441599 1.4173562e-38 325 236
0.0080162399 0.76200002 0.0053441599 1.4355072e-38 326 236
0.0093522798 0.76200002 0.0053441599 1.4262877e-38 327 236
0.01068832 0.76200002 0.0053441599 1.3895173e-38 328 236
0.01205592 0.764 0.0053581866 1.3710782e-38 329 236
0.013395466 0.764 0.0053581866 1.3619308e-38 330 236
0.014773586 0.76599997 0.0053722127 1.3527112e-38 331 236
0.016116638 0.76599997 0.0053722127 1.3343797e-38 332 236
0.017459691 0.76599997 0.0053722127 1.3343797e-38 333 236
0.018827293 0.76700002 0.0053792265 1.306758e-38 334 236
0.0202247 0.76899999 0.0053932532 1.306758e-38 335 236
0.021573013 0.76899999 0.0053932532 1.2976486e-38 336 236
0.022921326 0.76899999 0.0053932532 1.3252713e-38 337 236
0.02433276 0.77100003 0.0054072798 1.3071934e-38 338 236
0.025784519 0.77399999 0.0054283198 1.2795347e-38 339 236
0.027141599 0.77399999 0.0054283198 1.2893696e-38 340 236
-0.045015078 0.778 0.0040922803 8.3905058e-39 287 237
-0.043426558 0.77399999 0.0040712398 1.1689022e-38 288 237
-0.042069476 0.77399999 0.0040712398 1.1781218e-38 289 237
-0.0406598 0.773 0.0040659797 1.1963439e-38 290 237
-0.039304473 0.773 0.0040659797 1.168721e-38 291 237
-0.037850961 0.77100003 0.0040554604 1.2237135e-38 292 237
-0.036499143 0.77100003 0.0040554604 1.2237135e-38 293 237
-0.035238493 0.773 0.0040659797 1.2146368e-38 294 237
-0.033707831 0.76899999 0.0040449398 1.2422596e-38 295 237
-0.03227536 0.76700002 0.00403442 1.2239284e-38 296 237
-0.030930554 0.76700002 0.00403442 1.2423675e-38 297 237
-0.029585747 0.76700002 0.00403442 1.3067601e-38 298 237
-0.028204117 0.76599997 0.0040291594 1.3067601e-38 299 237
-0.026790932 0.764 0.0040186401 1.3345981e-38 300 237
-0.025451386 0.764 0.0040186401 1.3714765e-38 301 237
-0.024017159 0.76099998 0.0040028598 1.4818225e-38 302 237
-0.022682872 0.76099998 0.0040028598 1.4818225e-38 303 237
-0.021348584 0.76099998 0.0040028598 1.5001894e-38 304 237
-0.020014299 0.76099998 0.0040028598 1.4909697e-38 305 237
-0.018680012 0.76099998 0.0040028598 1.4909694e-38 306 237
-0.017345725 0.76099998 0.0040028598 1.4817498e-38 307 237
-0.016011439 0.76099998 0.0040028598 1.463418e-38 308 237
-0.014677152 0.76099998 0.0040028598 1.4541985e-38 309 237
-0.013342866 0.76099998 0.0040028598 1.4359038e-38 310 237
-0.012008579 0.76099998 0.0040028598 1.4543789e-38 311 237
-0.010674292 0.76099998 0.0040028598 1.445196e-38 312 237
-0.0093400059 0.76099998 0.0040028598 1.4267568e-38 313 237
-0.0080057196 0.76099998 0.0040028598 1.4266492e-38 314 237
-0.0066714329 0.76099998 0.0040028598 1.3990265e-38 315 237
-0.0053371461 0.76099998 0.0040028598 1.4172859e-38 316 237
-0.0040028598 0.76099998 0.0040028598 1.4080662e-38 317 237
-0.0026685731 0.76099998 0.0040028598 1.3989182e-38 318 237
-0.00133078 0.759 0.0039923396 1.4081379e-38 319 237
0 0.759 0.0039923396 1.4173206e-38 320 237
0.00133078 0.759 0.0039923396 1.4081009e-38 321 237
0.0026685731 0.76099998 0.0040028598 1.4264677e-38 322 237
0.0040028598 0.76099998 0.0040028598 1.4356874e-38 323 237
0.0053371461 0.76099998 0.0040028598 1.4447271e-38 324 237
0.0066714329 0.76099998 0.0040028598 1.426288e-38 325 237
0.0080057196 0.76099998 0.0040028598 1.3987013e-38 326 237
0.0093522798 0.76200002 0.0040081199 1.3710785e-38 327 237
0.01068832 0.76200002 0.0040081199 1.3801901e-38 328 237
0.01205592 0.764 0.0040186401 1.3709706e-38 329 237
0.013395466 0.764 0.0040186401 1.3250527e-38 330 237
0.014735013 0.764 0.0040186401 1.3250527e-38 331 237
0.016116638 0.76599997 0.0040291594 1.315905e-38 332 237
0.017459691 0.76599997 0.0040291594 1.3066855e-38 333 237
0.018827293 0.76700002 0.00403442 1.288247e-38 334 237
0.0202247 0.76899999 0.0040449398 1.3158697e-38 335 237
0.021573013 0.76899999 0.0040449398 1.2792088e-38 336 237
0.022921326 0.76899999 0.0040449398 1.3160512e-38 337 237
0.02433276 0.77100003 0.0040554604 1.2796777e-38 338 237
0.025751207 0.773 0.0040659797 1.2335799e-38 339 237
0.027141599 0.77399999 0.0040712398 1.261926e-38 340 237
-0.046379171 0.778 0.0027281865 1.2352765e-38 286 238
-0.045015078 0.778 0.0027281865 8.9418873e-39 287 238
-0.043426558 0.77399999 0.0027141599 1.2059953e-38 288 238
-0.042069476 0.77399999 0.0027141599 1.1414584e-38 289 238
-0.0406598 0.773 0.0027106532 1.187052e-38 290 238
-0.039304473 0.773 0.0027106532 1.1502097e-38 291 238
-0.037850961 0.77100003 0.0027036399 1.1868003e-38 292 238
-0.036404461 0.76899999 0.0026966266 1.1960199e-38 293 238
-0.035056144 0.76899999 0.0026966266 1.1777956e-38 294 238
-0.033620168 0.76700002 0.0026896133 1.1870151e-38 295 238
-0.03227536 0.76700002 0.0026896133 1.2053819e-38 296 238
-0.030890226 0.76599997 0.0026861064 1.2146015e-38 297 238
-0.029547172 0.76599997 0.0026861064 1.2514798e-38 298 238
-0.028204117 0.76599997 0.0026861064 1.2699189e-38 299 238
-0.026790932 0.764 0.0026790933 1.2886454e-38 300 238
-0.025351444 0.76099998 0.0026685731 1.3439628e-38 301 238
-0.024017159 0.76099998 0.0026685731 1.4358337e-38 302 238
-0.022682872 0.76099998 0.0026685731 1.4450534e-38 303 238
-0.021348584 0.76099998 0.0026685731 1.4633477e-38 304 238
-0.020014299 0.76099998 0.0026685731 1.4726031e-38 305 238
-0.018680012 0.76099998 0.0026685731 1.4727102e-38 306 238
-0.017345725 0.76099998 0.0026685731 1.4634905e-38 307 238
-0.016011439 0.76099998 0.0026685731 1.4358675e-38 308 238
-0.014677152 0.76099998 0.0026685731 1.426648e-38 309 238
-0.013342866 0.76099998 0.0026685731 1.4174297e-38 310 238
-0.012008579 0.76099998 0.0026685731 1.3990265e-38 311 238
-0.010674292 0.76099998 0.0026685731 1.3897717e-38 312 238
-0.0093400059 0.76099998 0.0026685731 1.3805162e-38 313 238
-0.0080057196 0.76099998 0.0026685731 1.3988826e-38 314 238
-0.0066714329 0.76099998 0.0026685731 1.37126e-38 315 238
-0.0053371461 0.76099998 0.0026685731 1.3988816e-38 316 238
-0.0040028598 0.76099998 0.0026685731 1.3988816e-38 317 238
-0.0026685731 0.76099998 0.0026685731 1.3713306e-38 318 238
-0.00133078 0.759 0.00266156 1.3713306e-38 319 238
0 0.759 0.00266156 1.3896262e-38 320 238
0.00133078 0.759 0.00266156 1.3896262e-38 321 238
0.0026685731 0.76099998 0.0026685731 1.3804069e-38 322 238
0.0040028598 0.76099998 0.0026685731 1.3896265e-38 323 238
0.0053371461 0.76099998 0.0026685731 1.3987019e-38 324 238
0.0066714329 0.76099998 0.0026685731 1.3894464e-38 325 238
0.0080057196 0.76099998 0.0026685731 1.3618589e-38 326 238
0.0093522798 0.76200002 0.00267208 1.3526394e-38 327 238
0.01068832 0.76200002 0.00267208 1.3250527e-38 328 238
0.01202436 0.76200002 0.00267208 1.3158331e-38 329 238
0.0133604 0.76200002 0.00267208 1.3066855e-38 330 238
0.014735013 0.764 0.0026790933 1.2882823e-38 331 238
0.016074561 0.764 0.0026790933 1.2790273e-38 332 238
0.017459691 0.76599997 0.0026861064 1.288247e-38 333 238
0.018827293 0.76700002 0.0026896133 1.2698445e-38 334 238
0.020172099 0.76700002 0.0026896133 1.2882836e-38 335 238
0.021516906 0.76700002 0.0026896133 1.2516943e-38 336 238
0.022861714 0.76700002 0.0026896133 1.279389e-38 337 238
0.024269639 0.76899999 0.0026966266 1.2337964e-38 338 238
0.025617953 0.76899999 0.0026966266 1.2245767e-38 339 238
0.026966266 0.76899999 0.0026966266 1.2528507e-38 340 238
-0.048050098 0.78299999 0.0013728599 1.4015531e-38 285 239
-0.046558015 0.78100002 0.0013693533 1.4193435e-38 286 239
-0.045015078 0.778 0.0013640933 9.6762083e-39 287 239
-0.043538772 0.77600002 0.0013605866 1.1416383e-38 288 239
-0.042069476 0.77399999 0.0013570799 1.0586621e-38 289 239
-0.0406598 0.773 0.0013553266 1.1593208e-38 290 239
-0.039304473 0.773 0.0013553266 1.1501013e-38 291 239
-0.037850961 0.77100003 0.00135182 1.1775437e-38 292 239
-0.036404461 0.76899999 0.0013483133 1.195947e-38 293 239
-0.034964975 0.76700002 0.0013448066 1.177723e-38 294 239
-0.033620168 0.76700002 0.0013448066 1.177723e-38 295 239
-0.032233275 0.76599997 0.0013430532 1.1868707e-38 296 239
-0.030890226 0.76599997 0.0013430532 1.2053098e-38 297 239
-0.029547172 0.76599997 0.0013430532 1.2698094e-38 298 239
-0.028204117 0.76599997 0.0013430532 1.2882486e-38 299 239
-0.026790932 0.764 0.0013395466 1.3436007e-38 300 239
-0.025351444 0.76099998 0.0013342865 1.3620757e-38 301 239
-0.024017159 0.76099998 0.0013342865 1.4355804e-38 302 239
-0.022682872 0.76099998 0.0013342865 1.4355804e-38 303 239
-0.021348584 0.76099998 0.0013342865 1.4722428e-38 304 239
-0.020014299 0.76099998 0.0013342865 1.4814625e-38 305 239
-0.018680012 0.76099998 0.0013342865 1.4814981e-38 306 239
-0.017345725 0.76099998 0.0013342865 1.4907177e-38 307 239
-0.016011439 0.76099998 0.0013342865 1.4539834e-38 308 239
-0.014677152 0.76099998 0.0013342865 1.4263605e-38 309 239
-0.013342866 0.76099998 0.0013342865 1.3895549e-38 310 239
-0.012008579 0.76099998 0.0013342865 1.3803353e-38 311 239
-0.010674292 0.76099998 0.0013342865 1.3803e-38 312 239
-0.0093400059 0.76099998 0.0013342865 1.361825e-38 313 239
-0.0080057196 0.76099998 0.0013342865 1.3803353e-38 314 239
-0.0066714329 0.76099998 0.0013342865 1.3803353e-38 315 239
-0.0053371461 0.76099998 0.0013342865 1.3621107e-38 316 239
-0.0040028598 0.76099998 0.0013342865 1.3621107e-38 317 239
-0.0026685731 0.76099998 0.0013342865 1.3804776e-38 318 239
-0.0013342865 0.76099998 0.0013342865 1.3712221e-38 319 239
0 0.759 0.00133078 1.3711502e-38 320 239
0.00133078 0.759 0.00133078 1.3619305e-38 321 239
0.0026685731 0.76099998 0.0013342865 1.3619658e-38 322 239
0.0040028598 0.76099998 0.0013342865 1.3711855e-38 323 239
0.0053371461 0.76099998 0.0013342865 1.361894e-38 324 239
0.0066714329 0.76099998 0.0013342865 1.3526744e-38 325 239
0.0080057196 0.76099998 0.0013342865 1.3434195e-38 326 239
0.0093522798 0.76200002 0.00133604 1.3434195e-38 327 239
0.01068832 0.76200002 0.00133604 1.2882823e-38 328 239
0.01202436 0.76200002 0.00133604 1.2882823e-38 329 239
0.0133604 0.76200002 0.00133604 1.2973936e-38 330 239
0.014735013 0.764 0.0013395466 1.2973936e-38 331 239
0.016074561 0.764 0.0013395466 1.2698072e-38 332 239
0.017459691 0.76599997 0.0013430532 1.2605876e-38 333 239
0.018802745 0.76599997 0.0013430532 1.2605882e-38 334 239
0.020172099 0.76700002 0.0013448066 1.2698078e-38 335 239
0.021516906 0.76700002 0.0013448066 1.2515849e-38 336 239
0.022861714 0.76700002 0.0013448066 1.2792794e-38 337 239
0.024269639 0.76899999 0.0013483133 1.2521265e-38 338 239
0.025617953 0.76899999 0.0013483133 1.2981884e-38 339 239
0.026966266 0.76899999 0.0013483133 1.2713977e-38 340 239
-0.048050098 0.78299999 -0 1.6961478e-38 285 240
-0.046558015 0.78100002 -0 1.5026073e-38 286 240
-0.045015078 0.778 -0 8.9408027e-39 287 240
-0.043538772 0.77600002 -0 1.0862131e-38 288 240
-0.042069476 0.77399999 -0 1.0401155e-38 289 240
-0.0406598 0.773 -0 1.1409896e-38 290 240
-0.03920278 0.77100003 -0 1.1225504e-38 291 240
-0.03775277 0.76899999 -0 1.1225504e-38 292 240
-0.036404461 0.76899999 -0 1.1317701e-38 293 240
-0.034964975 0.76700002 -0 1.1135104e-38 294 240
-0.033620168 0.76700002 -0 1.1135104e-38 295 240
-0.032233275 0.76599997 -0 1.1410615e-38 296 240
-0.030890226 0.76599997 -0 1.1595365e-38 297 240
-0.029547172 0.76599997 -0 1.1687555e-38 298 240
-0.028204117 0.76599997 -0 1.2056338e-38 299 240
-0.026790932 0.764 -0 1.3432788e-38 300 240
-0.025351444 0.76099998 -0 1.3893766e-38 301 240
-0.024017159 0.76099998 -0 1.3527139e-38 302 240
-0.022682872 0.76099998 -0 1.371117e-38 303 240
-0.021348584 0.76099998 -0 1.3984887e-38 304 240
-0.020014299 0.76099998 -0 1.4261473e-38 305 240
-0.018680012 0.76099998 -0 1.3894492e-38 306 240
-0.017345725 0.76099998 -0 1.3894492e-38 307 240
-0.016011439 0.76099998 -0 1.3894845e-38 308 240
-0.014677152 0.76099998 -0 1.380265e-38 309 240
-0.013342866 0.76099998 -0 1.370973e-38 310 240
-0.012008579 0.76099998 -0 1.370973e-38 311 240
-0.010674292 0.76099998 -0 1.3618606e-38 312 240
-0.0093400059 0.76099998 -0 1.3618606e-38 313 240
-0.0080057196 0.76099998 -0 1.3527843e-38 314 240
-0.0066714329 0.76099998 -0 1.3527843e-38 315 240
-0.0053371461 0.76099998 -0 1.352784e-38 316 240
-0.0040028598 0.76099998 -0 1.3711871e-38 317 240
-0.0026685731 0.76099998 -0 1.3528556e-38 318 240
-0.0013342865 0.76099998 -0 1.343636e-38 319 240
0 0.759 -0 1.3251246e-38 320 240
0.00133078 0.759 -0 1.3343441e-38 321 240
0.0026685731 0.76099998 -0 1.3251246e-38 322 240
0.0040028598 0.76099998 -0 1.3343441e-38 323 240
0.0053371461 0.76099998 -0 1.3251249e-38 324 240
0.0066714329 0.76099998 -0 1.3159053e-38 325 240
0.0080057196 0.76099998 -0 1.2883908e-38 326 240
0.0093522798 0.76200002 -0 1.2699877e-38 327 240
0.01068832 0.76200002 -0 1.2790991e-38 328 240
0.01202436 0.76200002 -0 1.2698794e-38 329 240
0.013395466 0.764 -0 1.2515479e-38 330 240
0.014735013 0.764 -0 1.2515479e-38 331 240
0.016074561 0.764 -0 1.2423283e-38 332 240
0.017414106 0.764 -0 1.2423283e-38 333 240
0.018802745 0.76599997 -0 1.2147419e-38 334 240
0.020172099 0.76700002 -0 1.2239974e-38 335 240
0.021516906 0.76700002 -0 1.1964492e-38 336 240
0.022861714 0.76700002 -0 1.2333634e-38 337 240
0.024206521 0.76700002 -0 1.1878073e-38 338 240
0.025617953 0.76899999 -0 1.2523442e-38 339 240
0.026966266 0.76899999 -0 1.2806172e-38 340 240
-0.048050098 0.78299999 -0.0013728599 1.8433738e-38 285 241
-0.046558015 0.78100002 -0.0013693533 1.5854039e-38 286 241
-0.045015078 0.778 -0.0013640933 8.6627795e-39 287 241
-0.043426558 0.77399999 -0.0013570799 1.0402955e-38 288 241
-0.042069476 0.77399999 -0.0013570799 1.012601e-38 289 241
-0.0406598 0.773 -0.0013553266 1.1042912e-38 290 241
-0.03920278 0.77100003 -0.00135182 1.0950714e-38 291 241
-0.03775277 0.76899999 -0.0013483133 1.0949993e-38 292 241
-0.036404461 0.76899999 -0.0013483133 1.0949993e-38 293 241
-0.034964975 0.76700002 -0.0013448066 1.1225854e-38 294 241
-0.033620168 0.76700002 -0.0013448066 1.1318049e-38 295 241
-0.032233275 0.76599997 -0.0013430532 1.1501365e-38 296 241
-0.030890226 0.76599997 -0.0013430532 1.1501365e-38 297 241
-0.029547172 0.76599997 -0.0013430532 1.214457e-38 298 241
-0.028204117 0.76599997 -0.0013430532 1.2605188e-38 299 241
-0.026790932 0.764 -0.0013395466 1.2882117e-38 300 241
-0.025351444 0.76099998 -0.0013342865 1.3066148e-38 301 241
-0.024017159 0.76099998 -0.0013342865 1.3617157e-38 302 241
-0.022682872 0.76099998 -0.0013342865 1.3617157e-38 303 241
-0.021348584 0.76099998 -0.0013342865 1.3891949e-38 304 241
-0.020014299 0.76099998 -0.0013342865 1.407634e-38 305 241
-0.018680012 0.76099998 -0.0013342865 1.3801551e-38 306 241
-0.017345725 0.76099998 -0.0013342865 1.3801551e-38 307 241
-0.016011439 0.76099998 -0.0013342865 1.389375e-38 308 241
-0.014677152 0.76099998 -0.0013342865 1.3801195e-38 309 241
-0.013342866 0.76099998 -0.0013342865 1.3618239e-38 310 241
-0.012008579 0.76099998 -0.0013342865 1.3710434e-38 311 241
-0.010674292 0.76099998 -0.0013342865 1.3526759e-38 312 241
-0.0093400059 0.76099998 -0.0013342865 1.3618955e-38 313 241
-0.0080057196 0.76099998 -0.0013342865 1.3618952e-38 314 241
-0.0066714329 0.76099998 -0.0013342865 1.3618952e-38 315 241
-0.0053371461 0.76099998 -0.0013342865 1.3801901e-38 316 241
-0.0040028598 0.76099998 -0.0013342865 1.3801901e-38 317 241
-0.0026685731 0.76099998 -0.0013342865 1.3527107e-38 318 241
-0.0013342865 0.76099998 -0.0013342865 1.3527107e-38 319 241
0 0.76099998 -0.0013342865 1.3435267e-38 320 241
0.0013342865 0.76099998 -0.0013342865 1.3158682e-38 321 241
0.00266156 0.759 -0.00133078 1.3341997e-38 322 241
0.0039923396 0.759 -0.00133078 1.3341997e-38 323 241
0.0053371461 0.76099998 -0.0013342865 1.3158334e-38 324 241
0.0066714329 0.76099998 -0.0013342865 1.2973583e-38 325 241
0.0080057196 0.76099998 -0.0013342865 1.2697725e-38 326 241
0.0093400059 0.76099998 -0.0013342865 1.2605529e-38 327 241
0.01068832 0.76200002 -0.00133604 1.2788838e-38 328 241
0.01202436 0.76200002 -0.00133604 1.2788838e-38 329 241
0.0133604 0.76200002 -0.00133604 1.2422564e-38 330 241
0.014735013 0.764 -0.0013395466 1.2422564e-38 331 241
0.016074561 0.764 -0.0013395466 1.2238523e-38 332 241
0.017414106 0.764 -0.0013395466 1.2238523e-38 333 241
0.018802745 0.76599997 -0.0013430532 1.223817e-38 334 241
0.020145798 0.76599997 -0.0013430532 1.2330366e-38 335 241
0.021516906 0.76700002 -0.0013448066 1.1964122e-38 336 241
0.022861714 0.76700002 -0.0013448066 1.2148874e-38 337 241
0.024206521 0.76700002 -0.0013448066 1.2060303e-38 338 241
0.025617953 0.76899999 -0.0013483133 1.3074454e-38 339 241
0.026966266 0.76899999 -0.0013483133 1.3083845e-38 340 241
-0.047927368 0.78100002 -0.0027387065 1.7884526e-38 285 242
-0.046558015 0.78100002 -0.0027387065 1.603915e-38 286 242
-0.045130797 0.77999997 -0.0027351999 8.6634983e-39 287 242
-0.043426558 0.77399999 -0.0027141599 1.0586265e-38 288 242
-0.042069476 0.77399999 -0.0027141599 1.0586265e-38 289 242
-0.0406598 0.773 -0.0027106532 1.0859959e-38 290 242
-0.03920278 0.77100003 -0.0027036399 1.0491536e-38 291 242
-0.037850961 0.77100003 -0.0027036399 1.0673776e-38 292 242
-0.036404461 0.76899999 -0.0026966266 1.058158e-38 293 242
-0.034964975 0.76700002 -0.0026896133 1.1040756e-38 294 242
-0.033620168 0.76700002 -0.0026896133 1.1132952e-38 295 242
-0.032233275 0.76599997 -0.0026861064 1.1224787e-38 296 242
-0.030890226 0.76599997 -0.0026861064 1.1224787e-38 297 242
-0.029547172 0.76599997 -0.0026861064 1.1959822e-38 298 242
-0.028204117 0.76599997 -0.0026861064 1.2328964e-38 299 242
-0.026790932 0.764 -0.0026790933 1.2698441e-38 300 242
-0.025451386 0.764 -0.0026790933 1.2790638e-38 301 242
-0.024017159 0.76099998 -0.0026685731 1.3341649e-38 302 242
-0.022682872 0.76099998 -0.0026685731 1.3341649e-38 303 242
-0.021348584 0.76099998 -0.0026685731 1.3432773e-38 304 242
-0.020014299 0.76099998 -0.0026685731 1.3432773e-38 305 242
-0.018680012 0.76099998 -0.0026685731 1.3249826e-38 306 242
-0.017345725 0.76099998 -0.0026685731 1.3249826e-38 307 242
-0.016011439 0.76099998 -0.0026685731 1.3433139e-38 308 242
-0.014677152 0.76099998 -0.0026685731 1.3433139e-38 309 242
-0.013342866 0.76099998 -0.0026685731 1.3250542e-38 310 242
-0.012008579 0.76099998 -0.0026685731 1.3250542e-38 311 242
-0.010674292 0.76099998 -0.0026685731 1.3250895e-38 312 242
-0.0093400059 0.76099998 -0.0026685731 1.3250895e-38 313 242
-0.0080057196 0.76099998 -0.0026685731 1.3250177e-38 314 242
-0.0066714329 0.76099998 -0.0026685731 1.3250177e-38 315 242
-0.0053371461 0.76099998 -0.0026685731 1.3157978e-38 316 242
-0.0040028598 0.76099998 -0.0026685731 1.3250533e-38 317 242
-0.0026685731 0.76099998 -0.0026685731 1.315905e-38 318 242
-0.0013342865 0.76099998 -0.0026685731 1.315905e-38 319 242
0 0.76099998 -0.0026685731 1.3066852e-38 320 242
0.0013342865 0.76099998 -0.0026685731 1.3066852e-38 321 242
0.00266156 0.759 -0.00266156 1.2973939e-38 322 242
0.0039923396 0.759 -0.00266156 1.2973939e-38 323 242
0.0053371461 0.76099998 -0.0026685731 1.2697722e-38 324 242
0.0066714329 0.76099998 -0.0026685731 1.2605526e-38 325 242
0.0080057196 0.76099998 -0.0026685731 1.2329665e-38 326 242
0.0093400059 0.76099998 -0.0026685731 1.2237469e-38 327 242
0.01068832 0.76200002 -0.00267208 1.2420779e-38 328 242
0.01202436 0.76200002 -0.00267208 1.2513333e-38 329 242
0.0133604 0.76200002 -0.00267208 1.2330018e-38 330 242
0.014735013 0.764 -0.0026790933 1.2237823e-38 331 242
0.016074561 0.764 -0.0026790933 1.2237098e-38 332 242
0.017414106 0.764 -0.0026790933 1.2237098e-38 333 242
0.018802745 0.76599997 -0.0026861064 1.1961956e-38 334 242
0.020145798 0.76599997 -0.0026861064 1.2054152e-38 335 242
0.021516906 0.76700002 -0.0026896133 1.1871226e-38 336 242
0.022861714 0.76700002 -0.0026896133 1.2147814e-38 337 242
