# .PCD v.7 - Point Cloud Data file format
FIELDS x y z rgb imX imY
SIZE 4 4 4 4 4 4
TYPE F F F F F F
COUNT 1 1 1 1 1 1
WIDTH 835
HEIGHT 1
VIEWPOINT 0 0 0 1 0 0 0
POINTS 835
DATA ascii
0.037829921 0.69599998 -0.036609598 1.334204e-38 351 270
0.039106347 0.69700003 -0.036662199 1.3524984e-38 352 270
0.040328421 0.69700003 -0.036662199 1.3893766e-38 353 270
0.041610107 0.69800001 -0.0367148 1.4264327e-38 354 270
0.042833932 0.69800001 -0.0367148 1.444872e-38 355 270
0.044183996 0.69999999 -0.036819998 1.4724581e-38 356 270
0.04541133 0.69999999 -0.036819998 1.4724581e-38 357 270
0.046905171 0.704 -0.037030395 1.4816423e-38 358 270
0.048139516 0.704 -0.037030395 1.4724228e-38 359 270
-0.0099729598 0.71100003 -0.038645219 1.694952e-38 312 271
-0.0087263398 0.71100003 -0.038645219 1.5843173e-38 313 271
-0.0074691991 0.70999998 -0.038590867 1.7680913e-38 314 271
-0.0062067998 0.708 -0.038482159 1.7404327e-38 315 271
-0.0049514128 0.70599997 -0.038373452 1.7678769e-38 316 271
-0.0037030398 0.704 -0.038264744 1.7678769e-38 317 271
-0.0024651866 0.70300001 -0.038210396 1.7678774e-38 318 271
-0.0012325933 0.70300001 -0.038210396 1.7678774e-38 319 271
0 0.70099998 -0.038101684 1.7769535e-38 320 271
0.0012273333 0.69999999 -0.038047329 1.7585144e-38 321 271
0.0024476533 0.69800001 -0.037938625 1.7859566e-38 322 271
0.00366622 0.69700003 -0.037884273 1.776737e-38 323 271
0.0048812795 0.69599998 -0.037829921 1.776737e-38 324 271
0.0061015999 0.69599998 -0.037829921 1.776737e-38 325 271
0.0073008798 0.69400001 -0.037721213 1.7767386e-38 326 271
0.0085176928 0.69400001 -0.037721213 1.7583354e-38 327 271
0.0097345067 0.69400001 -0.037721213 1.7491171e-38 328 271
0.01095132 0.69400001 -0.037721213 1.7398976e-38 329 271
0.012150601 0.69300002 -0.037666857 1.7214589e-38 330 271
0.01336566 0.69300002 -0.037666857 1.7030197e-38 331 271
0.014580719 0.69300002 -0.037666857 1.6938355e-38 332 271
0.015795778 0.69300002 -0.037666857 1.6938355e-38 333 271
0.016961746 0.69099998 -0.03755815 1.6846155e-38 334 271
0.0181733 0.69099998 -0.03755815 1.6477374e-38 335 271
0.019384852 0.69099998 -0.03755815 1.6200435e-38 336 271
0.020566599 0.69 -0.037503798 1.5831654e-38 337 271
0.021776399 0.69 -0.037503798 1.5371415e-38 338 271
0.022986198 0.69 -0.037503798 1.5279219e-38 339 271
0.024195999 0.69 -0.037503798 1.491296e-38 340 271
0.025442619 0.69099998 -0.03755815 1.491296e-38 341 271
0.026654173 0.69099998 -0.03755815 1.5096623e-38 342 271
0.027865725 0.69099998 -0.03755815 1.4912592e-38 343 271
0.029161438 0.69300002 -0.037666857 1.5002985e-38 344 271
0.030420333 0.69400001 -0.037721213 1.4726398e-38 345 271
0.031637147 0.69400001 -0.037721213 1.4633477e-38 346 271
0.032853961 0.69400001 -0.037721213 1.4449086e-38 347 271
0.034070771 0.69400001 -0.037721213 1.4171776e-38 348 271
0.035287585 0.69400001 -0.037721213 1.3710799e-38 349 271
0.036504399 0.69400001 -0.037721213 1.3524984e-38 350 271
0.037721213 0.69400001 -0.037721213 1.3248397e-38 351 271
0.039050236 0.69599998 -0.037829921 1.2881063e-38 352 271
0.040270556 0.69599998 -0.037829921 1.3249845e-38 353 271
0.041550495 0.69700003 -0.037884273 1.3252713e-38 354 271
0.042833932 0.69800001 -0.037938625 1.3437104e-38 355 271
0.04405776 0.69800001 -0.037938625 1.389628e-38 356 271
0.045281585 0.69800001 -0.037938625 1.389628e-38 357 271
0.046705291 0.70099998 -0.038101684 1.4356174e-38 358 271
0.047934376 0.70099998 -0.038101684 1.4448369e-38 359 271
0.049163464 0.70099998 -0.038101684 1.3251293e-38 360 271
0.050536323 0.70300001 -0.038210396 1.3988858e-38 361 271
-0.011203799 0.70999998 -0.039835732 1.5023904e-38 311 272
-0.0099589331 0.70999998 -0.039835732 1.667003e-38 312 272
-0.0087140659 0.70999998 -0.039835732 1.6577476e-38 313 272
-0.0074691991 0.70999998 -0.039835732 1.7587277e-38 314 272
-0.0062067998 0.708 -0.039723519 1.7402884e-38 315 272
-0.0049373866 0.704 -0.039499093 1.7585847e-38 316 272
-0.0036977797 0.70300001 -0.039442986 1.7678043e-38 317 272
-0.0024581731 0.70099998 -0.039330769 1.7769891e-38 318 272
-0.0012290865 0.70099998 -0.039330769 1.7677337e-38 319 272
0 0.69999999 -0.039274666 1.7676267e-38 320 272
0.0012238267 0.69800001 -0.039162453 1.758407e-38 321 272
0.0024441467 0.69700003 -0.039106347 1.7767739e-38 322 272
0.0036609597 0.69599998 -0.039050236 1.7583349e-38 323 272
0.0048812795 0.69599998 -0.039050236 1.7767736e-38 324 272
0.0060840664 0.69400001 -0.038938027 1.7767736e-38 325 272
0.0073008798 0.69400001 -0.038938027 1.7491159e-38 326 272
0.0085054198 0.69300002 -0.03888192 1.7306409e-38 327 272
0.0097204801 0.69300002 -0.03888192 1.7121667e-38 328 272
0.010935539 0.69300002 -0.03888192 1.7121667e-38 329 272
0.012150601 0.69300002 -0.03888192 1.7121311e-38 330 272
0.013327086 0.69099998 -0.038769703 1.6845083e-38 331 272
0.014517599 0.69 -0.038713597 1.6845436e-38 332 272
0.015727401 0.69 -0.038713597 1.7121664e-38 333 272
0.0169372 0.69 -0.038713597 1.6938349e-38 334 272
0.018146999 0.69 -0.038713597 1.6569926e-38 335 272
0.019356798 0.69 -0.038713597 1.6293348e-38 336 272
0.020566599 0.69 -0.038713597 1.601712e-38 337 272
0.021776399 0.69 -0.038713597 1.5373568e-38 338 272
0.022986198 0.69 -0.038713597 1.5281014e-38 339 272
0.024195999 0.69 -0.038713597 1.4912236e-38 340 272
0.025442619 0.69099998 -0.038769703 1.4912236e-38 341 272
0.026654173 0.69099998 -0.038769703 1.5002985e-38 342 272
0.027865725 0.69099998 -0.038769703 1.491079e-38 343 272
0.029161438 0.69300002 -0.03888192 1.509194e-38 344 272
0.0303765 0.69300002 -0.03888192 1.4723159e-38 345 272
0.031637147 0.69400001 -0.038938027 1.463096e-38 346 272
0.03280662 0.69300002 -0.03888192 1.463096e-38 347 272
0.034021679 0.69300002 -0.03888192 1.407958e-38 348 272
0.035236739 0.69300002 -0.03888192 1.3710799e-38 349 272
0.036504399 0.69400001 -0.038938027 1.315835e-38 350 272
0.037721213 0.69400001 -0.038938027 1.2881764e-38 351 272
0.038938027 0.69400001 -0.038938027 1.279029e-38 352 272
0.040270556 0.69599998 -0.039050236 1.2882486e-38 353 272
0.041490879 0.69599998 -0.039050236 1.3067952e-38 354 272
0.042772565 0.69700003 -0.039106347 1.3067952e-38 355 272
0.04405776 0.69800001 -0.039162453 1.3433141e-38 356 272
0.045281585 0.69800001 -0.039162453 1.3617533e-38 357 272
0.046638668 0.69999999 -0.039274666 1.3527852e-38 358 272
0.047865998 0.69999999 -0.039274666 1.3896633e-38 359 272
0.049093332 0.69999999 -0.039274666 1.4171075e-38 360 272
0.050392549 0.70099998 -0.039330769 1.4078879e-38 361 272
0.051621638 0.70099998 -0.039330769 1.1236348e-38 362 272
-0.0124662 0.71100003 -0.041138459 1.7601755e-38 310 273
-0.011203799 0.70999998 -0.041080594 1.4835527e-38 311 273
-0.0099589331 0.70999998 -0.041080594 1.6851172e-38 312 273
-0.0087140659 0.70999998 -0.041080594 1.7035923e-38 313 273
-0.0074481601 0.708 -0.040964879 1.7218867e-38 314 273
-0.0061980332 0.70700002 -0.040907022 1.712667e-38 315 273
-0.0049303733 0.70300001 -0.040675577 1.7126317e-38 316 273
-0.0036872597 0.70099998 -0.040559858 1.7126317e-38 317 273
-0.0024546667 0.69999999 -0.040502001 1.7584791e-38 318 273
-0.0012273333 0.69999999 -0.040502001 1.7400758e-38 319 273
0 0.69800001 -0.040386278 1.7400405e-38 320 273
0.0012220733 0.69700003 -0.040328421 1.7400405e-38 321 273
0.0024336267 0.69400001 -0.040154841 1.7584073e-38 322 273
0.0036504399 0.69400001 -0.040154841 1.7491519e-38 323 273
0.0048672534 0.69400001 -0.040154841 1.7308212e-38 324 273
0.0060840664 0.69400001 -0.040154841 1.7123462e-38 325 273
0.0072903596 0.69300002 -0.04009698 1.7213507e-38 326 273
0.0085054198 0.69300002 -0.04009698 1.6845083e-38 327 273
0.0097204801 0.69300002 -0.04009698 1.6477389e-38 328 273
0.01090398 0.69099998 -0.039981257 1.6385194e-38 329 273
0.012115533 0.69099998 -0.039981257 1.6201528e-38 330 273
0.013327086 0.69099998 -0.039981257 1.6293724e-38 331 273
0.014475521 0.68800002 -0.039807681 1.6294799e-38 332 273
0.015681813 0.68800002 -0.039807681 1.6294799e-38 333 273
0.016888106 0.68800002 -0.039807681 1.6571013e-38 334 273
0.0180944 0.68800002 -0.039807681 1.6386623e-38 335 273
0.019300694 0.68800002 -0.039807681 1.6294783e-38 336 273
0.020506985 0.68800002 -0.039807681 1.6110033e-38 337 273
0.021713281 0.68800002 -0.039807681 1.5741625e-38 338 273
0.022919573 0.68800002 -0.039807681 1.5464679e-38 339 273
0.024195999 0.69 -0.0399234 1.5188102e-38 340 273
0.025405798 0.69 -0.0399234 1.4911155e-38 341 273
0.026654173 0.69099998 -0.039981257 1.4543099e-38 342 273
0.027865725 0.69099998 -0.039981257 1.4082121e-38 343 273
0.029077278 0.69099998 -0.039981257 1.435547e-38 344 273
0.0303765 0.69300002 -0.04009698 1.4262916e-38 345 273
0.031591557 0.69300002 -0.04009698 1.398776e-38 346 273
0.03280662 0.69300002 -0.04009698 1.398776e-38 347 273
0.034021679 0.69300002 -0.04009698 1.3710804e-38 348 273
0.035236739 0.69300002 -0.04009698 1.3526053e-38 349 273
0.036451802 0.69300002 -0.04009698 1.3157628e-38 350 273
0.037721213 0.69400001 -0.040154841 1.2973237e-38 351 273
0.038938027 0.69400001 -0.040154841 1.2606978e-38 352 273
0.040154841 0.69400001 -0.040154841 1.2883205e-38 353 273
0.041371655 0.69400001 -0.040154841 1.29754e-38 354 273
0.042711195 0.69599998 -0.040270556 1.2883205e-38 355 273
0.043931518 0.69599998 -0.040270556 1.3157643e-38 356 273
0.045151837 0.69599998 -0.040270556 1.3249839e-38 357 273
0.046638668 0.69999999 -0.040502001 1.2700991e-38 358 273
0.047865998 0.69999999 -0.040502001 1.2977218e-38 359 273
0.049093332 0.69999999 -0.040502001 1.3069766e-38 360 273
0.050320663 0.69999999 -0.040502001 1.279354e-38 361 273
0.051621638 0.70099998 -0.040559858 1.113694e-38 362 273
-0.013693533 0.70999998 -0.042325463 1.6503018e-38 309 274
-0.012448666 0.70999998 -0.042325463 1.6213053e-38 310 274
-0.011203799 0.70999998 -0.042325463 1.5198902e-38 311 274
-0.0099589331 0.70999998 -0.042325463 1.7033768e-38 312 274
-0.008689519 0.708 -0.042206239 1.7125964e-38 313 274
-0.0074481601 0.708 -0.042206239 1.7033755e-38 314 274
-0.0061980332 0.70700002 -0.042146627 1.694156e-38 315 274
-0.0049163462 0.70099998 -0.041788943 1.7124869e-38 316 274
-0.0036819996 0.69999999 -0.041729331 1.730926e-38 317 274
-0.0024546667 0.69999999 -0.041729331 1.7491509e-38 318 274
-0.0012273333 0.69999999 -0.041729331 1.7583705e-38 319 274
0 0.69800001 -0.041610107 1.7491519e-38 320 274
0.0012220733 0.69700003 -0.041550495 1.7584073e-38 321 274
0.0024336267 0.69400001 -0.041371655 1.7583366e-38 322 274
0.0036504399 0.69400001 -0.041371655 1.7491169e-38 323 274
0.00486024 0.69300002 -0.041312039 1.7030563e-38 324 274
0.0060753003 0.69300002 -0.041312039 1.6662139e-38 325 274
0.0072903596 0.69300002 -0.041312039 1.6844733e-38 326 274
0.0085054198 0.69300002 -0.041312039 1.6659983e-38 327 274
0.0096924258 0.69099998 -0.041192811 1.6475945e-38 328 274
0.01090398 0.69099998 -0.041192811 1.6475945e-38 329 274
0.012097999 0.69 -0.041133199 1.6199717e-38 330 274
0.0133078 0.69 -0.041133199 1.6199717e-38 331 274
0.014475521 0.68800002 -0.041013971 1.6291556e-38 332 274
0.015681813 0.68800002 -0.041013971 1.6660339e-38 333 274
0.016888106 0.68800002 -0.041013971 1.6385191e-38 334 274
0.0180944 0.68800002 -0.041013971 1.6477745e-38 335 274
0.019300694 0.68800002 -0.041013971 1.5926374e-38 336 274
0.020506985 0.68800002 -0.041013971 1.5649427e-38 337 274
0.021713281 0.68800002 -0.041013971 1.5371765e-38 338 274
0.022919573 0.68800002 -0.041013971 1.5279568e-38 339 274
0.024125867 0.68800002 -0.041013971 1.4818597e-38 340 274
0.025405798 0.69 -0.041133199 1.4633847e-38 341 274
0.026615599 0.69 -0.041133199 1.4448019e-38 342 274
0.027825398 0.69 -0.041133199 1.4263269e-38 343 274
0.029077278 0.69099998 -0.041192811 1.4261826e-38 344 274
0.0303765 0.69300002 -0.041312039 1.4261826e-38 345 274
0.031591557 0.69300002 -0.041312039 1.3985962e-38 346 274
0.03280662 0.69300002 -0.041312039 1.3709377e-38 347 274
0.033923492 0.69099998 -0.041192811 1.3617179e-38 348 274
0.035135046 0.69099998 -0.041192811 1.3524984e-38 349 274
0.036451802 0.69300002 -0.041312039 1.3065445e-38 350 274
0.037666857 0.69300002 -0.041312039 1.2789218e-38 351 274
0.038938027 0.69400001 -0.041371655 1.2789574e-38 352 274
0.040154841 0.69400001 -0.041371655 1.288177e-38 353 274
0.041371655 0.69400001 -0.041371655 1.3067233e-38 354 274
0.042588469 0.69400001 -0.041371655 1.2975037e-38 355 274
0.043931518 0.69599998 -0.041490879 1.2699173e-38 356 274
0.045151837 0.69599998 -0.041490879 1.2699173e-38 357 274
0.046505414 0.69800001 -0.041610107 1.2698823e-38 358 274
0.047865998 0.69999999 -0.041729331 1.2698823e-38 359 274
0.049093332 0.69999999 -0.041729331 1.3156577e-38 360 274
0.050320663 0.69999999 -0.041729331 1.3432804e-38 361 274
0.051621638 0.70099998 -0.041788943 1.2879659e-38 362 274
0.052850723 0.70099998 -0.041788943 1.3525029e-38 363 274
-0.013693533 0.70999998 -0.043570329 1.5671805e-38 309 275
-0.012448666 0.70999998 -0.043570329 1.5748462e-38 310 275
-0.011203799 0.70999998 -0.043570329 1.5656266e-38 311 275
-0.0099308798 0.708 -0.043447599 1.7034121e-38 312 275
-0.008689519 0.708 -0.043447599 1.6941925e-38 313 275
-0.0074376399 0.70700002 -0.043386232 1.6849724e-38 314 275
-0.0061454331 0.70099998 -0.043018032 1.6757529e-38 315 275
-0.0049093333 0.69999999 -0.042956665 1.6941204e-38 316 275
-0.0036819996 0.69999999 -0.042956665 1.7033399e-38 317 275
-0.0024476533 0.69800001 -0.042833932 1.7032696e-38 318 275
-0.0012238267 0.69800001 -0.042833932 1.7217086e-38 319 275
0 0.69700003 -0.042772565 1.7308209e-38 320 275
0.0012220733 0.69700003 -0.042772565 1.7400405e-38 321 275
0.0024336267 0.69400001 -0.042588469 1.7766683e-38 322 275
0.0036451798 0.69300002 -0.042527102 1.7305705e-38 323 275
0.00486024 0.69300002 -0.042527102 1.5926739e-38 324 275
0.0060753003 0.69300002 -0.042527102 1.5834544e-38 325 275
0.0072903596 0.69300002 -0.042527102 1.610933e-38 326 275
0.008480873 0.69099998 -0.042404365 1.5924937e-38 327 275
0.0096924258 0.69099998 -0.042404365 1.6199361e-38 328 275
0.010888199 0.69 -0.042342998 1.6107165e-38 329 275
0.012097999 0.69 -0.042342998 1.5923853e-38 330 275
0.013269227 0.68800002 -0.042220265 1.6107884e-38 331 275
0.014475521 0.68800002 -0.042220265 1.6016417e-38 332 275
0.015681813 0.68800002 -0.042220265 1.6108614e-38 333 275
0.016888106 0.68800002 -0.042220265 1.5834188e-38 334 275
0.0180944 0.68800002 -0.042220265 1.5834188e-38 335 275
0.019300694 0.68800002 -0.042220265 1.5649427e-38 336 275
0.020506985 0.68800002 -0.042220265 1.5004057e-38 337 275
0.021713281 0.68800002 -0.042220265 1.5094458e-38 338 275
0.022919573 0.68800002 -0.042220265 1.4725675e-38 339 275
0.024125867 0.68800002 -0.042220265 1.4724249e-38 340 275
0.02533216 0.68800002 -0.042220265 1.4355468e-38 341 275
0.026538454 0.68800002 -0.042220265 1.4262552e-38 342 275
0.027744746 0.68800002 -0.042220265 1.407816e-38 343 275
0.029035198 0.69 -0.042342998 1.3710095e-38 344 275
0.030288832 0.69099998 -0.042404365 1.3710095e-38 345 275
0.031500384 0.69099998 -0.042404365 1.3617905e-38 346 275
0.032711938 0.69099998 -0.042404365 1.3433154e-38 347 275
0.033923492 0.69099998 -0.042404365 1.3066174e-38 348 275
0.035135046 0.69099998 -0.042404365 1.2973978e-38 349 275
0.036346599 0.69099998 -0.042404365 1.2789587e-38 350 275
0.037666857 0.69300002 -0.042527102 1.2605194e-38 351 275
0.03888192 0.69300002 -0.042527102 1.2422599e-38 352 275
0.04009698 0.69300002 -0.042527102 1.2514795e-38 353 275
0.041312039 0.69300002 -0.042527102 1.2422596e-38 354 275
0.042588469 0.69400001 -0.042588469 1.2514792e-38 355 275
0.043805279 0.69400001 -0.042588469 1.2238931e-38 356 275
0.045022093 0.69400001 -0.042588469 1.2146734e-38 357 275
0.046372157 0.69599998 -0.042711195 1.168721e-38 358 275
0.047729239 0.69800001 -0.042833932 1.1871243e-38 359 275
0.049093332 0.69999999 -0.042956665 1.1870172e-38 360 275
0.050320663 0.69999999 -0.042956665 1.2054565e-38 361 275
0.051621638 0.70099998 -0.043018032 1.1962367e-38 362 275
0.052850723 0.70099998 -0.043018032 1.1409193e-38 363 275
-0.014959441 0.71100003 -0.044878319 1.760575e-38 308 276
-0.01371282 0.71100003 -0.044878319 1.5116468e-38 309 276
-0.012448666 0.70999998 -0.044815198 1.5838857e-38 310 276
-0.011203799 0.70999998 -0.044815198 1.5838857e-38 311 276
-0.0099308798 0.708 -0.044688959 1.6941207e-38 312 276
-0.0086649731 0.70599997 -0.044562716 1.6941207e-38 313 276
-0.0073955595 0.70300001 -0.04437336 1.694156e-38 314 276
-0.0061454331 0.70099998 -0.044247117 1.6849005e-38 315 276
-0.0049093333 0.69999999 -0.044183996 1.6849008e-38 316 276
-0.0036819996 0.69999999 -0.044183996 1.7033399e-38 317 276
-0.0024476533 0.69800001 -0.04405776 1.7216364e-38 318 276
-0.0012220733 0.69700003 -0.043994639 1.730856e-38 319 276
0 0.69599998 -0.043931518 1.7491522e-38 320 276
0.0012168133 0.69400001 -0.043805279 1.7491522e-38 321 276
0.00243012 0.69300002 -0.043742158 1.749045e-38 322 276
0.0036451798 0.69300002 -0.043742158 1.7121667e-38 323 276
0.0048462129 0.69099998 -0.043615919 1.5741622e-38 324 276
0.0060577663 0.69099998 -0.043615919 1.5649427e-38 325 276
0.0072693196 0.69099998 -0.043615919 1.5740556e-38 326 276
0.008480873 0.69099998 -0.043615919 1.5555806e-38 327 276
0.0096783992 0.69 -0.043552797 1.5739824e-38 328 276
0.010856641 0.68800002 -0.043426562 1.5647629e-38 329 276
0.012062933 0.68800002 -0.043426562 1.583237e-38 330 276
0.013269227 0.68800002 -0.043426562 1.583237e-38 331 276
0.014475521 0.68800002 -0.043426562 1.5649427e-38 332 276
0.015659019 0.68699998 -0.043363437 1.5833819e-38 333 276
0.01686356 0.68699998 -0.043363437 1.5465761e-38 334 276
0.0180944 0.68800002 -0.043426562 1.528137e-38 335 276
0.019300694 0.68800002 -0.043426562 1.5279216e-38 336 276
0.020506985 0.68800002 -0.043426562 1.4633847e-38 337 276
0.021713281 0.68800002 -0.043426562 1.4540934e-38 338 276
0.022919573 0.68800002 -0.043426562 1.4356184e-38 339 276
0.024125867 0.68800002 -0.043426562 1.4354749e-38 340 276
0.02533216 0.68800002 -0.043426562 1.407816e-38 341 276
0.026538454 0.68800002 -0.043426562 1.3894845e-38 342 276
0.027744746 0.68800002 -0.043426562 1.3710095e-38 343 276
0.029035198 0.69 -0.043552797 1.3617179e-38 344 276
0.030244999 0.69 -0.043552797 1.3524984e-38 345 276
0.031454802 0.69 -0.043552797 1.3524987e-38 346 276
0.032664597 0.69 -0.043552797 1.3432791e-38 347 276
0.0338744 0.69 -0.043552797 1.3065095e-38 348 276
0.035084199 0.69 -0.043552797 1.2881063e-38 349 276
0.036346599 0.69099998 -0.043615919 1.2697038e-38 350 276
0.03755815 0.69099998 -0.043615919 1.2604842e-38 351 276
0.038769703 0.69099998 -0.043615919 1.2146734e-38 352 276
0.039981257 0.69099998 -0.043615919 1.2146734e-38 353 276
0.041312039 0.69300002 -0.043742158 1.2238214e-38 354 276
0.042527102 0.69300002 -0.043742158 1.2146018e-38 355 276
0.043805279 0.69400001 -0.043805279 1.1870157e-38 356 276
0.045022093 0.69400001 -0.043805279 1.1777603e-38 357 276
0.046238903 0.69400001 -0.043805279 1.1501744e-38 358 276
0.047729239 0.69800001 -0.04405776 1.1685775e-38 359 276
0.048953064 0.69800001 -0.04405776 1.1594662e-38 360 276
0.050320663 0.69999999 -0.044183996 1.187089e-38 361 276
0.051547997 0.69999999 -0.044183996 1.2238228e-38 362 276
0.052775331 0.69999999 -0.044183996 1.1685054e-38 363 276
0.054002665 0.69999999 -0.044183996 9.3909908e-39 364 276
-0.016183265 0.70999998 -0.046060063 1.8532413e-38 307 277
-0.014938398 0.70999998 -0.046060063 1.6312843e-38 308 277
-0.013693533 0.70999998 -0.046060063 1.4561485e-38 309 277
-0.012448666 0.70999998 -0.046060063 1.5563346e-38 310 277
-0.011156459 0.70700002 -0.045865446 1.5655542e-38 311 277
-0.0099168532 0.70700002 -0.045865446 1.6848658e-38 312 277
-0.0086404262 0.704 -0.045670826 1.6663906e-38 313 277
-0.0073745195 0.70099998 -0.045476202 1.6940128e-38 314 277
-0.0061366665 0.69999999 -0.04541133 1.6940128e-38 315 277
-0.0049093333 0.69999999 -0.04541133 1.6939774e-38 316 277
-0.0036714801 0.69800001 -0.045281585 1.7124166e-38 317 277
-0.0024476533 0.69800001 -0.045281585 1.7123813e-38 318 277
-0.0012220733 0.69700003 -0.045216713 1.7308563e-38 319 277
0 0.69599998 -0.045151837 1.7308209e-38 320 277
0.0012168133 0.69400001 -0.045022093 1.7216014e-38 321 277
0.00243012 0.69300002 -0.044957221 1.7215295e-38 322 277
0.0036451798 0.69300002 -0.044957221 1.7030545e-38 323 277
0.0048462129 0.69099998 -0.044827472 1.6202232e-38 324 277
0.0060577663 0.69099998 -0.044827472 1.6017841e-38 325 277
0.0072693196 0.69099998 -0.044827472 1.5646557e-38 326 277
0.0084686 0.69 -0.0447626 1.5369968e-38 327 277
0.0096783992 0.69 -0.0447626 1.4175378e-38 328 277
0.010856641 0.68800002 -0.044632856 1.4543802e-38 329 277
0.012062933 0.68800002 -0.044632856 1.5372118e-38 330 277
0.013249939 0.68699998 -0.044567976 1.5464314e-38 331 277
0.014454478 0.68699998 -0.044567976 1.5556512e-38 332 277
0.015659019 0.68699998 -0.044567976 1.5556512e-38 333 277
0.01686356 0.68699998 -0.044567976 1.5188455e-38 334 277
0.018068098 0.68699998 -0.044567976 1.4819313e-38 335 277
0.019272638 0.68699998 -0.044567976 1.4449814e-38 336 277
0.020477179 0.68699998 -0.044567976 1.4173227e-38 337 277
0.021681719 0.68699998 -0.044567976 1.4173225e-38 338 277
0.022886258 0.68699998 -0.044567976 1.3988833e-38 339 277
0.024090799 0.68699998 -0.044567976 1.4078874e-38 340 277
0.025295338 0.68699998 -0.044567976 1.3710451e-38 341 277
0.026499879 0.68699998 -0.044567976 1.3525706e-38 342 277
0.027704418 0.68699998 -0.044567976 1.343351e-38 343 277
0.028908957 0.68699998 -0.044567976 1.3432791e-38 344 277
0.030157333 0.68800002 -0.044632856 1.3432791e-38 345 277
0.031363625 0.68800002 -0.044632856 1.3249476e-38 346 277
0.032664597 0.69 -0.0447626 1.315728e-38 347 277
0.0338744 0.69 -0.0447626 1.2697744e-38 348 277
0.035084199 0.69 -0.0447626 1.2697744e-38 349 277
0.036293998 0.69 -0.0447626 1.2238567e-38 350 277
0.037503798 0.69 -0.0447626 1.2422599e-38 351 277
0.038713597 0.69 -0.0447626 1.187087e-38 352 277
0.039981257 0.69099998 -0.044827472 1.1778674e-38 353 277
0.041192811 0.69099998 -0.044827472 1.1778321e-38 354 277
0.042527102 0.69300002 -0.044957221 1.1778321e-38 355 277
0.043742158 0.69300002 -0.044957221 1.1502816e-38 356 277
0.045022093 0.69400001 -0.045022093 1.1410262e-38 357 277
0.046238903 0.69400001 -0.045022093 1.113512e-38 358 277
0.047660861 0.69700003 -0.045216713 1.1227315e-38 359 277
0.048953064 0.69800001 -0.045281585 1.1319514e-38 360 277
0.050320663 0.69999999 -0.04541133 1.1688296e-38 361 277
0.051547997 0.69999999 -0.04541133 1.2055631e-38 362 277
0.052775331 0.69999999 -0.04541133 1.1963436e-38 363 277
0.054002665 0.69999999 -0.04541133 1.1135498e-38 364 277
0.055308893 0.70099998 -0.045476202 1.2795019e-38 365 277
-0.016183265 0.70999998 -0.047304932 1.8071072e-38 307 278
-0.014938398 0.70999998 -0.047304932 1.5022092e-38 308 278
-0.013693533 0.70999998 -0.047304932 1.3915384e-38 309 278
-0.0124136 0.708 -0.047171678 1.5747012e-38 310 278
-0.011156459 0.70700002 -0.047105055 1.5747012e-38 311 278
-0.0099168532 0.70700002 -0.047105055 1.6663912e-38 312 278
-0.0086404262 0.704 -0.046905171 1.6387327e-38 313 278
-0.0073745195 0.70099998 -0.046705291 1.6662837e-38 314 278
-0.0061366665 0.69999999 -0.046638668 1.6662837e-38 315 278
-0.0048953067 0.69800001 -0.046505414 1.6755037e-38 316 278
-0.0036714801 0.69800001 -0.046505414 1.7031264e-38 317 278
-0.0024441467 0.69700003 -0.046438783 1.694015e-38 318 278
-0.0012203199 0.69599998 -0.046372157 1.7032346e-38 319 278
0 0.69400001 -0.046238903 1.7032348e-38 320 278
0.0012168133 0.69400001 -0.046238903 1.7032348e-38 321 278
0.00243012 0.69300002 -0.04617228 1.6847952e-38 322 278
0.0036451798 0.69300002 -0.04617228 1.6755756e-38 323 278
0.0048462129 0.69099998 -0.046039023 1.666284e-38 324 278
0.0060577663 0.69099998 -0.046039023 1.5925275e-38 325 278
0.0072693196 0.69099998 -0.046039023 1.573694e-38 326 278
0.0084440531 0.68800002 -0.045839146 1.4354006e-38 327 278
0.0096503468 0.68800002 -0.045839146 1.2701692e-38 328 278
0.010856641 0.68800002 -0.045839146 1.3347061e-38 329 278
0.012045399 0.68699998 -0.045772515 1.4175378e-38 330 278
0.013249939 0.68699998 -0.045772515 1.4635998e-38 331 278
0.014454478 0.68699998 -0.045772515 1.4636001e-38 332 278
0.015636226 0.68599999 -0.045705888 1.4728196e-38 333 278
0.016839013 0.68599999 -0.045705888 1.4725692e-38 334 278
0.018068098 0.68699998 -0.045772515 1.4172518e-38 335 278
0.019244585 0.68599999 -0.045705888 1.4263625e-38 336 278
0.020447372 0.68599999 -0.045705888 1.4171428e-38 337 278
0.021650158 0.68599999 -0.045705888 1.3896631e-38 338 278
0.022852944 0.68599999 -0.045705888 1.3620404e-38 339 278
0.024090799 0.68699998 -0.045772515 1.3893764e-38 340 278
0.025258519 0.68599999 -0.045705888 1.3617535e-38 341 278
0.026461305 0.68599999 -0.045705888 1.3249123e-38 342 278
0.027704418 0.68699998 -0.045772515 1.3249123e-38 343 278
0.028908957 0.68699998 -0.045772515 1.3156924e-38 344 278
0.030113498 0.68699998 -0.045772515 1.3064729e-38 345 278
0.031363625 0.68800002 -0.045839146 1.2789221e-38 346 278
0.032569919 0.68800002 -0.045839146 1.2789221e-38 347 278
0.033776212 0.68800002 -0.045839146 1.2514073e-38 348 278
0.03498251 0.68800002 -0.045839146 1.2421876e-38 349 278
0.036293998 0.69 -0.045972396 1.1963775e-38 350 278
0.037503798 0.69 -0.045972396 1.1963775e-38 351 278
0.038713597 0.69 -0.045972396 1.1687561e-38 352 278
0.0399234 0.69 -0.045972396 1.1687561e-38 353 278
0.041133199 0.69 -0.045972396 1.1595009e-38 354 278
0.042404365 0.69099998 -0.046039023 1.1502813e-38 355 278
0.043615919 0.69099998 -0.046039023 1.1502811e-38 356 278
0.044957221 0.69300002 -0.04617228 1.1410615e-38 357 278
0.04617228 0.69300002 -0.04617228 1.1319145e-38 358 278
0.047455717 0.69400001 -0.046238903 1.1503535e-38 359 278
0.048953064 0.69800001 -0.046505414 1.1320586e-38 360 278
0.050176892 0.69800001 -0.046505414 1.1504978e-38 361 278
0.051547997 0.69999999 -0.046638668 1.1504978e-38 362 278
0.052775331 0.69999999 -0.046638668 1.1689728e-38 363 278
0.054002665 0.69999999 -0.046638668 1.1689738e-38 364 278
0.055308893 0.70099998 -0.046705291 1.0675946e-38 365 278
0.056779943 0.704 -0.046905171 1.1514743e-38 366 278
-0.014938398 0.70999998 -0.048549797 1.4375636e-38 308 279
-0.013693533 0.70999998 -0.048549797 1.3730267e-38 309 279
-0.0124136 0.708 -0.048413038 1.6021791e-38 310 279
-0.011156459 0.70700002 -0.048344657 1.6021791e-38 311 279
-0.0099028256 0.70599997 -0.048276275 1.675466e-38 312 279
-0.0086281532 0.70300001 -0.048071139 1.6478433e-38 313 279
-0.0073745195 0.70099998 -0.047934376 1.6845058e-38 314 279
-0.0061366665 0.69999999 -0.047865998 1.6845058e-38 315 279
-0.0048953067 0.69800001 -0.047729239 1.6753944e-38 316 279
-0.00366622 0.69700003 -0.047660861 1.6938335e-38 317 279
-0.0024441467 0.69700003 -0.047660861 1.6938698e-38 318 279
-0.0012203199 0.69599998 -0.047592476 1.6938698e-38 319 279
0 0.69400001 -0.047455717 1.6939424e-38 320 279
0.00121506 0.69300002 -0.047387339 1.6755033e-38 321 279
0.00243012 0.69300002 -0.047387339 1.6846508e-38 322 279
0.0036346598 0.69099998 -0.047250576 1.6753954e-38 323 279
0.0048391996 0.69 -0.047182199 1.63859e-38 324 279
0.0060489997 0.69 -0.047182199 1.5740531e-38 325 279
0.0072587994 0.69 -0.047182199 1.5001543e-38 326 279
0.0084440531 0.68800002 -0.047045439 1.3249826e-38 327 279
0.0096363192 0.68699998 -0.046977058 1.1780827e-38 328 279
0.010825079 0.68599999 -0.046908677 1.1965218e-38 329 279
0.012027865 0.68599999 -0.046908677 1.2333634e-38 330 279
0.013230653 0.68599999 -0.046908677 1.2979003e-38 331 279
0.01439136 0.68400002 -0.046771921 1.4722082e-38 332 279
0.01559064 0.68400002 -0.046771921 1.4998669e-38 333 279
0.016839013 0.68599999 -0.046908677 1.4539133e-38 334 279
0.018041799 0.68599999 -0.046908677 1.4262905e-38 335 279
0.01918848 0.68400002 -0.046771921 1.4170704e-38 336 279
0.020387759 0.68400002 -0.046771921 1.3986312e-38 337 279
0.02158704 0.68400002 -0.046771921 1.3803353e-38 338 279
0.022852944 0.68599999 -0.046908677 1.3618602e-38 339 279
0.024055731 0.68599999 -0.046908677 1.352534e-38 340 279
0.025258519 0.68599999 -0.046908677 1.334059e-38 341 279
0.026461305 0.68599999 -0.046908677 1.3065082e-38 342 279
0.027664091 0.68599999 -0.046908677 1.3157278e-38 343 279
0.028908957 0.68699998 -0.046977058 1.2881764e-38 344 279
0.030113498 0.68699998 -0.046977058 1.2697371e-38 345 279
0.031318039 0.68699998 -0.046977058 1.2880689e-38 346 279
0.032569919 0.68800002 -0.047045439 1.2788135e-38 347 279
0.033776212 0.68800002 -0.047045439 1.2421513e-38 348 279
0.03498251 0.68800002 -0.047045439 1.2605544e-38 349 279
0.036293998 0.69 -0.047182199 1.1871939e-38 350 279
0.037503798 0.69 -0.047182199 1.1871939e-38 351 279
0.038713597 0.69 -0.047182199 1.1595362e-38 352 279
0.0399234 0.69 -0.047182199 1.1503167e-38 353 279
0.041133199 0.69 -0.047182199 1.1410252e-38 354 279
0.042342998 0.69 -0.047182199 1.1410252e-38 355 279
0.043552797 0.69 -0.047182199 1.1410971e-38 356 279
0.044827472 0.69099998 -0.047250576 1.1595362e-38 357 279
0.046039023 0.69099998 -0.047250576 1.1136905e-38 358 279
0.047455717 0.69400001 -0.047455717 1.1320936e-38 359 279
0.048882935 0.69700003 -0.047660861 1.1229471e-38 360 279
0.050176892 0.69800001 -0.047729239 1.1229471e-38 361 279
0.051547997 0.69999999 -0.047865998 1.1412786e-38 362 279
0.052775331 0.69999999 -0.047865998 1.1412786e-38 363 279
0.054079808 0.70099998 -0.047934376 1.0954691e-38 364 279
0.055308893 0.70099998 -0.047934376 9.4799214e-39 365 279
0.056699295 0.70300001 -0.048071139 8.9361392e-39 366 279
0.057931885 0.70300001 -0.048071139 1.778692e-38 367 279
-0.014938398 0.70999998 -0.049794663 1.4648615e-38 308 280
-0.013693533 0.70999998 -0.049794663 1.4187996e-38 309 280
-0.012396066 0.70700002 -0.049584266 1.6206169e-38 310 280
-0.011140679 0.70599997 -0.04951413 1.5837746e-38 311 280
-0.0099028256 0.70599997 -0.04951413 1.6204358e-38 312 280
-0.0086281532 0.70300001 -0.049303733 1.6112162e-38 313 280
-0.0073745195 0.70099998 -0.049163464 1.6478431e-38 314 280
-0.0061366665 0.69999999 -0.049093332 1.6386235e-38 315 280
-0.0048882933 0.69700003 -0.048882935 1.6202935e-38 316 280
-0.0036609597 0.69599998 -0.048812799 1.6202935e-38 317 280
-0.0024406398 0.69599998 -0.048812799 1.6385547e-38 318 280
-0.0012168133 0.69400001 -0.048672531 1.6477743e-38 319 280
0 0.69400001 -0.048672531 1.6476671e-38 320 280
0.00121506 0.69300002 -0.048602402 1.6384475e-38 321 280
0.0024231065 0.69099998 -0.04846213 1.601677e-38 322 280
0.0036346598 0.69099998 -0.04846213 1.601677e-38 323 280
0.0048391996 0.69 -0.048391998 1.5923853e-38 324 280
0.0060314666 0.68800002 -0.048251733 1.5370319e-38 325 280
0.0072377604 0.68800002 -0.048251733 1.4359784e-38 326 280
0.0084195063 0.68599999 -0.048111461 1.2423675e-38 327 280
0.0096222926 0.68599999 -0.048111461 1.1871966e-38 328 280
0.01079352 0.68400002 -0.0479712 1.196452e-38 329 280
0.0119928 0.68400002 -0.0479712 1.1964167e-38 330 280
0.013172794 0.68300003 -0.047901068 1.2332591e-38 331 280
0.014370319 0.68300003 -0.047901068 1.306871e-38 332 280
0.01559064 0.68400002 -0.0479712 1.3253103e-38 333 280
0.016789921 0.68400002 -0.0479712 1.3529305e-38 334 280
0.0179892 0.68400002 -0.0479712 1.3436751e-38 335 280
0.01918848 0.68400002 -0.0479712 1.362112e-38 336 280
0.020387759 0.68400002 -0.0479712 1.3528924e-38 337 280
0.02158704 0.68400002 -0.0479712 1.3528208e-38 338 280
0.022786319 0.68400002 -0.0479712 1.3251261e-38 339 280
0.024055731 0.68599999 -0.048111461 1.352534e-38 340 280
0.025184879 0.68400002 -0.0479712 1.334059e-38 341 280
0.02638416 0.68400002 -0.0479712 1.3066154e-38 342 280
0.027664091 0.68599999 -0.048111461 1.3066154e-38 343 280
0.02886688 0.68599999 -0.048111461 1.2790643e-38 344 280
0.030113498 0.68699998 -0.048181597 1.2605892e-38 345 280
0.031318039 0.68699998 -0.048181597 1.2329315e-38 346 280
0.032569919 0.68800002 -0.048251733 1.2329315e-38 347 280
0.033776212 0.68800002 -0.048251733 1.1870504e-38 348 280
0.03498251 0.68800002 -0.048251733 1.2054536e-38 349 280
0.0361888 0.68800002 -0.048251733 1.1413482e-38 350 280
0.037503798 0.69 -0.048391998 1.1321286e-38 351 280
0.038601387 0.68800002 -0.048251733 1.1136905e-38 352 280
0.039807681 0.68800002 -0.048251733 1.0767764e-38 353 280
0.041133199 0.69 -0.048391998 1.085889e-38 354 280
0.042342998 0.69 -0.048391998 1.085889e-38 355 280
0.043552797 0.69 -0.048391998 1.1227303e-38 356 280
0.044827472 0.69099998 -0.04846213 1.150353e-38 357 280
0.046039023 0.69099998 -0.04846213 1.1412769e-38 358 280
0.047387339 0.69300002 -0.048602402 1.1412769e-38 359 280
0.048882935 0.69700003 -0.048882935 1.0954326e-38 360 280
0.050176892 0.69800001 -0.048953064 1.0862129e-38 361 280
0.051547997 0.69999999 -0.049093332 1.0585196e-38 362 280
0.052775331 0.69999999 -0.049093332 1.0585196e-38 363 280
0.054079808 0.70099998 -0.049163464 9.8501459e-39 364 280
0.055308893 0.70099998 -0.049163464 9.0203838e-39 365 280
0.056537982 0.70099998 -0.049163464 9.8490977e-39 366 280
0.057767071 0.70099998 -0.049163464 1.8054149e-38 367 280
-0.01487528 0.70700002 -0.050823875 1.5013791e-38 308 281
-0.013635674 0.70700002 -0.050823875 1.4644649e-38 309 281
-0.012378532 0.70599997 -0.050751984 1.620436e-38 310 281
-0.011109119 0.704 -0.050608214 1.6111806e-38 311 281
-0.0098747732 0.704 -0.050608214 1.6294385e-38 312 281
-0.0085913334 0.69999999 -0.050320663 1.620219e-38 313 281
-0.0073429602 0.69800001 -0.050176892 1.6202543e-38 314 281
-0.006119133 0.69800001 -0.050176892 1.6202543e-38 315 281
-0.0048882933 0.69700003 -0.050105009 1.6294022e-38 316 281
-0.0036609597 0.69599998 -0.050033119 1.6201468e-38 317 281
-0.0024406398 0.69599998 -0.050033119 1.6383361e-38 318 281
-0.0012168133 0.69400001 -0.049889345 1.6383361e-38 319 281
0 0.69400001 -0.049889345 1.647413e-38 320 281
0.00121506 0.69300002 -0.049817458 1.647413e-38 321 281
0.0024231065 0.69099998 -0.049673684 1.6014598e-38 322 281
0.0036293997 0.69 -0.049601797 1.5922402e-38 323 281
0.0048391996 0.69 -0.049601797 1.5554344e-38 324 281
0.0060226996 0.68699998 -0.049386136 1.5001171e-38 325 281
0.0072167199 0.68599999 -0.049314249 1.3807319e-38 326 281
0.0084195063 0.68599999 -0.049314249 1.2147437e-38 327 281
0.0096222926 0.68599999 -0.049314249 1.2604838e-38 328 281
0.01079352 0.68400002 -0.049170479 1.2697035e-38 329 281
0.011975267 0.68300003 -0.049098592 1.2422243e-38 330 281
0.013172794 0.68300003 -0.049098592 1.2699189e-38 331 281
0.014370319 0.68300003 -0.049098592 1.2976481e-38 332 281
0.015567848 0.68300003 -0.049098592 1.3253066e-38 333 281
0.016789921 0.68400002 -0.049170479 1.3436013e-38 334 281
0.0179892 0.68400002 -0.049170479 1.3436013e-38 335 281
0.01918848 0.68400002 -0.049170479 1.3436007e-38 336 281
0.020387759 0.68400002 -0.049170479 1.3436007e-38 337 281
0.02158704 0.68400002 -0.049170479 1.343529e-38 338 281
0.022786319 0.68400002 -0.049170479 1.3250898e-38 339 281
0.0239856 0.68400002 -0.049170479 1.3065432e-38 340 281
0.025184879 0.68400002 -0.049170479 1.3157628e-38 341 281
0.02638416 0.68400002 -0.049170479 1.279064e-38 342 281
0.027583439 0.68400002 -0.049170479 1.2698445e-38 343 281
0.02886688 0.68599999 -0.049314249 1.2605529e-38 344 281
0.030113498 0.68699998 -0.049386136 1.2236748e-38 345 281
0.031318039 0.68699998 -0.049386136 1.2327514e-38 346 281
0.032522578 0.68699998 -0.049386136 1.2327514e-38 347 281
0.033776212 0.68800002 -0.049458027 1.168611e-38 348 281
0.03498251 0.68800002 -0.049458027 1.1778306e-38 349 281
0.0361888 0.68800002 -0.049458027 1.1320924e-38 350 281
0.037395094 0.68800002 -0.049458027 1.1228728e-38 351 281
0.038601387 0.68800002 -0.049458027 1.0859592e-38 352 281
0.039807681 0.68800002 -0.049458027 1.0767397e-38 353 281
0.041013971 0.68800002 -0.049458027 1.0949996e-38 354 281
0.042220265 0.68800002 -0.049458027 1.1042191e-38 355 281
0.043426562 0.68800002 -0.049458027 1.1318419e-38 356 281
0.0447626 0.69 -0.049601797 1.1502811e-38 357 281
0.046039023 0.69099998 -0.049673684 1.132022e-38 358 281
0.047387339 0.69300002 -0.049817458 1.132022e-38 359 281
0.048672531 0.69400001 -0.049889345 1.086141e-38 360 281
0.050176892 0.69800001 -0.050176892 1.0677018e-38 361 281
0.051400717 0.69800001 -0.050176892 1.0583395e-38 362 281
0.052775331 0.69999999 -0.050320663 1.0491198e-38 363 281
0.054002665 0.69999999 -0.050320663 1.0308606e-38 364 281
0.055229999 0.69999999 -0.050320663 9.7554321e-39 365 281
0.056537982 0.70099998 -0.050392549 1.0402269e-38 366 281
0.057767071 0.70099998 -0.050392549 1.6671211e-38 367 281
-0.016114887 0.70700002 -0.05206348 1.6316106e-38 307 282
-0.01487528 0.70700002 -0.05206348 1.4920513e-38 308 282
-0.013616386 0.70599997 -0.051989835 1.4459535e-38 309 282
-0.012378532 0.70599997 -0.051989835 1.5744101e-38 310 282
-0.011109119 0.704 -0.051842559 1.556007e-38 311 282
-0.0098607466 0.70300001 -0.051768921 1.5926329e-38 312 282
-0.0085913334 0.69999999 -0.051547997 1.5834133e-38 313 282
-0.0073429602 0.69800001 -0.051400717 1.583413e-38 314 282
-0.0061103669 0.69700003 -0.051327083 1.583413e-38 315 282
-0.0048812795 0.69599998 -0.051253434 1.6109638e-38 316 282
-0.0036609597 0.69599998 -0.051253434 1.5833411e-38 317 282
-0.0024336267 0.69400001 -0.051106159 1.5923827e-38 318 282
-0.0012168133 0.69400001 -0.051106159 1.5923827e-38 319 282
0 0.69300002 -0.051032521 1.5830926e-38 320 282
0.0012115532 0.69099998 -0.050885238 1.5830926e-38 321 282
0.0024231065 0.69099998 -0.050885238 1.573801e-38 322 282
0.0036293997 0.69 -0.050811596 1.573801e-38 323 282
0.0048251734 0.68800002 -0.050664321 1.5369947e-38 324 282
0.0060226996 0.68699998 -0.050590675 1.5001524e-38 325 282
0.0072167199 0.68599999 -0.050517038 1.4172856e-38 326 282
0.0083949603 0.68400002 -0.050369758 1.343529e-38 327 282
0.0095942402 0.68400002 -0.050369758 1.3157996e-38 328 282
0.01079352 0.68400002 -0.050369758 1.3157996e-38 329 282
0.011975267 0.68300003 -0.05029612 1.2792085e-38 330 282
0.013172794 0.68300003 -0.05029612 1.2976837e-38 331 282
0.014370319 0.68300003 -0.05029612 1.2885357e-38 332 282
0.015567848 0.68300003 -0.05029612 1.2700964e-38 333 282
0.016765373 0.68300003 -0.05029612 1.2883207e-38 334 282
0.017962901 0.68300003 -0.05029612 1.2698818e-38 335 282
0.019160427 0.68300003 -0.05029612 1.2882851e-38 336 282
0.020357953 0.68300003 -0.05029612 1.2882851e-38 337 282
0.02155548 0.68300003 -0.05029612 1.2974681e-38 338 282
0.022786319 0.68400002 -0.050369758 1.279029e-38 339 282
0.0239856 0.68400002 -0.050369758 1.2881764e-38 340 282
0.025184879 0.68400002 -0.050369758 1.2789568e-38 341 282
0.02638416 0.68400002 -0.050369758 1.2697371e-38 342 282
0.027583439 0.68400002 -0.050369758 1.2605176e-38 343 282
0.02886688 0.68599999 -0.050517038 1.2144921e-38 344 282
0.030113498 0.68699998 -0.050590675 1.1960528e-38 345 282
0.031318039 0.68699998 -0.050590675 1.1684314e-38 346 282
0.032522578 0.68699998 -0.050590675 1.1684314e-38 347 282
0.033727121 0.68699998 -0.050590675 1.1317701e-38 348 282
0.034931656 0.68699998 -0.050590675 1.1409896e-38 349 282
0.036136195 0.68699998 -0.050590675 1.0952158e-38 350 282
0.037395094 0.68800002 -0.050664321 1.0859962e-38 351 282
0.038545277 0.68699998 -0.050590675 1.067557e-38 352 282
0.039749816 0.68699998 -0.050590675 1.0491538e-38 353 282
0.041013971 0.68800002 -0.050664321 1.0491901e-38 354 282
0.042220265 0.68800002 -0.050664321 1.0491901e-38 355 282
0.043426562 0.68800002 -0.050664321 1.0676297e-38 356 282
0.044632856 0.68800002 -0.050664321 1.0952524e-38 357 282
0.046039023 0.69099998 -0.050885238 1.0951805e-38 358 282
0.047250576 0.69099998 -0.050885238 1.1044359e-38 359 282
0.048672531 0.69400001 -0.051106159 1.0860334e-38 360 282
0.050105009 0.69700003 -0.051327083 1.0675944e-38 361 282
0.051400717 0.69800001 -0.051400717 1.0216056e-38 362 282
0.052624546 0.69800001 -0.051400717 1.0216056e-38 363 282
0.054002665 0.69999999 -0.051547997 9.5750037e-39 364 282
0.055229999 0.69999999 -0.051547997 9.4828067e-39 365 282
0.056537982 0.70099998 -0.051621638 1.0219675e-38 366 282
0.057767071 0.70099998 -0.051621638 1.4829457e-38 367 282
-0.016092092 0.70599997 -0.053227689 1.6130993e-38 307 283
-0.014854239 0.70599997 -0.053227689 1.4827597e-38 308 283
-0.013616386 0.70599997 -0.053227689 1.4643206e-38 309 283
-0.012343466 0.704 -0.053076904 1.5743385e-38 310 283
-0.01109334 0.70300001 -0.053001512 1.5650831e-38 311 283
-0.0098326923 0.70099998 -0.052850723 1.5833058e-38 312 283
-0.0085667865 0.69800001 -0.052624546 1.5833058e-38 313 283
-0.0073429602 0.69800001 -0.052624546 1.5741584e-38 314 283
-0.0061103669 0.69700003 -0.052549154 1.5741584e-38 315 283
-0.0048812795 0.69599998 -0.052473757 1.5834133e-38 316 283
-0.0036504399 0.69400001 -0.052322973 1.5649383e-38 317 283
-0.0024336267 0.69400001 -0.052322973 1.5464998e-38 318 283
-0.00121506 0.69300002 -0.05224758 1.5372802e-38 319 283
0 0.69300002 -0.05224758 1.5555045e-38 320 283
0.0012115532 0.69099998 -0.052096792 1.5462849e-38 321 283
0.0024195998 0.69 -0.052021399 1.5370654e-38 322 283
0.0036188802 0.68800002 -0.051870614 1.5278458e-38 323 283
0.0048251734 0.68800002 -0.051870614 1.5001874e-38 324 283
0.0060139326 0.68599999 -0.051719822 1.4817483e-38 325 283
0.0072167199 0.68599999 -0.051719822 1.4356872e-38 326 283
0.0083949603 0.68400002 -0.051569041 1.4080283e-38 327 283
0.0095942402 0.68400002 -0.051569041 1.3435996e-38 328 283
0.01079352 0.68400002 -0.051569041 1.3528193e-38 329 283
0.011975267 0.68300003 -0.051493648 1.3253045e-38 330 283
0.013172794 0.68300003 -0.051493648 1.3253045e-38 331 283
0.014370319 0.68300003 -0.051493648 1.3252321e-38 332 283
0.015567848 0.68300003 -0.051493648 1.2791344e-38 333 283
0.016765373 0.68300003 -0.051493648 1.2697727e-38 334 283
0.017962901 0.68300003 -0.051493648 1.2512977e-38 335 283
0.019160427 0.68300003 -0.051493648 1.2697741e-38 336 283
0.020357953 0.68300003 -0.051493648 1.2697741e-38 337 283
0.02155548 0.68300003 -0.051493648 1.279029e-38 338 283
0.022786319 0.68400002 -0.051569041 1.2698094e-38 339 283
0.0239856 0.68400002 -0.051569041 1.2697018e-38 340 283
0.025184879 0.68400002 -0.051569041 1.2604823e-38 341 283
0.02638416 0.68400002 -0.051569041 1.2604107e-38 342 283
0.027583439 0.68400002 -0.051569041 1.2419357e-38 343 283
0.02886688 0.68599999 -0.051719822 1.2051649e-38 344 283
0.030069664 0.68599999 -0.051719822 1.1959453e-38 345 283
0.031318039 0.68699998 -0.051795214 1.1408447e-38 346 283
0.032522578 0.68699998 -0.051795214 1.1408447e-38 347 283
0.033727121 0.68699998 -0.051795214 1.1225506e-38 348 283
0.034931656 0.68699998 -0.051795214 1.1317703e-38 349 283
0.036136195 0.68699998 -0.051795214 1.0767049e-38 350 283
0.037340738 0.68699998 -0.051795214 1.0767049e-38 351 283
0.038545277 0.68699998 -0.051795214 1.0584098e-38 352 283
0.039749816 0.68699998 -0.051795214 1.0491901e-38 353 283
0.040954359 0.68699998 -0.051795214 1.0308592e-38 354 283
0.042220265 0.68800002 -0.051870614 1.0308592e-38 355 283
0.043426562 0.68800002 -0.051870614 1.0584101e-38 356 283
0.044632856 0.68800002 -0.051870614 1.0676297e-38 357 283
0.045972396 0.69 -0.052021399 1.0859612e-38 358 283
0.047250576 0.69099998 -0.052096792 1.1044003e-38 359 283
0.048602402 0.69300002 -0.05224758 1.0860331e-38 360 283
0.050033119 0.69599998 -0.052473757 1.06763e-38 361 283
0.051327083 0.69700003 -0.052549154 1.0308603e-38 362 283
0.052624546 0.69800001 -0.052624546 1.0216406e-38 363 283
0.054002665 0.69999999 -0.052775331 9.9426975e-39 364 283
0.055229999 0.69999999 -0.052775331 9.7583048e-39 365 283
0.056537982 0.70099998 -0.052850723 1.0124956e-38 366 283
0.057767071 0.70099998 -0.052850723 1.3997172e-38 367 283
0.058996156 0.70099998 -0.052850723 1.5304491e-38 368 283
-0.016092092 0.70599997 -0.054465543 1.5303386e-38 307 284
-0.014854239 0.70599997 -0.054465543 1.4366986e-38 308 284
-0.013616386 0.70599997 -0.054465543 1.4551736e-38 309 284
-0.012343466 0.704 -0.054311249 1.5560087e-38 310 284
-0.01109334 0.70300001 -0.054234106 1.5099109e-38 311 284
-0.0098326923 0.70099998 -0.054079808 1.5373524e-38 312 284
-0.0085667865 0.69800001 -0.053848371 1.5373524e-38 313 284
-0.00733244 0.69700003 -0.053771228 1.5373524e-38 314 284
-0.0061015999 0.69599998 -0.053694077 1.5373524e-38 315 284
-0.0048672534 0.69400001 -0.053539783 1.5372805e-38 316 284
-0.0036504399 0.69400001 -0.053539783 1.5280609e-38 317 284
-0.0024336267 0.69400001 -0.053539783 1.537137e-38 318 284
-0.00121506 0.69300002 -0.053462639 1.5187339e-38 319 284
0 0.69300002 -0.053462639 1.5278102e-38 320 284
0.0012115532 0.69099998 -0.053308345 1.5278102e-38 321 284
0.0024195998 0.69 -0.053231198 1.5001874e-38 322 284
0.0036188802 0.68800002 -0.053076908 1.4909678e-38 323 284
0.0048181596 0.68699998 -0.052999757 1.4908243e-38 324 284
0.0060139326 0.68599999 -0.05292261 1.4632017e-38 325 284
0.0071956799 0.68400002 -0.05276832 1.4447624e-38 326 284
0.0083949603 0.68400002 -0.05276832 1.4447624e-38 327 284
0.0095942402 0.68400002 -0.05276832 1.3896252e-38 328 284
0.01077774 0.68300003 -0.052691177 1.3804057e-38 329 284
0.011975267 0.68300003 -0.052691177 1.3528909e-38 330 284
0.013172794 0.68300003 -0.052691177 1.3344516e-38 331 284
0.014370319 0.68300003 -0.052691177 1.3251246e-38 332 284
0.015567848 0.68300003 -0.052691177 1.2790626e-38 333 284
0.016765373 0.68300003 -0.052691177 1.2330384e-38 334 284
0.017962901 0.68300003 -0.052691177 1.2054157e-38 335 284
0.019160427 0.68300003 -0.052691177 1.2146719e-38 336 284
0.020357953 0.68300003 -0.052691177 1.2422947e-38 337 284
0.02155548 0.68300003 -0.052691177 1.2698094e-38 338 284
0.022786319 0.68400002 -0.05276832 1.2605897e-38 339 284
0.0239856 0.68400002 -0.05276832 1.2788135e-38 340 284
0.025184879 0.68400002 -0.05276832 1.2788135e-38 341 284
0.02638416 0.68400002 -0.05276832 1.2512627e-38 342 284
0.027583439 0.68400002 -0.05276832 1.22364e-38 343 284
0.02886688 0.68599999 -0.05292261 1.1960172e-38 344 284
0.030069664 0.68599999 -0.05292261 1.1776141e-38 345 284
0.031272452 0.68599999 -0.05292261 1.1133655e-38 346 284
0.032522578 0.68699998 -0.052999757 1.104146e-38 347 284
0.033727121 0.68699998 -0.052999757 1.0857797e-38 348 284
0.034931656 0.68699998 -0.052999757 1.0949993e-38 349 284
0.036136195 0.68699998 -0.052999757 1.0675567e-38 350 284
0.037340738 0.68699998 -0.052999757 1.0767764e-38 351 284
0.038545277 0.68699998 -0.052999757 1.0584817e-38 352 284
0.039749816 0.68699998 -0.052999757 1.0492622e-38 353 284
0.040954359 0.68699998 -0.052999757 1.0491548e-38 354 284
0.042220265 0.68800002 -0.053076908 1.0399353e-38 355 284
0.043426562 0.68800002 -0.053076908 1.0399353e-38 356 284
0.044632856 0.68800002 -0.053076908 1.0491548e-38 357 284
0.045972396 0.69 -0.053231198 1.0767416e-38 358 284
0.047250576 0.69099998 -0.053308345 1.0859612e-38 359 284
0.048602402 0.69300002 -0.053462639 1.0677018e-38 360 284
0.049889345 0.69400001 -0.053539783 1.0677018e-38 361 284
0.051253434 0.69599998 -0.053694077 1.0401152e-38 362 284
0.052624546 0.69800001 -0.053848371 1.0401152e-38 363 284
0.054002665 0.69999999 -0.054002665 1.0127082e-38 364 284
0.055229999 0.69999999 -0.054002665 1.0127082e-38 365 284
0.056457333 0.69999999 -0.054002665 1.0308621e-38 366 284
0.057767071 0.70099998 -0.054079808 1.307449e-38 367 284
0.058996156 0.70099998 -0.054079808 1.4566559e-38 368 284
-0.016092092 0.70599997 -0.055703394 1.474913e-38 307 285
-0.014854239 0.70599997 -0.055703394 1.4367342e-38 308 285
-0.013616386 0.70599997 -0.055703394 1.4459538e-38 309 285
-0.012343466 0.704 -0.055545598 1.5467171e-38 310 285
-0.01109334 0.70300001 -0.0554667 1.5190225e-38 311 285
-0.0098186666 0.69999999 -0.055229999 1.5465721e-38 312 285
-0.0085667865 0.69800001 -0.0550722 1.5281328e-38 313 285
-0.00733244 0.69700003 -0.054993302 1.5096588e-38 314 285
-0.0061015999 0.69599998 -0.054914396 1.5004392e-38 315 285
-0.0048672534 0.69400001 -0.054756597 1.4911846e-38 316 285
-0.0036504399 0.69400001 -0.054756597 1.4911846e-38 317 285
-0.00243012 0.69300002 -0.054677699 1.5002963e-38 318 285
-0.00121506 0.69300002 -0.054677699 1.4818932e-38 319 285
0 0.69099998 -0.054519895 1.4910044e-38 320 285
0.0012097999 0.69 -0.054440998 1.4817848e-38 321 285
0.0024125867 0.68800002 -0.054283202 1.4725653e-38 322 285
0.0036188802 0.68800002 -0.054283202 1.4449426e-38 323 285
0.0048111463 0.68599999 -0.054125395 1.4356154e-38 324 285
0.0060139326 0.68599999 -0.054125395 1.4171763e-38 325 285
0.0071956799 0.68400002 -0.053967599 1.4171407e-38 326 285
