# .PCD v.7 - Point Cloud Data file format
FIELDS x y z rgb imX imY
SIZE 4 4 4 4 4 4
TYPE F F F F F F
COUNT 1 1 1 1 1 1
WIDTH 833
HEIGHT 1
VIEWPOINT 0 0 0 1 0 0 0
POINTS 833
DATA ascii
0.0012045399 0.68699998 -0.051795214 1.3249476e-38 321 283
0.0024090798 0.68699998 -0.051795214 1.3709355e-38 322 283
0.00360836 0.68599999 -0.051719822 1.3893747e-38 323 283
0.0048111463 0.68599999 -0.051719822 1.3710785e-38 324 283
0.0060139326 0.68599999 -0.051719822 1.3710785e-38 325 283
0.0072167199 0.68599999 -0.051719822 1.3801185e-38 326 283
0.0083949603 0.68400002 -0.051569041 1.3801185e-38 327 283
0.0095942402 0.68400002 -0.051569041 1.3616438e-38 328 283
0.010825079 0.68599999 -0.051719822 1.3616438e-38 329 283
0.012027865 0.68599999 -0.051719822 1.3524243e-38 330 283
0.013249939 0.68699998 -0.051795214 1.3616438e-38 331 283
0.014454478 0.68699998 -0.051795214 1.3433123e-38 332 283
0.015659019 0.68699998 -0.051795214 1.3617154e-38 333 283
0.01686356 0.68699998 -0.051795214 1.3434198e-38 334 283
0.0180944 0.68800002 -0.051870614 1.3434198e-38 335 283
0.019300694 0.68800002 -0.051870614 1.352711e-38 336 283
0.020506985 0.68800002 -0.051870614 1.3619305e-38 337 283
0.021713281 0.68800002 -0.051870614 1.3436713e-38 338 283
0.022986198 0.69 -0.052021399 1.3436713e-38 339 283
0.024195999 0.69 -0.052021399 1.3345244e-38 340 283
0.025442619 0.69099998 -0.052096792 1.3345244e-38 341 283
0.026654173 0.69099998 -0.052096792 1.3436363e-38 342 283
0.027865725 0.69099998 -0.052096792 1.3344166e-38 343 283
0.029161438 0.69300002 -0.05224758 1.3343091e-38 344 283
0.030420333 0.69400001 -0.052322973 1.3435287e-38 345 283
0.031637147 0.69400001 -0.052322973 1.3528205e-38 346 283
0.032948639 0.69599998 -0.052473757 1.3896987e-38 347 283
0.034218054 0.69700003 -0.052549154 1.3530722e-38 348 283
0.035490975 0.69800001 -0.052624546 1.3807669e-38 349 283
0.036819998 0.69999999 -0.052775331 1.3625442e-38 350 283
0.038101684 0.70099998 -0.052850723 1.3809834e-38 351 283
0.039330769 0.70099998 -0.052850723 1.390312e-38 352 283
0.040733438 0.704 -0.053076904 1.4271904e-38 353 283
0.042087011 0.70599997 -0.053227689 1.4094387e-38 354 283
0.043324865 0.70599997 -0.053227689 1.7874408e-38 355 283
-0.030814834 0.70300001 -0.054234106 1.1050855e-38 295 284
-0.029582238 0.70300001 -0.054234106 1.2243247e-38 296 284
-0.028349647 0.70300001 -0.054234106 1.2058854e-38 297 284
-0.027039904 0.70099998 -0.054079808 1.2241079e-38 298 284
-0.025810819 0.70099998 -0.054079808 1.2241079e-38 299 284
-0.024546666 0.69999999 -0.054002665 1.2424394e-38 300 284
-0.023252707 0.69800001 -0.053848371 1.2332199e-38 301 284
-0.02199732 0.69700003 -0.053771228 1.2331129e-38 302 284
-0.020775247 0.69700003 -0.053771228 1.2423325e-38 303 284
-0.019525118 0.69599998 -0.053694077 1.2515523e-38 304 284
-0.018304799 0.69599998 -0.053694077 1.279175e-38 305 284
-0.017035386 0.69400001 -0.053539783 1.2517312e-38 306 284
-0.015818574 0.69400001 -0.053539783 1.2241085e-38 307 284
-0.014580719 0.69300002 -0.053462639 1.2422952e-38 308 284
-0.01336566 0.69300002 -0.053462639 1.205417e-38 309 284
-0.012150601 0.69300002 -0.053462639 1.1961258e-38 310 284
-0.01090398 0.69099998 -0.053308345 1.1961258e-38 311 284
-0.0096783992 0.69 -0.053231198 1.2235694e-38 312 284
-0.0084686 0.69 -0.053231198 1.2051301e-38 313 284
-0.0072377604 0.68800002 -0.053076908 1.1776879e-38 314 284
-0.0060314666 0.68800002 -0.053076908 1.159249e-38 315 284
-0.0048251734 0.68800002 -0.053076908 1.1409896e-38 316 284
-0.0036188802 0.68800002 -0.053076908 1.1317701e-38 317 284
-0.0024125867 0.68800002 -0.053076908 1.1683608e-38 318 284
-0.0012062934 0.68800002 -0.053076908 1.1868e-38 319 284
0 0.68800002 -0.053076908 1.2603753e-38 320 284
0.0012045399 0.68699998 -0.052999757 1.3156927e-38 321 284
0.0024090798 0.68699998 -0.052999757 1.3433494e-38 322 284
0.00360836 0.68599999 -0.05292261 1.3617886e-38 323 284
0.0048111463 0.68599999 -0.05292261 1.3709355e-38 324 284
0.0059964 0.68400002 -0.05276832 1.361716e-38 325 284
0.0071956799 0.68400002 -0.05276832 1.3616441e-38 326 284
0.0083949603 0.68400002 -0.05276832 1.3616441e-38 327 284
0.0095942402 0.68400002 -0.05276832 1.3523887e-38 328 284
0.01079352 0.68400002 -0.05276832 1.3523887e-38 329 284
0.0119928 0.68400002 -0.05276832 1.3249451e-38 330 284
0.013230653 0.68599999 -0.05292261 1.3065418e-38 331 284
0.014454478 0.68699998 -0.052999757 1.3340925e-38 332 284
0.015659019 0.68699998 -0.052999757 1.3340925e-38 333 284
0.01686356 0.68699998 -0.052999757 1.3249451e-38 334 284
0.0180944 0.68800002 -0.053076908 1.3249451e-38 335 284
0.019300694 0.68800002 -0.053076908 1.3250533e-38 336 284
0.020506985 0.68800002 -0.053076908 1.3250533e-38 337 284
0.021713281 0.68800002 -0.053076908 1.3343444e-38 338 284
0.022986198 0.69 -0.053231198 1.3343444e-38 339 284
0.024195999 0.69 -0.053231198 1.3435643e-38 340 284
0.025405798 0.69 -0.053231198 1.3435643e-38 341 284
0.026654173 0.69099998 -0.053308345 1.3343091e-38 342 284
0.027865725 0.69099998 -0.053308345 1.3343091e-38 343 284
0.029161438 0.69300002 -0.053462639 1.3251612e-38 344 284
0.030420333 0.69400001 -0.053539783 1.3344166e-38 345 284
0.031637147 0.69400001 -0.053539783 1.3253051e-38 346 284
0.032948639 0.69599998 -0.053694077 1.3529277e-38 347 284
0.034218054 0.69700003 -0.053771228 1.3438882e-38 348 284
0.035490975 0.69800001 -0.053848371 1.3623275e-38 349 284
0.036819998 0.69999999 -0.054002665 1.3349931e-38 350 284
0.038101684 0.70099998 -0.054079808 1.3534322e-38 351 284
0.039330769 0.70099998 -0.054079808 1.3628688e-38 352 284
0.040675577 0.70300001 -0.054234106 1.3628688e-38 353 284
0.041967787 0.704 -0.054311249 1.4185857e-38 354 284
0.043202132 0.704 -0.054311249 1.8150269e-38 355 284
-0.030814834 0.70300001 -0.0554667 1.0867543e-38 295 285
-0.029582238 0.70300001 -0.0554667 1.2151051e-38 296 285
-0.028349647 0.70300001 -0.0554667 1.1966659e-38 297 285
-0.027039904 0.70099998 -0.055308893 1.2056338e-38 298 285
-0.025773998 0.69999999 -0.055229999 1.1871945e-38 299 285
-0.024476532 0.69800001 -0.0550722 1.1963792e-38 300 285
-0.023219392 0.69700003 -0.054993302 1.1687205e-38 301 285
-0.021965759 0.69599998 -0.054914396 1.1778324e-38 302 285
-0.020745439 0.69599998 -0.054914396 1.1962717e-38 303 285
-0.019525118 0.69599998 -0.054914396 1.1963439e-38 304 285
-0.0182522 0.69400001 -0.054756597 1.214783e-38 305 285
-0.017035386 0.69400001 -0.054756597 1.2148536e-38 306 285
-0.015818574 0.69400001 -0.054756597 1.1871589e-38 307 285
-0.014580719 0.69300002 -0.054677699 1.2053454e-38 308 285
-0.01336566 0.69300002 -0.054677699 1.1776507e-38 309 285
-0.012150601 0.69300002 -0.054677699 1.1591762e-38 310 285
-0.01090398 0.69099998 -0.054519895 1.1683958e-38 311 285
-0.0096783992 0.69 -0.054440998 1.159249e-38 312 285
-0.0084686 0.69 -0.054440998 1.159249e-38 313 285
-0.0072377604 0.68800002 -0.054283202 1.1593564e-38 314 285
-0.0060314666 0.68800002 -0.054283202 1.1501369e-38 315 285
-0.0048251734 0.68800002 -0.054283202 1.1500648e-38 316 285
-0.0036188802 0.68800002 -0.054283202 1.1408453e-38 317 285
-0.0024125867 0.68800002 -0.054283202 1.1407381e-38 318 285
-0.0012062934 0.68800002 -0.054283202 1.1775805e-38 319 285
0 0.68800002 -0.054283202 1.205275e-38 320 285
0.0012045399 0.68699998 -0.054204296 1.251337e-38 321 285
0.0024090798 0.68699998 -0.054204296 1.306545e-38 322 285
0.00360836 0.68599999 -0.054125395 1.3157646e-38 323 285
0.0048111463 0.68599999 -0.054125395 1.3340946e-38 324 285
0.0059964 0.68400002 -0.053967599 1.3248391e-38 325 285
0.0071956799 0.68400002 -0.053967599 1.3248744e-38 326 285
0.0083949603 0.68400002 -0.053967599 1.3064713e-38 327 285
0.0095942402 0.68400002 -0.053967599 1.3065065e-38 328 285
0.01079352 0.68400002 -0.053967599 1.3065065e-38 329 285
0.0119928 0.68400002 -0.053967599 1.3249451e-38 330 285
0.013230653 0.68599999 -0.054125395 1.3065418e-38 331 285
0.014454478 0.68699998 -0.054204296 1.3065418e-38 332 285
0.015659019 0.68699998 -0.054204296 1.3065418e-38 333 285
0.01686356 0.68699998 -0.054204296 1.2881037e-38 334 285
0.018068098 0.68699998 -0.054204296 1.2973234e-38 335 285
0.019272638 0.68699998 -0.054204296 1.288212e-38 336 285
0.020506985 0.68800002 -0.054283202 1.3066151e-38 337 285
0.021713281 0.68800002 -0.054283202 1.2975388e-38 338 285
0.022919573 0.68800002 -0.054283202 1.2975388e-38 339 285
0.024195999 0.69 -0.054440998 1.3067586e-38 340 285
0.025405798 0.69 -0.054440998 1.3067586e-38 341 285
0.026654173 0.69099998 -0.054519895 1.3250898e-38 342 285
0.027865725 0.69099998 -0.054519895 1.3250898e-38 343 285
0.029161438 0.69300002 -0.054677699 1.2976106e-38 344 285
0.030420333 0.69400001 -0.054756597 1.3068302e-38 345 285
0.031637147 0.69400001 -0.054756597 1.2977185e-38 346 285
0.032948639 0.69599998 -0.054914396 1.3161218e-38 347 285
0.034218054 0.69700003 -0.054993302 1.31623e-38 348 285
0.035490975 0.69800001 -0.0550722 1.3530722e-38 349 285
0.036819998 0.69999999 -0.055229999 1.3258101e-38 350 285
0.038101684 0.70099998 -0.055308893 1.3626885e-38 351 285
0.039330769 0.70099998 -0.055308893 1.3445387e-38 352 285
0.040675577 0.70300001 -0.0554667 1.335319e-38 353 285
0.041967787 0.704 -0.055545598 1.4367735e-38 354 285
0.043202132 0.704 -0.055545598 1.8424342e-38 355 285
-0.030814834 0.70300001 -0.056699295 1.114377e-38 295 286
-0.029582238 0.70300001 -0.056699295 1.1967752e-38 296 286
-0.028349647 0.70300001 -0.056699295 1.1599328e-38 297 286
-0.027039904 0.70099998 -0.056537982 1.1687925e-38 298 286
-0.025773998 0.69999999 -0.056457333 1.1503532e-38 299 286
-0.024476532 0.69800001 -0.056296028 1.1410971e-38 300 286
-0.023219392 0.69700003 -0.056215372 1.1318417e-38 301 286
-0.021965759 0.69599998 -0.056134716 1.1592846e-38 302 286
-0.020745439 0.69599998 -0.056134716 1.1776877e-38 303 286
-0.019525118 0.69599998 -0.056134716 1.1869072e-38 304 286
-0.0182522 0.69400001 -0.055973411 1.2053822e-38 305 286
-0.017035386 0.69400001 -0.055973411 1.2328962e-38 306 286
-0.015818574 0.69400001 -0.055973411 1.214457e-38 307 286
-0.01460176 0.69400001 -0.055973411 1.2142768e-38 308 286
-0.01336566 0.69300002 -0.055892758 1.1866542e-38 309 286
-0.012115533 0.69099998 -0.055731449 1.1591043e-38 310 286
-0.01090398 0.69099998 -0.055731449 1.1498848e-38 311 286
-0.0096783992 0.69 -0.055650797 1.1500293e-38 312 286
-0.0084686 0.69 -0.055650797 1.159249e-38 313 286
-0.0072377604 0.68800002 -0.055489492 1.1500646e-38 314 286
-0.0060314666 0.68800002 -0.055489492 1.1592841e-38 315 286
-0.0048251734 0.68800002 -0.055489492 1.1684314e-38 316 286
-0.0036188802 0.68800002 -0.055489492 1.1407728e-38 317 286
-0.0024125867 0.68800002 -0.055489492 1.104146e-38 318 286
-0.0012062934 0.68800002 -0.055489492 1.0949264e-38 319 286
0 0.68800002 -0.055489492 1.2051652e-38 320 286
0.0012045399 0.68699998 -0.055408835 1.2420075e-38 321 286
0.0024090798 0.68699998 -0.055408835 1.2971084e-38 322 286
0.00360836 0.68599999 -0.055328183 1.3155475e-38 323 286
0.0048111463 0.68599999 -0.055328183 1.2972519e-38 324 286
0.0059964 0.68400002 -0.055166878 1.2972519e-38 325 286
0.0071956799 0.68400002 -0.055166878 1.3248382e-38 326 286
0.0083949603 0.68400002 -0.055166878 1.3155826e-38 327 286
0.0095942402 0.68400002 -0.055166878 1.3156535e-38 328 286
0.01079352 0.68400002 -0.055166878 1.324873e-38 329 286
0.0119928 0.68400002 -0.055166878 1.3156166e-38 330 286
0.013230653 0.68599999 -0.055328183 1.3340197e-38 331 286
0.014454478 0.68699998 -0.055408835 1.3156529e-38 332 286
0.015659019 0.68699998 -0.055408835 1.2972138e-38 333 286
0.01686356 0.68699998 -0.055408835 1.2971785e-38 334 286
0.018068098 0.68699998 -0.055408835 1.2971785e-38 335 286
0.019272638 0.68699998 -0.055408835 1.2789191e-38 336 286
0.020506985 0.68800002 -0.055489492 1.2881387e-38 337 286
0.021713281 0.68800002 -0.055489492 1.3066138e-38 338 286
0.022919573 0.68800002 -0.055489492 1.3066138e-38 339 286
0.024195999 0.69 -0.055650797 1.3066501e-38 340 286
0.025405798 0.69 -0.055650797 1.3066501e-38 341 286
0.026654173 0.69099998 -0.055731449 1.31587e-38 342 286
0.027946379 0.69300002 -0.055892758 1.31587e-38 343 286
0.029161438 0.69300002 -0.055892758 1.2975032e-38 344 286
0.030420333 0.69400001 -0.055973411 1.3067586e-38 345 286
0.031637147 0.69400001 -0.055973411 1.2975388e-38 346 286
0.032948639 0.69599998 -0.056134716 1.334381e-38 347 286
0.034218054 0.69700003 -0.056215372 1.3161218e-38 348 286
0.035490975 0.69800001 -0.056296028 1.3530359e-38 349 286
0.036819998 0.69999999 -0.056457333 1.3074064e-38 350 286
0.038101684 0.70099998 -0.056537982 1.3442845e-38 351 286
0.039330769 0.70099998 -0.056537982 1.3812718e-38 352 286
0.040675577 0.70300001 -0.056699295 1.353649e-38 353 286
0.041967787 0.704 -0.056779943 1.4553195e-38 354 286
0.043202132 0.704 -0.056779943 1.8425411e-38 355 286
-0.030858666 0.704 -0.058014292 1.1236326e-38 295 287
-0.029582238 0.70300001 -0.057931885 1.2152502e-38 296 287
-0.028349647 0.70300001 -0.057931885 1.1599328e-38 297 287
-0.027039904 0.70099998 -0.057767071 1.1322372e-38 298 287
-0.025700359 0.69800001 -0.057519849 1.095323e-38 299 287
-0.024476532 0.69800001 -0.057519849 1.1043274e-38 300 287
-0.023219392 0.69700003 -0.05743745 1.0674851e-38 301 287
-0.02199732 0.69700003 -0.05743745 1.0949287e-38 302 287
-0.020775247 0.69700003 -0.05743745 1.0949287e-38 303 287
-0.019525118 0.69599998 -0.057355035 1.1041485e-38 304 287
-0.0182522 0.69400001 -0.057190225 1.1317713e-38 305 287
-0.017035386 0.69400001 -0.057190225 1.1593211e-38 306 287
-0.015818574 0.69400001 -0.057190225 1.1501016e-38 307 287
-0.01460176 0.69400001 -0.057190225 1.1407731e-38 308 287
-0.01336566 0.69300002 -0.057107817 1.1315536e-38 309 287
-0.012115533 0.69099998 -0.056942999 1.1040393e-38 310 287
-0.01090398 0.69099998 -0.056942999 1.1224785e-38 311 287
-0.0096783992 0.69 -0.0568606 1.094964e-38 312 287
-0.0084686 0.69 -0.0568606 1.1041835e-38 313 287
-0.0072377604 0.68800002 -0.056695789 1.1225506e-38 314 287
-0.0060314666 0.68800002 -0.056695789 1.1132952e-38 315 287
-0.0048251734 0.68800002 -0.056695789 1.1224782e-38 316 287
-0.0036188802 0.68800002 -0.056695789 1.1132586e-38 317 287
-0.0024125867 0.68800002 -0.056695789 1.1408435e-38 318 287
-0.0012062934 0.68800002 -0.056695789 1.1592466e-38 319 287
0 0.68800002 -0.056695789 1.1500996e-38 320 287
0.0012045399 0.68699998 -0.056613375 1.1869779e-38 321 287
0.0024090798 0.68699998 -0.056613375 1.2328964e-38 322 287
0.00360836 0.68599999 -0.056530971 1.242116e-38 323 287
0.0048111463 0.68599999 -0.056530971 1.2697374e-38 324 287
0.0059964 0.68400002 -0.056366164 1.2789571e-38 325 287
0.0071956799 0.68400002 -0.056366164 1.2973234e-38 326 287
0.0083949603 0.68400002 -0.056366164 1.2881037e-38 327 287
0.0095942402 0.68400002 -0.056366164 1.288139e-38 328 287
0.01079352 0.68400002 -0.056366164 1.288139e-38 329 287
0.0119928 0.68400002 -0.056366164 1.2789191e-38 330 287
0.013230653 0.68599999 -0.056530971 1.2789191e-38 331 287
0.01443344 0.68599999 -0.056530971 1.2788119e-38 332 287
0.015659019 0.68699998 -0.056613375 1.2788119e-38 333 287
0.01686356 0.68699998 -0.056613375 1.2695927e-38 334 287
0.018068098 0.68699998 -0.056613375 1.2788122e-38 335 287
0.019272638 0.68699998 -0.056613375 1.2513333e-38 336 287
0.020506985 0.68800002 -0.056695789 1.2697725e-38 337 287
0.021713281 0.68800002 -0.056695789 1.2515133e-38 338 287
0.022919573 0.68800002 -0.056695789 1.2607328e-38 339 287
0.024195999 0.69 -0.0568606 1.2607325e-38 340 287
0.025405798 0.69 -0.0568606 1.2699521e-38 341 287
0.026654173 0.69099998 -0.056942999 1.2883555e-38 342 287
0.027946379 0.69300002 -0.057107817 1.2883555e-38 343 287
0.029203519 0.69400001 -0.057190225 1.2699527e-38 344 287
0.030420333 0.69400001 -0.057190225 1.2883558e-38 345 287
0.031728316 0.69599998 -0.057355035 1.2700608e-38 346 287
0.032948639 0.69599998 -0.057355035 1.2792804e-38 347 287
0.034218054 0.69700003 -0.05743745 1.2886802e-38 348 287
0.035490975 0.69800001 -0.057519849 1.334778e-38 349 287
0.036819998 0.69999999 -0.05768466 1.307408e-38 350 287
0.038101684 0.70099998 -0.057767071 1.3535058e-38 351 287
0.039442986 0.70300001 -0.057931885 1.3353913e-38 352 287
0.040675577 0.70300001 -0.057931885 1.3538305e-38 353 287
0.041967787 0.704 -0.058014292 1.4830511e-38 354 287
0.043202132 0.704 -0.058014292 1.8794923e-38 355 287
-0.030858666 0.704 -0.059248637 1.1145575e-38 295 288
-0.029624319 0.704 -0.059248637 1.1601499e-38 296 288
-0.028349647 0.70300001 -0.059164476 1.1324553e-38 297 288
-0.027039904 0.70099998 -0.058996156 1.0954328e-38 298 288
-0.025700359 0.69800001 -0.058743682 1.0585546e-38 299 288
-0.024476532 0.69800001 -0.058743682 1.0950361e-38 300 288
-0.023219392 0.69700003 -0.05865952 1.0673776e-38 301 288
-0.02199732 0.69700003 -0.05865952 1.0764883e-38 302 288
-0.020775247 0.69700003 -0.05865952 1.1041109e-38 303 288
-0.019525118 0.69599998 -0.058575355 1.1224782e-38 304 288
-0.0182522 0.69400001 -0.058407038 1.1408813e-38 305 288
-0.017035386 0.69400001 -0.058407038 1.1500648e-38 306 288
-0.015795778 0.69300002 -0.058322877 1.1408453e-38 307 288
-0.014580719 0.69300002 -0.058322877 1.1407734e-38 308 288
-0.01336566 0.69300002 -0.058322877 1.131518e-38 309 288
-0.012115533 0.69099998 -0.058154557 1.0764527e-38 310 288
-0.01090398 0.69099998 -0.058154557 1.0948558e-38 311 288
-0.0096783992 0.69 -0.058070395 1.0948564e-38 312 288
-0.0084686 0.69 -0.058070395 1.0764174e-38 313 288
-0.0072587994 0.69 -0.058070395 1.0764176e-38 314 288
-0.0060314666 0.68800002 -0.057902083 1.0764176e-38 315 288
-0.0048251734 0.68800002 -0.057902083 1.0948195e-38 316 288
-0.0036188802 0.68800002 -0.057902083 1.1132586e-38 317 288
-0.0024125867 0.68800002 -0.057902083 1.113329e-38 318 288
-0.0012045399 0.68699998 -0.057817914 1.1225485e-38 319 288
0 0.68699998 -0.057817914 1.1501349e-38 320 288
0.0012045399 0.68699998 -0.057817914 1.1593545e-38 321 288
0.0024090798 0.68699998 -0.057817914 1.2144921e-38 322 288
0.00360836 0.68599999 -0.057733759 1.2329312e-38 323 288
0.0048111463 0.68599999 -0.057733759 1.2605176e-38 324 288
0.0059964 0.68400002 -0.057565439 1.2697371e-38 325 288
0.0071956799 0.68400002 -0.057565439 1.2788844e-38 326 288
0.0083949603 0.68400002 -0.057565439 1.288104e-38 327 288
0.0095942402 0.68400002 -0.057565439 1.288104e-38 328 288
0.01079352 0.68400002 -0.057565439 1.2788844e-38 329 288
0.0119928 0.68400002 -0.057565439 1.2880321e-38 330 288
0.01319208 0.68400002 -0.057565439 1.2788125e-38 331 288
0.01443344 0.68599999 -0.057733759 1.2695927e-38 332 288
0.015636226 0.68599999 -0.057733759 1.2603731e-38 333 288
0.01686356 0.68699998 -0.057817914 1.2603728e-38 334 288
0.018068098 0.68699998 -0.057817914 1.2603728e-38 335 288
0.019272638 0.68699998 -0.057817914 1.2603731e-38 336 288
0.020477179 0.68699998 -0.057817914 1.2788122e-38 337 288
0.021713281 0.68800002 -0.057902083 1.2605173e-38 338 288
0.022919573 0.68800002 -0.057902083 1.2605173e-38 339 288
0.024195999 0.69 -0.058070395 1.2605892e-38 340 288
0.025405798 0.69 -0.058070395 1.2698089e-38 341 288
0.026654173 0.69099998 -0.058154557 1.288212e-38 342 288
0.027946379 0.69300002 -0.058322877 1.288212e-38 343 288
0.029203519 0.69400001 -0.058407038 1.2882839e-38 344 288
0.030420333 0.69400001 -0.058407038 1.2790643e-38 345 288
0.031728316 0.69599998 -0.058575355 1.2883558e-38 346 288
0.032948639 0.69599998 -0.058575355 1.2975753e-38 347 288
0.034218054 0.69700003 -0.05865952 1.279424e-38 348 288
0.035490975 0.69800001 -0.058743682 1.3347413e-38 349 288
0.036819998 0.69999999 -0.058911994 1.2982587e-38 350 288
0.038101684 0.70099998 -0.058996156 1.335173e-38 351 288
0.039442986 0.70300001 -0.059164476 1.3537212e-38 352 288
0.040675577 0.70300001 -0.059164476 1.4090027e-38 353 288
0.041967787 0.704 -0.059248637 1.4924507e-38 354 288
0.043202132 0.704 -0.059248637 1.9257343e-38 355 288
-0.030858666 0.704 -0.060482983 1.1330685e-38 295 289
-0.029624319 0.704 -0.060482983 1.1326351e-38 296 289
-0.028389972 0.704 -0.060482983 1.114196e-38 297 289
-0.027117053 0.70300001 -0.06039707 1.1229836e-38 298 289
-0.025773998 0.69999999 -0.060139328 1.0768858e-38 299 289
-0.024476532 0.69800001 -0.059967503 1.0767049e-38 300 289
-0.023219392 0.69700003 -0.05988159 1.0674495e-38 301 289
-0.02199732 0.69700003 -0.05988159 1.0581931e-38 302 289
-0.020775247 0.69700003 -0.05988159 1.0858516e-38 303 289
-0.019525118 0.69599998 -0.059795678 1.1133305e-38 304 289
-0.0182522 0.69400001 -0.059623852 1.1041109e-38 305 289
-0.017035386 0.69400001 -0.059623852 1.1040756e-38 306 289
-0.015795778 0.69300002 -0.05953794 1.0948561e-38 307 289
-0.014580719 0.69300002 -0.05953794 1.1040037e-38 308 289
-0.01336566 0.69300002 -0.05953794 1.0947842e-38 309 289
-0.012115533 0.69099998 -0.059366114 1.0948561e-38 310 289
-0.01090398 0.69099998 -0.059366114 1.0672334e-38 311 289
-0.0096783992 0.69 -0.059280202 1.0212443e-38 312 289
-0.0084686 0.69 -0.059280202 1.0212443e-38 313 289
-0.0072377604 0.68800002 -0.059108373 1.0028059e-38 314 289
-0.0060314666 0.68800002 -0.059108373 1.0028059e-38 315 289
-0.0048181596 0.68699998 -0.059022456 1.0121324e-38 316 289
-0.0036136196 0.68699998 -0.059022456 1.0213521e-38 317 289
-0.0024090798 0.68699998 -0.059022456 1.1316252e-38 318 289
-0.0012045399 0.68699998 -0.059022456 1.1500643e-38 319 289
0 0.68699998 -0.059022456 1.1593192e-38 320 289
0.0012045399 0.68699998 -0.059022456 1.1777583e-38 321 289
0.0024090798 0.68699998 -0.059022456 1.168611e-38 322 289
0.00360836 0.68599999 -0.058936544 1.1778306e-38 323 289
0.0048111463 0.68599999 -0.058936544 1.1961977e-38 324 289
0.0059964 0.68400002 -0.058764715 1.2054173e-38 325 289
0.0071956799 0.68400002 -0.058764715 1.2605179e-38 326 289
0.0083949603 0.68400002 -0.058764715 1.2605179e-38 327 289
0.0095942402 0.68400002 -0.058764715 1.251298e-38 328 289
0.01079352 0.68400002 -0.058764715 1.251298e-38 329 289
0.0119928 0.68400002 -0.058764715 1.2420429e-38 330 289
0.01319208 0.68400002 -0.058764715 1.2236397e-38 331 289
0.01443344 0.68599999 -0.058936544 1.2420066e-38 332 289
0.015636226 0.68599999 -0.058936544 1.2420066e-38 333 289
0.01686356 0.68699998 -0.059022456 1.2327867e-38 334 289
0.018068098 0.68699998 -0.059022456 1.2327867e-38 335 289
0.019272638 0.68699998 -0.059022456 1.2327511e-38 336 289
0.020477179 0.68699998 -0.059022456 1.2420066e-38 337 289
0.021713281 0.68800002 -0.059108373 1.2237835e-38 338 289
0.022919573 0.68800002 -0.059108373 1.2237835e-38 339 289
0.024195999 0.69 -0.059280202 1.2330034e-38 340 289
0.025405798 0.69 -0.059280202 1.2330034e-38 341 289
0.026654173 0.69099998 -0.059366114 1.2422226e-38 342 289
0.027946379 0.69300002 -0.05953794 1.2514782e-38 343 289
0.029203519 0.69400001 -0.059623852 1.2790287e-38 344 289
0.030420333 0.69400001 -0.059623852 1.2790287e-38 345 289
0.031728316 0.69599998 -0.059795678 1.2515501e-38 346 289
0.032948639 0.69599998 -0.059795678 1.2792088e-38 347 289
0.034218054 0.69700003 -0.05988159 1.2518742e-38 348 289
0.035490975 0.69800001 -0.059967503 1.3071916e-38 349 289
0.036819998 0.69999999 -0.060139328 1.2891118e-38 350 289
0.038101684 0.70099998 -0.060225245 1.32599e-38 351 289
0.039442986 0.70300001 -0.06039707 1.3812368e-38 352 289
0.040733438 0.704 -0.060482983 1.4549933e-38 353 289
0.041967787 0.704 -0.060482983 1.5570241e-38 354 289
0.043202132 0.704 -0.060482983 1.9719403e-38 355 289
-0.030858666 0.704 -0.061717331 1.1423954e-38 295 290
-0.029624319 0.704 -0.061717331 1.1325259e-38 296 290
-0.028389972 0.704 -0.061717331 1.1325259e-38 297 290
-0.027117053 0.70300001 -0.061629668 1.1413862e-38 298 290
-0.025810819 0.70099998 -0.06145433 1.1045078e-38 299 290
-0.024546666 0.69999999 -0.061366666 1.0859243e-38 300 290
-0.023219392 0.69700003 -0.061103668 1.0767046e-38 301 290
-0.02199732 0.69700003 -0.061103668 1.094999e-38 302 290
-0.020775247 0.69700003 -0.061103668 1.0857794e-38 303 290
-0.019525118 0.69599998 -0.061015997 1.1041109e-38 304 290
-0.0182522 0.69400001 -0.060840666 1.0948914e-38 305 290
-0.017035386 0.69400001 -0.060840666 1.0764174e-38 306 290
-0.015795778 0.69300002 -0.060752999 1.0671978e-38 307 290
-0.014580719 0.69300002 -0.060752999 1.0855649e-38 308 290
-0.01336566 0.69300002 -0.060752999 1.0947845e-38 309 290
-0.012150601 0.69300002 -0.060752999 1.0672334e-38 310 290
-0.010888199 0.69 -0.060489997 1.0580137e-38 311 290
-0.0096503468 0.68800002 -0.060314666 1.0302841e-38 312 290
-0.0084440531 0.68800002 -0.060314666 1.0026614e-38 313 290
-0.0072377604 0.68800002 -0.060314666 9.6585646e-39 314 290
-0.0060226996 0.68699998 -0.060226995 9.6585646e-39 315 290
-0.0048181596 0.68699998 -0.060226995 9.5674479e-39 316 290
-0.0036136196 0.68699998 -0.060226995 9.9362291e-39 317 290
-0.0024090798 0.68699998 -0.060226995 1.06727e-38 318 290
-0.0012045399 0.68699998 -0.060226995 1.0949287e-38 319 290
0 0.68699998 -0.060226995 1.1317701e-38 320 290
0.0012045399 0.68699998 -0.060226995 1.1317701e-38 321 290
0.0024090798 0.68699998 -0.060226995 1.1317701e-38 322 290
0.0036136196 0.68699998 -0.060226995 1.1317701e-38 323 290
0.0048111463 0.68599999 -0.060139328 1.1318773e-38 324 290
0.0059964 0.68400002 -0.059964001 1.1318773e-38 325 290
0.0071956799 0.68400002 -0.059964001 1.1961971e-38 326 290
0.0084195063 0.68599999 -0.060139328 1.1961971e-38 327 290
0.0096222926 0.68599999 -0.060139328 1.2144918e-38 328 290
0.010825079 0.68599999 -0.060139328 1.2144918e-38 329 290
0.012027865 0.68599999 -0.060139328 1.2236397e-38 330 290
0.013230653 0.68599999 -0.060139328 1.2236397e-38 331 290
0.01443344 0.68599999 -0.060139328 1.2144202e-38 332 290
0.015636226 0.68599999 -0.060139328 1.2144202e-38 333 290
0.01686356 0.68699998 -0.060226995 1.2235317e-38 334 290
0.018068098 0.68699998 -0.060226995 1.2235317e-38 335 290
0.019272638 0.68699998 -0.060226995 1.2052725e-38 336 290
0.020506985 0.68800002 -0.060314666 1.2144921e-38 337 290
0.021713281 0.68800002 -0.060314666 1.1962327e-38 338 290
0.022986198 0.69 -0.060489997 1.2054523e-38 339 290
0.024195999 0.69 -0.060489997 1.2146719e-38 340 290
0.025405798 0.69 -0.060489997 1.2146719e-38 341 290
0.026654173 0.69099998 -0.060577665 1.2422582e-38 342 290
0.027946379 0.69300002 -0.060752999 1.2514779e-38 343 290
0.029203519 0.69400001 -0.060840666 1.2515133e-38 344 290
0.030420333 0.69400001 -0.060840666 1.2607328e-38 345 290
0.031728316 0.69599998 -0.061015997 1.2424382e-38 346 290
0.032948639 0.69599998 -0.061015997 1.2700608e-38 347 290
0.034218054 0.69700003 -0.061103668 1.2518742e-38 348 290
0.035490975 0.69800001 -0.061191335 1.3071916e-38 349 290
0.036819998 0.69999999 -0.061366666 1.3074433e-38 350 290
0.038210396 0.70300001 -0.061629668 1.335138e-38 351 290
0.039442986 0.70300001 -0.061629668 1.3902411e-38 352 290
0.040733438 0.704 -0.061717331 1.5654488e-38 353 290
0.041967787 0.704 -0.061717331 1.5851515e-38 354 290
0.043202132 0.704 -0.061717331 1.9078362e-38 355 290
-0.030858666 0.704 -0.062951677 1.216332e-38 295 291
-0.029624319 0.704 -0.062951677 1.1876991e-38 296 291
-0.028389972 0.704 -0.062951677 1.1784795e-38 297 291
-0.027117053 0.70300001 -0.062862262 1.1690442e-38 298 291
-0.025810819 0.70099998 -0.062683418 1.1322019e-38 299 291
-0.024546666 0.69999999 -0.062593997 1.1135473e-38 300 291
-0.023252707 0.69800001 -0.062415157 1.0859246e-38 301 291
-0.02199732 0.69700003 -0.062325738 1.0949993e-38 302 291
-0.020775247 0.69700003 -0.062325738 1.0857797e-38 303 291
-0.019525118 0.69599998 -0.062236317 1.1040391e-38 304 291
-0.0182522 0.69400001 -0.06205748 1.0948195e-38 305 291
-0.01701084 0.69300002 -0.061968062 1.0580857e-38 306 291
-0.015795778 0.69300002 -0.061968062 1.0580857e-38 307 291
-0.014580719 0.69300002 -0.061968062 1.0580857e-38 308 291
-0.01336566 0.69300002 -0.061968062 1.0580857e-38 309 291
-0.012115533 0.69099998 -0.061789215 1.0672334e-38 310 291
-0.010888199 0.69 -0.061699796 1.0487583e-38 311 291
-0.0096503468 0.68800002 -0.06152096 9.7521853e-39 312 291
-0.0084440531 0.68800002 -0.06152096 9.4759572e-39 313 291
-0.0072377604 0.68800002 -0.06152096 9.198664e-39 314 291
-0.0060226996 0.68699998 -0.061431535 9.198664e-39 315 291
-0.0048181596 0.68699998 -0.061431535 9.1071915e-39 316 291
-0.0036136196 0.68699998 -0.061431535 9.475974e-39 317 291
-0.0024090798 0.68699998 -0.061431535 1.0303567e-38 318 291
-0.0012045399 0.68699998 -0.061431535 1.0764545e-38 319 291
0 0.68699998 -0.061431535 1.1224432e-38 320 291
0.0012045399 0.68699998 -0.061431535 1.1408463e-38 321 291
0.0024090798 0.68699998 -0.061431535 1.094964e-38 322 291
0.0036136196 0.68699998 -0.061431535 1.0857444e-38 323 291
0.0048111463 0.68599999 -0.061342116 1.085816e-38 324 291
0.0060139326 0.68599999 -0.061342116 1.085816e-38 325 291
0.0072167199 0.68599999 -0.061342116 1.1410602e-38 326 291
0.0084195063 0.68599999 -0.061342116 1.1410602e-38 327 291
0.0096222926 0.68599999 -0.061342116 1.1869057e-38 328 291
0.010825079 0.68599999 -0.061342116 1.1961252e-38 329 291
0.012027865 0.68599999 -0.061342116 1.2144202e-38 330 291
0.013230653 0.68599999 -0.061342116 1.2144202e-38 331 291
0.014454478 0.68699998 -0.061431535 1.2052005e-38 332 291
0.015659019 0.68699998 -0.061431535 1.2144202e-38 333 291
0.01686356 0.68699998 -0.061431535 1.2052722e-38 334 291
0.018068098 0.68699998 -0.061431535 1.2052722e-38 335 291
0.019300694 0.68800002 -0.06152096 1.2053078e-38 336 291
0.020506985 0.68800002 -0.06152096 1.2145274e-38 337 291
0.021776399 0.69 -0.061699796 1.1962324e-38 338 291
0.022986198 0.69 -0.061699796 1.1962324e-38 339 291
0.024231065 0.69099998 -0.061789215 1.205452e-38 340 291
0.025442619 0.69099998 -0.061789215 1.205452e-38 341 291
0.02673132 0.69300002 -0.061968062 1.2422935e-38 342 291
0.027946379 0.69300002 -0.061968062 1.2515133e-38 343 291
0.029203519 0.69400001 -0.06205748 1.2423656e-38 344 291
0.030507999 0.69599998 -0.062236317 1.2515851e-38 345 291
0.031728316 0.69599998 -0.062236317 1.2332186e-38 346 291
0.03299598 0.69700003 -0.062325738 1.2792804e-38 347 291
0.034267146 0.69800001 -0.062415157 1.2519461e-38 348 291
0.035592664 0.69999999 -0.062593997 1.2888604e-38 349 291
0.036819998 0.69999999 -0.062593997 1.3074436e-38 350 291
0.038210396 0.70300001 -0.062862262 1.3351024e-38 351 291
0.039442986 0.70300001 -0.062862262 1.3719104e-38 352 291
0.040733438 0.704 -0.062951677 1.6484975e-38 353 291
0.041967787 0.704 -0.062951677 1.640541e-38 354 291
-0.030946331 0.70599997 -0.064368367 1.3638454e-38 295 292
-0.029708479 0.70599997 -0.064368367 1.2429809e-38 296 292
-0.028389972 0.704 -0.064186029 1.2245418e-38 297 292
-0.027117053 0.70300001 -0.064094849 1.224325e-38 298 292
-0.025773998 0.69999999 -0.063821331 1.159788e-38 299 292
-0.024476532 0.69800001 -0.063638985 1.1595365e-38 300 292
-0.023252707 0.69800001 -0.063638985 1.1226224e-38 301 292
-0.02199732 0.69700003 -0.06354782 1.085816e-38 302 292
-0.020775247 0.69700003 -0.06354782 1.0674129e-38 303 292
-0.019525118 0.69599998 -0.063456632 1.0673403e-38 304 292
-0.0182522 0.69400001 -0.063274294 1.0673403e-38 305 292
-0.01701084 0.69300002 -0.063183114 1.0398258e-38 306 292
-0.015795778 0.69300002 -0.063183114 1.0398258e-38 307 292
-0.014580719 0.69300002 -0.063183114 1.0489735e-38 308 292
-0.01336566 0.69300002 -0.063183114 1.0397539e-38 309 292
-0.012115533 0.69099998 -0.063000768 1.0305342e-38 310 292
-0.010888199 0.69 -0.062909603 1.0213147e-38 311 292
-0.0096503468 0.68800002 -0.06272725 1.0120232e-38 312 292
-0.0084440531 0.68800002 -0.06272725 9.9354822e-39 313 292
-0.0072377604 0.68800002 -0.06272725 9.2912072e-39 314 292
-0.0060226996 0.68699998 -0.062636077 9.1068159e-39 315 292
-0.0048181596 0.68699998 -0.062636077 8.9235191e-39 316 292
-0.0036136196 0.68699998 -0.062636077 9.2001074e-39 317 292
-0.0024090798 0.68699998 -0.062636077 9.6610841e-39 318 292
-0.0012045399 0.68699998 -0.062636077 9.9380311e-39 319 292
0 0.68599999 -0.062544905 1.0581952e-38 320 292
0.0012027866 0.68599999 -0.062544905 1.0581952e-38 321 292
0.0024055731 0.68599999 -0.062544905 1.0397555e-38 322 292
0.00360836 0.68599999 -0.062544905 1.0213524e-38 323 292
0.0048111463 0.68599999 -0.062544905 1.0030927e-38 324 292
0.0060139326 0.68599999 -0.062544905 1.0307154e-38 325 292
0.0072167199 0.68599999 -0.062544905 1.0951065e-38 326 292
0.0084195063 0.68599999 -0.062544905 1.1135457e-38 327 292
0.0096363192 0.68699998 -0.062636077 1.1594268e-38 328 292
0.010840859 0.68699998 -0.062636077 1.1502071e-38 329 292
0.012045399 0.68699998 -0.062636077 1.1960172e-38 330 292
0.013249939 0.68699998 -0.062636077 1.1960172e-38 331 292
0.014454478 0.68699998 -0.062636077 1.2052369e-38 332 292
0.015659019 0.68699998 -0.062636077 1.2052369e-38 333 292
0.01686356 0.68699998 -0.062636077 1.2052725e-38 334 292
0.018068098 0.68699998 -0.062636077 1.2052725e-38 335 292
0.019300694 0.68800002 -0.06272725 1.1777933e-38 336 292
0.020506985 0.68800002 -0.06272725 1.1870129e-38 337 292
0.021776399 0.69 -0.062909603 1.1870126e-38 338 292
0.022986198 0.69 -0.062909603 1.1962322e-38 339 292
0.024231065 0.69099998 -0.063000768 1.1871561e-38 340 292
0.025442619 0.69099998 -0.063000768 1.1871561e-38 341 292
0.02673132 0.69300002 -0.063183114 1.2147069e-38 342 292
0.027946379 0.69300002 -0.063183114 1.2239264e-38 343 292
0.029203519 0.69400001 -0.063274294 1.2056672e-38 344 292
0.030507999 0.69599998 -0.063456632 1.2332899e-38 345 292
0.03177391 0.69700003 -0.06354782 1.2149953e-38 346 292
0.03299598 0.69700003 -0.06354782 1.24269e-38 347 292
0.034267146 0.69800001 -0.063638985 1.2703858e-38 348 292
0.035592664 0.69999999 -0.063821331 1.3072282e-38 349 292
0.036872596 0.70099998 -0.063912503 1.2983686e-38 350 292
0.038210396 0.70300001 -0.064094849 1.3352467e-38 351 292
0.039499093 0.704 -0.064186029 1.3811664e-38 352 292
0.040733438 0.704 -0.064186029 1.7315457e-38 353 292
0.041967787 0.704 -0.064186029 1.6682355e-38 354 292
-0.030858666 0.704 -0.065420374 1.5022105e-38 295 293
-0.029624319 0.704 -0.065420374 1.2982985e-38 296 293
-0.028389972 0.704 -0.065420374 1.2706038e-38 297 293
-0.027117053 0.70300001 -0.065327443 1.2061749e-38 298 293
-0.025773998 0.69999999 -0.065048665 1.1139792e-38 299 293
-0.024476532 0.69800001 -0.06486281 1.1412783e-38 300 293
-0.023252707 0.69800001 -0.06486281 1.0951805e-38 301 293
-0.02199732 0.69700003 -0.064769886 1.0857444e-38 302 293
-0.020775247 0.69700003 -0.064769886 1.0857444e-38 303 293
-0.019525118 0.69599998 -0.064676955 1.0765246e-38 304 293
-0.0182522 0.69400001 -0.064491108 1.0580854e-38 305 293
-0.01701084 0.69300002 -0.064398177 1.0398261e-38 306 293
-0.015795778 0.69300002 -0.064398177 1.0398261e-38 307 293
-0.014580719 0.69300002 -0.064398177 1.0398258e-38 308 293
-0.01336566 0.69300002 -0.064398177 1.0214227e-38 309 293
-0.012115533 0.69099998 -0.06421233 1.0305339e-38 310 293
-0.010888199 0.69 -0.064119399 1.0305339e-38 311 293
-0.0096503468 0.68800002 -0.063933544 9.937636e-39 312 293
-0.0084440531 0.68800002 -0.063933544 9.937636e-39 313 293
-0.0072377604 0.68800002 -0.063933544 9.3844748e-39 314 293
-0.0060226996 0.68699998 -0.06384062 9.108248e-39 315 293
-0.0048181596 0.68699998 -0.06384062 9.1990171e-39 316 293
-0.0036136196 0.68699998 -0.06384062 9.3834084e-39 317 293
-0.0024090798 0.68699998 -0.06384062 9.7521853e-39 318 293
-0.0012045399 0.68699998 -0.06384062 1.0121327e-38 319 293
0 0.68599999 -0.063747689 1.0489385e-38 320 293
0.0012027866 0.68599999 -0.063747689 1.0489385e-38 321 293
0.0024055731 0.68599999 -0.063747689 1.0213521e-38 322 293
0.00360836 0.68599999 -0.063747689 1.0213521e-38 323 293
0.0048111463 0.68599999 -0.063747689 1.0214593e-38 324 293
0.0060139326 0.68599999 -0.063747689 1.0491538e-38 325 293
0.0072167199 0.68599999 -0.063747689 1.1043258e-38 326 293
0.0084195063 0.68599999 -0.063747689 1.1135455e-38 327 293
0.0096363192 0.68699998 -0.06384062 1.177686e-38 328 293
0.010840859 0.68699998 -0.06384062 1.177686e-38 329 293
0.012045399 0.68699998 -0.06384062 1.1960172e-38 330 293
0.013249939 0.68699998 -0.06384062 1.1960172e-38 331 293
0.014454478 0.68699998 -0.06384062 1.1960172e-38 332 293
0.015659019 0.68699998 -0.06384062 1.1960172e-38 333 293
0.01686356 0.68699998 -0.06384062 1.2052725e-38 334 293
0.0180944 0.68800002 -0.063933544 1.1960528e-38 335 293
0.019300694 0.68800002 -0.063933544 1.1869413e-38 336 293
0.020506985 0.68800002 -0.063933544 1.1869413e-38 337 293
0.021776399 0.69 -0.064119399 1.1870132e-38 338 293
0.022986198 0.69 -0.064119399 1.1962327e-38 339 293
0.024231065 0.69099998 -0.06421233 1.205487e-38 340 293
0.025442619 0.69099998 -0.06421233 1.205487e-38 341 293
0.02673132 0.69300002 -0.064398177 1.2330737e-38 342 293
0.027986705 0.69400001 -0.064491108 1.2422933e-38 343 293
0.029203519 0.69400001 -0.064491108 1.223999e-38 344 293
0.030507999 0.69599998 -0.064676955 1.2424382e-38 345 293
0.03177391 0.69700003 -0.064769886 1.2149958e-38 346 293
0.033043321 0.69800001 -0.06486281 1.2518742e-38 347 293
0.034365334 0.69999999 -0.065048665 1.2886449e-38 348 293
0.035592664 0.69999999 -0.065048665 1.3439622e-38 349 293
0.036872596 0.70099998 -0.065141588 1.307408e-38 350 293
0.038210396 0.70300001 -0.065327443 1.3812003e-38 351 293
0.039499093 0.704 -0.065420374 1.3906382e-38 352 293
0.040733438 0.704 -0.065420374 1.7870796e-38 353 293
0.041967787 0.704 -0.065420374 1.7419569e-38 354 293
-0.029624319 0.704 -0.066654719 1.3356454e-38 296 294
-0.028389972 0.704 -0.066654719 1.2065715e-38 297 294
-0.027117053 0.70300001 -0.066560037 1.1971357e-38 298 294
-0.025810819 0.70099998 -0.066370681 1.1325988e-38 299 294
-0.024546666 0.69999999 -0.066275999 1.1964515e-38 300 294
-0.023252707 0.69800001 -0.066086642 1.1503535e-38 301 294
-0.02199732 0.69700003 -0.06599196 1.1042912e-38 302 294
-0.020775247 0.69700003 -0.06599196 1.0674129e-38 303 294
-0.019525118 0.69599998 -0.065897278 1.0398261e-38 304 294
-0.0182522 0.69400001 -0.065707922 1.021423e-38 305 294
-0.01701084 0.69300002 -0.06561324 9.9390849e-39 306 294
-0.015795778 0.69300002 -0.06561324 9.9390849e-39 307 294
-0.014580719 0.69300002 -0.06561324 1.021423e-38 308 294
-0.01336566 0.69300002 -0.06561324 1.021423e-38 309 294
-0.012115533 0.69099998 -0.065423876 1.0581208e-38 310 294
-0.01090398 0.69099998 -0.065423876 1.0397175e-38 311 294
-0.0096783992 0.69 -0.065329194 1.0487936e-38 312 294
-0.0084440531 0.68800002 -0.065139838 1.0303544e-38 313 294
-0.0072377604 0.68800002 -0.065139838 9.6585506e-39 314 294
-0.0060314666 0.68800002 -0.065139838 9.5663549e-39 315 294
-0.0048251734 0.68800002 -0.065139838 8.924954e-39 316 294
-0.0036136196 0.68699998 -0.065045156 9.017151e-39 317 294
-0.0024090798 0.68699998 -0.065045156 9.478125e-39 318 294
-0.0012045399 0.68699998 -0.065045156 9.6625162e-39 319 294
0 0.68699998 -0.065045156 1.0121691e-38 320 294
0.0012045399 0.68699998 -0.065045156 1.0029494e-38 321 294
0.0024090798 0.68699998 -0.065045156 9.8461788e-39 322 294
0.00360836 0.68599999 -0.064950474 9.9387346e-39 323 294
0.0048111463 0.68599999 -0.064950474 9.8494032e-39 324 294
0.0060226996 0.68699998 -0.065045156 1.012635e-38 325 294
0.0072272392 0.68699998 -0.065045156 1.0860668e-38 326 294
0.0084317802 0.68699998 -0.065045156 1.0768471e-38 327 294
0.0096363192 0.68699998 -0.065045156 1.1409166e-38 328 294
0.010840859 0.68699998 -0.065045156 1.1409166e-38 329 294
0.012045399 0.68699998 -0.065045156 1.1500999e-38 330 294
0.013249939 0.68699998 -0.065045156 1.1500999e-38 331 294
0.014454478 0.68699998 -0.065045156 1.177686e-38 332 294
0.015681813 0.68800002 -0.065139838 1.177686e-38 333 294
0.016888106 0.68800002 -0.065139838 1.1777577e-38 334 294
0.0180944 0.68800002 -0.065139838 1.1777577e-38 335 294
0.019300694 0.68800002 -0.065139838 1.177758e-38 336 294
0.020566599 0.69 -0.065329194 1.1869776e-38 337 294
0.021807959 0.69099998 -0.065423876 1.1686461e-38 338 294
0.023019511 0.69099998 -0.065423876 1.1778656e-38 339 294
0.024231065 0.69099998 -0.065423876 1.1962322e-38 340 294
0.02551626 0.69300002 -0.06561324 1.2054876e-38 341 294
0.02673132 0.69300002 -0.06561324 1.1871208e-38 342 294
0.027986705 0.69400001 -0.065707922 1.2147435e-38 343 294
0.029203519 0.69400001 -0.065707922 1.1964489e-38 344 294
0.030507999 0.69599998 -0.065897278 1.2149239e-38 345 294
0.03177391 0.69700003 -0.06599196 1.2058133e-38 346 294
0.033043321 0.69800001 -0.066086642 1.2426915e-38 347 294
0.034365334 0.69999999 -0.066275999 1.2796421e-38 348 294
0.035643511 0.70099998 -0.066370681 1.3073366e-38 349 294
0.036977798 0.70300001 -0.066560037 1.3258475e-38 350 294
0.038210396 0.70300001 -0.066560037 1.418043e-38 351 294
0.039499093 0.704 -0.066654719 1.4368807e-38 352 294
0.040733438 0.704 -0.066654719 1.8702001e-38 353 294
-0.028349647 0.70300001 -0.067792632 1.2070402e-38 297 295
-0.027117053 0.70300001 -0.067792632 1.1972439e-38 298 295
-0.025884461 0.70300001 -0.067792632 1.1696212e-38 299 295
-0.024581732 0.70099998 -0.067599766 1.1599698e-38 300 295
-0.023252707 0.69800001 -0.06731046 1.1046524e-38 301 295
-0.02202888 0.69800001 -0.06731046 1.1044356e-38 302 295
-0.020775247 0.69700003 -0.067214034 1.0675214e-38 303 295
-0.019525118 0.69599998 -0.067117594 1.0306788e-38 304 295
-0.0182522 0.69400001 -0.066924736 1.0122397e-38 305 295
-0.017035386 0.69400001 -0.066924736 1.0030197e-38 306 295
-0.015795778 0.69300002 -0.066828303 1.0122394e-38 307 295
-0.014580719 0.69300002 -0.066828303 1.0214227e-38 308 295
-0.01336566 0.69300002 -0.066828303 1.0398258e-38 309 295
-0.012115533 0.69099998 -0.06663543 1.0214227e-38 310 295
-0.01090398 0.69099998 -0.06663543 1.012203e-38 311 295
-0.0096783992 0.69 -0.066538997 1.0212077e-38 312 295
-0.0084686 0.69 -0.066538997 1.0027327e-38 313 295
-0.0072377604 0.68800002 -0.066346131 9.3830525e-39 314 295
-0.0060314666 0.68800002 -0.066346131 9.2908568e-39 315 295
-0.0048251734 0.68800002 -0.066346131 8.8324024e-39 316 295
-0.0036136196 0.68699998 -0.066249698 9.0167951e-39 317 295
-0.0024090798 0.68699998 -0.066249698 9.6617904e-39 318 295
-0.0012045399 0.68699998 -0.066249698 9.8461816e-39 319 295
0 0.68699998 -0.066249698 1.0213877e-38 320 295
0.0012045399 0.68699998 -0.066249698 1.012168e-38 321 295
0.0024090798 0.68699998 -0.066249698 9.8465319e-39 322 295
0.0036136196 0.68699998 -0.066249698 1.0031283e-38 323 295
0.0048181596 0.68699998 -0.066249698 1.0124911e-38 324 295
0.0060226996 0.68699998 -0.066249698 1.0401858e-38 325 295
0.0072272392 0.68699998 -0.066249698 1.1042905e-38 326 295
0.0084317802 0.68699998 -0.066249698 1.0950709e-38 327 295
0.0096363192 0.68699998 -0.066249698 1.1408803e-38 328 295
0.010840859 0.68699998 -0.066249698 1.1408803e-38 329 295
0.012045399 0.68699998 -0.066249698 1.1409153e-38 330 295
0.013249939 0.68699998 -0.066249698 1.1501349e-38 331 295
0.014454478 0.68699998 -0.066249698 1.1776857e-38 332 295
0.015681813 0.68800002 -0.066346131 1.1776857e-38 333 295
0.016888106 0.68800002 -0.066346131 1.177686e-38 334 295
0.0180944 0.68800002 -0.066346131 1.1869057e-38 335 295
0.019300694 0.68800002 -0.066346131 1.177758e-38 336 295
0.020566599 0.69 -0.066538997 1.177758e-38 337 295
0.021776399 0.69 -0.066538997 1.1869776e-38 338 295
0.023019511 0.69099998 -0.06663543 1.1961971e-38 339 295
0.024231065 0.69099998 -0.06663543 1.1779375e-38 340 295
0.02551626 0.69300002 -0.066828303 1.1779375e-38 341 295
0.02673132 0.69300002 -0.066828303 1.1688259e-38 342 295
0.027986705 0.69400001 -0.066924736 1.1872648e-38 343 295
0.029203519 0.69400001 -0.066924736 1.1873376e-38 344 295
0.030507999 0.69599998 -0.067117594 1.2149602e-38 345 295
0.031819493 0.69800001 -0.06731046 1.2150687e-38 346 295
0.033137999 0.69999999 -0.067503333 1.2519111e-38 347 295
0.034365334 0.69999999 -0.067503333 1.2796424e-38 348 295
0.035643511 0.70099998 -0.067599766 1.3349596e-38 349 295
0.036977798 0.70300001 -0.067792632 1.362655e-38 350 295
0.038210396 0.70300001 -0.067792632 1.4917289e-38 351 295
0.039499093 0.704 -0.067889065 1.5200738e-38 352 295
0.040733438 0.704 -0.067889065 1.8796367e-38 353 295
-0.028349647 0.70300001 -0.069025226 1.271614e-38 297 296
-0.027039904 0.70099998 -0.068828844 1.178948e-38 298 296
-0.025810819 0.70099998 -0.068828844 1.160473e-38 299 296
-0.024581732 0.70099998 -0.068828844 1.1876635e-38 300 296
-0.023252707 0.69800001 -0.068534292 1.1415656e-38 301 296
-0.02202888 0.69800001 -0.068534292 1.1320939e-38 302 296
-0.020805053 0.69800001 -0.068534292 1.0859962e-38 303 296
-0.019553173 0.69700003 -0.068436109 1.0307507e-38 304 296
-0.018304799 0.69599998 -0.068337917 9.8468879e-39 305 296
-0.017035386 0.69400001 -0.068141542 9.6632169e-39 306 296
-0.015818574 0.69400001 -0.068141542 9.8476081e-39 307 296
-0.014580719 0.69300002 -0.068043359 1.0031634e-38 308 296
-0.01336566 0.69300002 -0.068043359 1.030786e-38 309 296
-0.012115533 0.69099998 -0.067846984 1.0397542e-38 310 296
-0.010888199 0.69 -0.0677488 1.0212791e-38 311 296
-0.0096783992 0.69 -0.0677488 9.8436649e-39 312 296
-0.0084686 0.69 -0.0677488 9.7514693e-39 313 296
-0.0072377604 0.68800002 -0.067552425 9.2004591e-39 314 296
-0.0060314666 0.68800002 -0.067552425 9.1082635e-39 315 296
-0.0048251734 0.68800002 -0.067552425 8.8323996e-39 316 296
-0.0036136196 0.68699998 -0.067454241 9.017151e-39 317 296
-0.0024090798 0.68699998 -0.067454241 9.7539832e-39 318 296
-0.0012045399 0.68699998 -0.067454241 9.9387346e-39 319 296
0 0.68699998 -0.067454241 1.0397186e-38 320 296
0.0012045399 0.68699998 -0.067454241 1.0489382e-38 321 296
0.0024090798 0.68699998 -0.067454241 1.0031281e-38 322 296
0.0036136196 0.68699998 -0.067454241 1.0307507e-38 323 296
0.0048181596 0.68699998 -0.067454241 1.0308942e-38 324 296
0.0060226996 0.68699998 -0.067454241 1.0492975e-38 325 296
0.0072272392 0.68699998 -0.067454241 1.1042544e-38 326 296
0.0084317802 0.68699998 -0.067454241 1.094999e-38 327 296
0.0096363192 0.68699998 -0.067454241 1.1225491e-38 328 296
0.010840859 0.68699998 -0.067454241 1.1225491e-38 329 296
0.012045399 0.68699998 -0.067454241 1.1501349e-38 330 296
0.013249939 0.68699998 -0.067454241 1.1501349e-38 331 296
0.014454478 0.68699998 -0.067454241 1.1684661e-38 332 296
0.015681813 0.68800002 -0.067552425 1.1684661e-38 333 296
0.016888106 0.68800002 -0.067552425 1.1684664e-38 334 296
0.0180944 0.68800002 -0.067552425 1.1869057e-38 335 296
0.019300694 0.68800002 -0.067552425 1.1776863e-38 336 296
0.020566599 0.69 -0.0677488 1.1961255e-38 337 296
0.021776399 0.69 -0.0677488 1.1778659e-38 338 296
0.023019511 0.69099998 -0.067846984 1.1870855e-38 339 296
0.024231065 0.69099998 -0.067846984 1.1779378e-38 340 296
0.02551626 0.69300002 -0.068043359 1.1871574e-38 341 296
0.02673132 0.69300002 -0.068043359 1.168898e-38 342 296
0.027986705 0.69400001 -0.068141542 1.1781177e-38 343 296
0.029203519 0.69400001 -0.068141542 1.1965571e-38 344 296
0.030507999 0.69599998 -0.068337917 1.2149602e-38 345 296
0.031819493 0.69800001 -0.068534292 1.2333999e-38 346 296
0.033137999 0.69999999 -0.068730667 1.2794977e-38 347 296
0.034365334 0.69999999 -0.068730667 1.2889338e-38 348 296
0.035643511 0.70099998 -0.068828844 1.3350676e-38 349 296
0.036977798 0.70300001 -0.069025226 1.362728e-38 350 296
0.038210396 0.70300001 -0.069025226 1.5747419e-38 351 296
0.039499093 0.704 -0.06912341 1.5847199e-38 352 296
0.040733438 0.704 -0.06912341 1.8336481e-38 353 296
-0.028349647 0.70300001 -0.070257813 1.3455152e-38 297 297
-0.027039904 0.70099998 -0.070057929 1.2067153e-38 298 297
-0.025810819 0.70099998 -0.070057929 1.1514338e-38 299 297
-0.024581732 0.70099998 -0.070057929 1.1970273e-38 300 297
-0.023319334 0.69999999 -0.069957994 1.1417099e-38 301 297
-0.02202888 0.69800001 -0.069758117 1.1322738e-38 302 297
-0.020805053 0.69800001 -0.069758117 1.0769564e-38 303 297
-0.019553173 0.69700003 -0.069658175 1.0491536e-38 304 297
-0.018304799 0.69599998 -0.069558233 1.0214949e-38 305 297
-0.017035386 0.69400001 -0.069358356 1.0031634e-38 306 297
-0.015818574 0.69400001 -0.069358356 1.0215665e-38 307 297
-0.014580719 0.69300002 -0.069258414 1.0583005e-38 308 297
-0.01336566 0.69300002 -0.069258414 1.0583005e-38 309 297
-0.012115533 0.69099998 -0.069058537 1.0580854e-38 310 297
-0.010888199 0.69 -0.068958595 1.0304626e-38 311 297
-0.0096783992 0.69 -0.068958595 9.9362108e-39 312 297
-0.0084686 0.69 -0.068958595 9.9362108e-39 313 297
-0.0072377604 0.68800002 -0.068758719 9.5688731e-39 314 297
-0.0060314666 0.68800002 -0.068758719 9.3844804e-39 315 297
