# .PCD v.7 - Point Cloud Data file format
FIELDS x y z rgb imX imY
SIZE 4 4 4 4 4 4
TYPE F F F F F F
COUNT 1 1 1 1 1 1
WIDTH 839
HEIGHT 1
VIEWPOINT 0 0 0 1 0 0 0
POINTS 839
DATA ascii
-0.026685731 0.76099998 -0.0013342865 1.2880336e-38 300 241
-0.025351444 0.76099998 -0.0013342865 1.278814e-38 301 241
-0.024017159 0.76099998 -0.0013342865 1.278814e-38 302 241
-0.02262326 0.759 -0.00133078 1.278814e-38 303 241
-0.02129248 0.759 -0.00133078 1.2603753e-38 304 241
-0.020014299 0.76099998 -0.0013342865 1.2603753e-38 305 241
-0.018680012 0.76099998 -0.0013342865 1.2787422e-38 306 241
-0.017345725 0.76099998 -0.0013342865 1.2879617e-38 307 241
-0.015969358 0.759 -0.00133078 1.2788135e-38 308 241
-0.014638579 0.759 -0.00133078 1.2880689e-38 309 241
-0.0133078 0.759 -0.00133078 1.2697374e-38 310 241
-0.01197702 0.759 -0.00133078 1.2605179e-38 311 241
-0.01064624 0.759 -0.00133078 1.2236047e-38 312 241
-0.00931546 0.759 -0.00133078 1.2051654e-38 313 241
-0.0079846792 0.759 -0.00133078 1.1775437e-38 314 241
-0.0066363667 0.75700003 -0.0013272733 1.195947e-38 315 241
-0.0053090933 0.75700003 -0.0013272733 1.2053098e-38 316 241
-0.0039818203 0.75700003 -0.0013272733 1.2514076e-38 317 241
-0.00266156 0.759 -0.00133078 1.343242e-38 318 241
-0.00133078 0.759 -0.00133078 1.3709005e-38 319 241
0 0.759 -0.00133078 1.3618236e-38 320 241
0.00133078 0.759 -0.00133078 1.3618236e-38 321 241
0.00266156 0.759 -0.00133078 1.3709355e-38 322 241
0.0039923396 0.759 -0.00133078 1.361716e-38 323 241
0.0053371461 0.76099998 -0.0013342865 1.2972883e-38 324 241
0.0066714329 0.76099998 -0.0013342865 1.2880686e-38 325 241
0.0080057196 0.76099998 -0.0013342865 1.2788491e-38 326 241
0.0093522798 0.76200002 -0.00133604 1.260446e-38 327 241
0.01068832 0.76200002 -0.00133604 1.2420429e-38 328 241
0.01202436 0.76200002 -0.00133604 1.2236397e-38 329 241
0.0133604 0.76200002 -0.00133604 1.2144199e-38 330 241
0.014735013 0.764 -0.0013395466 1.2144199e-38 331 241
0.016074561 0.764 -0.0013395466 1.22364e-38 332 241
0.017414106 0.764 -0.0013395466 1.2512627e-38 333 241
0.018802745 0.76599997 -0.0013430532 1.1963422e-38 334 241
0.020172099 0.76700002 -0.0013448066 1.24244e-38 335 241
0.021573013 0.76899999 -0.0013483133 1.1875206e-38 336 241
0.022921326 0.76899999 -0.0013483133 1.2520575e-38 337 241
0.02433276 0.77100003 -0.00135182 1.2530677e-38 338 241
-0.048791755 0.773 -0.0027106532 1.2251197e-38 284 242
-0.047436431 0.773 -0.0027106532 1.0592035e-38 285 242
-0.046081103 0.773 -0.0027106532 1.2701004e-38 286 242
-0.044725779 0.773 -0.0027106532 1.233258e-38 287 242
-0.043146025 0.76899999 -0.0026966266 1.2241451e-38 288 242
-0.041689005 0.76700002 -0.0026896133 1.2241451e-38 289 242
-0.040291596 0.76599997 -0.0026861064 1.2884651e-38 290 242
-0.038948543 0.76599997 -0.0026861064 1.2700258e-38 291 242
-0.037605491 0.76599997 -0.0026861064 1.2882489e-38 292 242
-0.036167759 0.764 -0.0026790933 1.2697739e-38 293 242
-0.034828212 0.764 -0.0026790933 1.2421508e-38 294 242
-0.033401001 0.76200002 -0.00267208 1.2421508e-38 295 242
-0.032022879 0.76099998 -0.0026685731 1.2605541e-38 296 242
-0.030688593 0.76099998 -0.0026685731 1.2605541e-38 297 242
-0.029354304 0.76099998 -0.0026685731 1.2604825e-38 298 242
-0.028020019 0.76099998 -0.0026685731 1.2604825e-38 299 242
-0.026685731 0.76099998 -0.0026685731 1.2421157e-38 300 242
-0.025351444 0.76099998 -0.0026685731 1.2328962e-38 301 242
-0.024017159 0.76099998 -0.0026685731 1.2328964e-38 302 242
-0.022682872 0.76099998 -0.0026685731 1.2328964e-38 303 242
-0.021348584 0.76099998 -0.0026685731 1.2236413e-38 304 242
-0.020014299 0.76099998 -0.0026685731 1.2236413e-38 305 242
-0.018680012 0.76099998 -0.0026685731 1.2419725e-38 306 242
-0.017345725 0.76099998 -0.0026685731 1.2419725e-38 307 242
-0.015969358 0.759 -0.00266156 1.2420081e-38 308 242
-0.014638579 0.759 -0.00266156 1.2512277e-38 309 242
-0.0133078 0.759 -0.00266156 1.2420081e-38 310 242
-0.01197702 0.759 -0.00266156 1.223605e-38 311 242
-0.01064624 0.759 -0.00266156 1.1959825e-38 312 242
-0.00931546 0.759 -0.00266156 1.1591043e-38 313 242
-0.0079636406 0.75700003 -0.0026545466 1.1315904e-38 314 242
-0.0066363667 0.75700003 -0.0026545466 1.14081e-38 315 242
-0.0053090933 0.75700003 -0.0026545466 1.1593211e-38 316 242
-0.0039818203 0.75700003 -0.0026545466 1.1870157e-38 317 242
-0.00266156 0.759 -0.00266156 1.2880333e-38 318 242
-0.00133078 0.759 -0.00266156 1.315728e-38 319 242
0 0.759 -0.00266156 1.3157628e-38 320 242
0.00133078 0.759 -0.00266156 1.3157628e-38 321 242
0.00266156 0.759 -0.00266156 1.3248747e-38 322 242
0.0039923396 0.759 -0.00266156 1.3064716e-38 323 242
0.0053371461 0.76099998 -0.0026685731 1.2788135e-38 324 242
0.0066714329 0.76099998 -0.0026685731 1.2604104e-38 325 242
0.0080057196 0.76099998 -0.0026685731 1.2329315e-38 326 242
0.0093522798 0.76200002 -0.00267208 1.2144923e-38 327 242
0.01068832 0.76200002 -0.00267208 1.2052369e-38 328 242
0.01202436 0.76200002 -0.00267208 1.1960172e-38 329 242
0.0133604 0.76200002 -0.00267208 1.1776863e-38 330 242
0.014735013 0.764 -0.0026790933 1.1684308e-38 331 242
0.016074561 0.764 -0.0026790933 1.1593197e-38 332 242
0.017414106 0.764 -0.0026790933 1.1869425e-38 333 242
0.018802745 0.76599997 -0.0026861064 1.1595731e-38 334 242
0.020172099 0.76700002 -0.0026896133 1.1964515e-38 335 242
0.021573013 0.76899999 -0.0026966266 1.1233083e-38 336 242
0.022921326 0.76899999 -0.0026966266 1.1970648e-38 337 242
0.02433276 0.77100003 -0.0027036399 1.2807986e-38 338 242
-0.048791755 0.773 -0.0040659797 1.2158998e-38 284 243
-0.047436431 0.773 -0.0040659797 1.0407641e-38 285 243
-0.046081103 0.773 -0.0040659797 1.2608438e-38 286 243
-0.044610061 0.77100003 -0.0040554604 1.2516242e-38 287 243
-0.043033812 0.76700002 -0.00403442 1.2332199e-38 288 243
-0.041689005 0.76700002 -0.00403442 1.2332199e-38 289 243
-0.040291596 0.76599997 -0.0040291594 1.2882486e-38 290 243
-0.038948543 0.76599997 -0.0040291594 1.279029e-38 291 243
-0.037605491 0.76599997 -0.0040291594 1.2697018e-38 292 243
-0.036167759 0.764 -0.0040186401 1.2697018e-38 293 243
-0.034828212 0.764 -0.0040186401 1.2330031e-38 294 243
-0.033401001 0.76200002 -0.0040081199 1.2237835e-38 295 243
-0.032022879 0.76099998 -0.0040028598 1.2605179e-38 296 243
-0.030688593 0.76099998 -0.0040028598 1.2605179e-38 297 243
-0.029354304 0.76099998 -0.0040028598 1.260446e-38 298 243
-0.028056841 0.76200002 -0.0040081199 1.260446e-38 299 243
-0.026685731 0.76099998 -0.0040028598 1.2329315e-38 300 243
-0.025351444 0.76099998 -0.0040028598 1.2237119e-38 301 243
-0.024017159 0.76099998 -0.0040028598 1.2236763e-38 302 243
-0.022682872 0.76099998 -0.0040028598 1.2236763e-38 303 243
-0.021348584 0.76099998 -0.0040028598 1.2143851e-38 304 243
-0.020014299 0.76099998 -0.0040028598 1.2143851e-38 305 243
-0.018680012 0.76099998 -0.0040028598 1.2052022e-38 306 243
-0.017345725 0.76099998 -0.0040028598 1.2052022e-38 307 243
-0.015969358 0.759 -0.0039923396 1.1868704e-38 308 243
-0.014638579 0.759 -0.0039923396 1.1868704e-38 309 243
-0.0133078 0.759 -0.0039923396 1.1959819e-38 310 243
-0.01197702 0.759 -0.0039923396 1.1775788e-38 311 243
-0.01064624 0.759 -0.0039923396 1.1591043e-38 312 243
-0.00931546 0.759 -0.0039923396 1.1498848e-38 313 243
-0.0079636406 0.75700003 -0.0039818203 1.1407728e-38 314 243
-0.0066363667 0.75700003 -0.0039818203 1.1591759e-38 315 243
-0.0053090933 0.75700003 -0.0039818203 1.1593192e-38 316 243
-0.0039818203 0.75700003 -0.0039818203 1.1961974e-38 317 243
-0.00266156 0.759 -0.0039923396 1.2605179e-38 318 243
-0.00133078 0.759 -0.0039923396 1.2697374e-38 319 243
0 0.759 -0.0039923396 1.2972516e-38 320 243
0.00133078 0.759 -0.0039923396 1.2972516e-38 321 243
0.0026685731 0.76099998 -0.0040028598 1.2971437e-38 322 243
0.0040028598 0.76099998 -0.0040028598 1.2971437e-38 323 243
0.0053371461 0.76099998 -0.0040028598 1.251298e-38 324 243
0.0066714329 0.76099998 -0.0040028598 1.2236395e-38 325 243
0.0080057196 0.76099998 -0.0040028598 1.2144921e-38 326 243
0.0093522798 0.76200002 -0.0040081199 1.1960528e-38 327 243
0.01068832 0.76200002 -0.0040081199 1.1959809e-38 328 243
0.01202436 0.76200002 -0.0040081199 1.1959809e-38 329 243
0.0133604 0.76200002 -0.0040081199 1.1683943e-38 330 243
0.014735013 0.764 -0.0040186401 1.1683943e-38 331 243
0.016074561 0.764 -0.0040186401 1.1409519e-38 332 243
0.017414106 0.764 -0.0040186401 1.1593912e-38 333 243
0.018802745 0.76599997 -0.0040291594 1.1503532e-38 334 243
0.020145798 0.76599997 -0.0040291594 1.1872675e-38 335 243
0.021573013 0.76899999 -0.0040449398 1.1506429e-38 336 243
0.022921326 0.76899999 -0.0040449398 1.2704972e-38 337 243
0.024269639 0.76899999 -0.0040449398 1.3270763e-38 338 243
-0.04866552 0.77100003 -0.0054072798 1.1882774e-38 284 244
-0.047313701 0.77100003 -0.0054072798 1.0776066e-38 285 244
-0.045961879 0.77100003 -0.0054072798 1.2609158e-38 286 244
-0.044610061 0.77100003 -0.0054072798 1.233293e-38 287 244
-0.043033812 0.76700002 -0.0053792265 1.2148521e-38 288 244
-0.041689005 0.76700002 -0.0053792265 1.2056325e-38 289 244
-0.040291596 0.76599997 -0.0053722127 1.2514782e-38 290 244
-0.038948543 0.76599997 -0.0053722127 1.2422226e-38 291 244
-0.037605491 0.76599997 -0.0053722127 1.2329312e-38 292 244
-0.036167759 0.764 -0.0053581866 1.2421508e-38 293 244
-0.034828212 0.764 -0.0053581866 1.2421863e-38 294 244
-0.033401001 0.76200002 -0.0053441599 1.2329668e-38 295 244
-0.032064959 0.76200002 -0.0053441599 1.251298e-38 296 244
-0.030688593 0.76099998 -0.0053371461 1.2420784e-38 297 244
-0.029354304 0.76099998 -0.0053371461 1.2236397e-38 298 244
-0.028056841 0.76200002 -0.0053441599 1.2236397e-38 299 244
-0.0267208 0.76200002 -0.0053441599 1.1869413e-38 300 244
-0.025351444 0.76099998 -0.0053371461 1.1776857e-38 301 244
-0.024017159 0.76099998 -0.0053371461 1.2235317e-38 302 244
-0.022682872 0.76099998 -0.0053371461 1.2235317e-38 303 244
-0.021348584 0.76099998 -0.0053371461 1.186726e-38 304 244
-0.020014299 0.76099998 -0.0053371461 1.1959456e-38 305 244
-0.018680012 0.76099998 -0.0053371461 1.1775435e-38 306 244
-0.017345725 0.76099998 -0.0053371461 1.1775435e-38 307 244
-0.015969358 0.759 -0.0053231199 1.1683961e-38 308 244
-0.014638579 0.759 -0.0053231199 1.1591765e-38 309 244
-0.0133078 0.759 -0.0053231199 1.1407734e-38 310 244
-0.01197702 0.759 -0.0053231199 1.131518e-38 311 244
-0.01064624 0.759 -0.0053231199 1.1315536e-38 312 244
-0.00931546 0.759 -0.0053231199 1.122334e-38 313 244
-0.0079846792 0.759 -0.0053231199 1.14088e-38 314 244
-0.0066363667 0.75700003 -0.0053090933 1.1500996e-38 315 244
-0.0053090933 0.75700003 -0.0053090933 1.1500996e-38 316 244
-0.0039818203 0.75700003 -0.0053090933 1.1593192e-38 317 244
-0.00266156 0.759 -0.0053231199 1.2510112e-38 318 244
-0.00133078 0.759 -0.0053231199 1.2694504e-38 319 244
0 0.759 -0.0053231199 1.2878167e-38 320 244
0.00133078 0.759 -0.0053231199 1.2878167e-38 321 244
0.0026685731 0.76099998 -0.0053371461 1.2602659e-38 322 244
0.0040028598 0.76099998 -0.0053371461 1.2694855e-38 323 244
0.0053371461 0.76099998 -0.0053371461 1.2236395e-38 324 244
0.0066714329 0.76099998 -0.0053371461 1.2144199e-38 325 244
0.0080057196 0.76099998 -0.0053371461 1.1959806e-38 326 244
0.0093522798 0.76200002 -0.0053441599 1.1959806e-38 327 244
0.01068832 0.76200002 -0.0053441599 1.1867611e-38 328 244
0.01202436 0.76200002 -0.0053441599 1.1775415e-38 329 244
0.0133604 0.76200002 -0.0053441599 1.1316958e-38 330 244
0.014735013 0.764 -0.0053581866 1.1316958e-38 331 244
0.016074561 0.764 -0.0053581866 1.1133655e-38 332 244
0.017414106 0.764 -0.0053581866 1.1318405e-38 333 244
0.018802745 0.76599997 -0.0053722127 1.1228024e-38 334 244
0.020145798 0.76599997 -0.0053722127 1.1688644e-38 335 244
0.021573013 0.76899999 -0.0053932532 1.1321682e-38 336 244
0.023040552 0.773 -0.0054213065 1.325779e-38 337 244
0.024395877 0.773 -0.0054213065 1.3915056e-38 338 244
-0.04866552 0.77100003 -0.0067590997 1.2158282e-38 284 245
-0.047313701 0.77100003 -0.0067590997 1.114377e-38 285 245
-0.045961879 0.77100003 -0.0067590997 1.3069411e-38 286 245
-0.044610061 0.77100003 -0.0067590997 1.24244e-38 287 245
-0.043146025 0.76899999 -0.0067415666 1.2422947e-38 288 245
-0.041689005 0.76700002 -0.006724033 1.2238914e-38 289 245
-0.040344197 0.76700002 -0.006724033 1.2330387e-38 290 245
-0.038948543 0.76599997 -0.0067152665 1.2237832e-38 291 245
-0.037605491 0.76599997 -0.0067152665 1.1778662e-38 292 245
-0.036167759 0.764 -0.006697733 1.1870858e-38 293 245
-0.034828212 0.764 -0.006697733 1.1870858e-38 294 245
-0.033401001 0.76200002 -0.0066801999 1.1870858e-38 295 245
-0.032064959 0.76200002 -0.0066801999 1.2053448e-38 296 245
-0.030688593 0.76099998 -0.0066714329 1.1869057e-38 297 245
-0.029354304 0.76099998 -0.0066714329 1.1869413e-38 298 245
-0.028020019 0.76099998 -0.0066714329 1.1684661e-38 299 245
-0.026685731 0.76099998 -0.0066714329 1.1592113e-38 300 245
-0.025284819 0.759 -0.0066538998 1.1408082e-38 301 245
-0.023954039 0.759 -0.0066538998 1.1315533e-38 302 245
-0.022682872 0.76099998 -0.0066714329 1.1315533e-38 303 245
-0.021348584 0.76099998 -0.0066714329 1.1407728e-38 304 245
-0.020014299 0.76099998 -0.0066714329 1.1591759e-38 305 245
-0.018680012 0.76099998 -0.0066714329 1.1224782e-38 306 245
-0.017345725 0.76099998 -0.0066714329 1.1224782e-38 307 245
-0.015969358 0.759 -0.0066538998 1.1132589e-38 308 245
-0.014638579 0.759 -0.0066538998 1.1040393e-38 309 245
-0.0133078 0.759 -0.0066538998 1.0947839e-38 310 245
-0.01197702 0.759 -0.0066538998 1.0855643e-38 311 245
-0.01064624 0.759 -0.0066538998 1.076488e-38 312 245
-0.00931546 0.759 -0.0066538998 1.0948911e-38 313 245
-0.0079846792 0.759 -0.0066538998 1.1041813e-38 314 245
-0.0066363667 0.75700003 -0.0066363667 1.1134009e-38 315 245
-0.0053090933 0.75700003 -0.0066363667 1.1498845e-38 316 245
-0.0039923396 0.759 -0.0066538998 1.1406649e-38 317 245
-0.00266156 0.759 -0.0066538998 1.1497779e-38 318 245
-0.00133078 0.759 -0.0066538998 1.1866201e-38 319 245
0 0.759 -0.0066538998 1.2142418e-38 320 245
0.00133078 0.759 -0.0066538998 1.1958387e-38 321 245
0.0026685731 0.76099998 -0.0066714329 1.2142768e-38 322 245
0.0040028598 0.76099998 -0.0066714329 1.2234964e-38 323 245
0.0053371461 0.76099998 -0.0066714329 1.2051649e-38 324 245
0.0066714329 0.76099998 -0.0066714329 1.1959453e-38 325 245
0.0080057196 0.76099998 -0.0066714329 1.1867255e-38 326 245
0.0093522798 0.76200002 -0.0066801999 1.1775059e-38 327 245
0.01068832 0.76200002 -0.0066801999 1.1591747e-38 328 245
0.01202436 0.76200002 -0.0066801999 1.1499551e-38 329 245
0.0133604 0.76200002 -0.0066801999 1.1224409e-38 330 245
0.014735013 0.764 -0.006697733 1.1224409e-38 331 245
0.016074561 0.764 -0.006697733 1.1041107e-38 332 245
0.017414106 0.764 -0.006697733 1.1225857e-38 333 245
0.018802745 0.76599997 -0.0067152665 1.1045075e-38 334 245
0.020145798 0.76599997 -0.0067152665 1.1229468e-38 335 245
0.021516906 0.76700002 -0.006724033 1.122877e-38 336 245
0.022921326 0.76899999 -0.0067415666 1.3717692e-38 337 245
-0.04866552 0.77100003 -0.0081109209 1.2618185e-38 284 246
-0.047313701 0.77100003 -0.0081109209 1.1511478e-38 285 246
-0.045961879 0.77100003 -0.0081109209 1.2976146e-38 286 246
-0.044610061 0.77100003 -0.0081109209 1.2791754e-38 287 246
-0.043258239 0.77100003 -0.0081109209 1.2422952e-38 288 246
-0.041689005 0.76700002 -0.00806884 1.2238561e-38 289 246
-0.040344197 0.76700002 -0.00806884 1.1961971e-38 290 246
-0.038948543 0.76599997 -0.0080583189 1.1869776e-38 291 246
-0.037605491 0.76599997 -0.0080583189 1.1686113e-38 292 246
-0.036262438 0.76599997 -0.0080583189 1.1501362e-38 293 246
-0.034828212 0.764 -0.0080372803 1.1593197e-38 294 246
-0.033488665 0.764 -0.0080372803 1.177723e-38 295 246
-0.032064959 0.76200002 -0.0080162399 1.1959819e-38 296 246
-0.030688593 0.76099998 -0.0080057196 1.1775788e-38 297 246
-0.029354304 0.76099998 -0.0080057196 1.1592469e-38 298 246
-0.028020019 0.76099998 -0.0080057196 1.1592469e-38 299 246
-0.026685731 0.76099998 -0.0080057196 1.0947822e-38 300 246
-0.025284819 0.759 -0.0079846792 1.0947822e-38 301 246
-0.023954039 0.759 -0.0079846792 1.1038226e-38 302 246
-0.022682872 0.76099998 -0.0080057196 1.1314452e-38 303 246
-0.021348584 0.76099998 -0.0080057196 1.113114e-38 304 246
-0.020014299 0.76099998 -0.0080057196 1.1315533e-38 305 246
-0.018680012 0.76099998 -0.0080057196 1.1132942e-38 306 246
-0.017300138 0.759 -0.0079846792 1.1132942e-38 307 246
-0.015969358 0.759 -0.0079846792 1.1041107e-38 308 246
-0.014638579 0.759 -0.0079846792 1.0948911e-38 309 246
-0.0133078 0.759 -0.0079846792 1.067268e-38 310 246
-0.01197702 0.759 -0.0079846792 1.067268e-38 311 246
-0.010618187 0.75700003 -0.0079636406 1.0855629e-38 312 246
-0.0092909131 0.75700003 -0.0079636406 1.0947825e-38 313 246
-0.0079846792 0.759 -0.0079846792 1.1224053e-38 314 246
-0.0066363667 0.75700003 -0.0079636406 1.1131858e-38 315 246
-0.0053090933 0.75700003 -0.0079636406 1.1406652e-38 316 246
-0.0039923396 0.759 -0.0079846792 1.1130065e-38 317 246
-0.00266156 0.759 -0.0079846792 1.1313736e-38 318 246
-0.00133078 0.759 -0.0079846792 1.1498129e-38 319 246
0 0.759 -0.0079846792 1.1956583e-38 320 246
0.00133078 0.759 -0.0079846792 1.2048779e-38 321 246
0.0026685731 0.76099998 -0.0080057196 1.2141331e-38 322 246
0.0040028598 0.76099998 -0.0080057196 1.2417557e-38 323 246
0.0053371461 0.76099998 -0.0080057196 1.186726e-38 324 246
0.0066714329 0.76099998 -0.0080057196 1.1774706e-38 325 246
0.0080057196 0.76099998 -0.0080057196 1.1590675e-38 326 246
0.0093522798 0.76200002 -0.0080162399 1.1590675e-38 327 246
0.01068832 0.76200002 -0.0080162399 1.1407356e-38 328 246
0.01202436 0.76200002 -0.0080162399 1.1499551e-38 329 246
0.0133604 0.76200002 -0.0080162399 1.1132211e-38 330 246
0.014735013 0.764 -0.0080372803 1.1224406e-38 331 246
0.016074561 0.764 -0.0080372803 1.0948914e-38 332 246
0.017414106 0.764 -0.0080372803 1.1317698e-38 333 246
0.018827293 0.76700002 -0.00806884 1.104328e-38 334 246
0.020172099 0.76700002 -0.00806884 1.1412063e-38 335 246
0.021516906 0.76700002 -0.00806884 1.0952905e-38 336 246
0.022921326 0.76899999 -0.0080898795 1.4087556e-38 337 246
-0.050211959 0.77399999 -0.0094995592 1.5027535e-38 283 247
-0.048791755 0.773 -0.0094872871 1.2435595e-38 284 247
-0.047313701 0.77100003 -0.0094627403 1.1144856e-38 285 247
-0.045961879 0.77100003 -0.0094627403 1.2794271e-38 286 247
-0.044610061 0.77100003 -0.0094627403 1.2148902e-38 287 247
-0.043146025 0.76899999 -0.0094381925 1.2148165e-38 288 247
-0.041689005 0.76700002 -0.0094136465 1.1779381e-38 289 247
-0.040344197 0.76700002 -0.0094136465 1.1502795e-38 290 247
-0.038999394 0.76700002 -0.0094136465 1.14106e-38 291 247
-0.037605491 0.76599997 -0.0094013726 1.1225504e-38 292 247
-0.036262438 0.76599997 -0.0094013726 1.1225504e-38 293 247
-0.034919381 0.76599997 -0.0094013726 1.1040409e-38 294 247
-0.033488665 0.764 -0.0093768267 1.0947854e-38 295 247
-0.032149121 0.764 -0.0093768267 1.1040403e-38 296 247
-0.030728921 0.76200002 -0.0093522798 1.1132958e-38 297 247
-0.029392879 0.76200002 -0.0093522798 1.1041112e-38 298 247
-0.028020019 0.76099998 -0.0093400059 1.0764527e-38 299 247
-0.026685731 0.76099998 -0.0093400059 1.0579781e-38 300 247
-0.025351444 0.76099998 -0.0093400059 1.0487585e-38 301 247
-0.024017159 0.76099998 -0.0093400059 1.021244e-38 302 247
-0.02262326 0.759 -0.00931546 1.0304636e-38 303 247
-0.02129248 0.759 -0.00931546 1.01224e-38 304 247
-0.020014299 0.76099998 -0.0093400059 1.0214596e-38 305 247
-0.018680012 0.76099998 -0.0093400059 1.0214593e-38 306 247
-0.017300138 0.759 -0.00931546 1.0214593e-38 307 247
-0.015969358 0.759 -0.00931546 1.0489738e-38 308 247
-0.014600007 0.75700003 -0.0092909131 1.0489738e-38 309 247
-0.013272733 0.75700003 -0.0092909131 1.0396819e-38 310 247
-0.01194546 0.75700003 -0.0092909131 1.0304623e-38 311 247
-0.010618187 0.75700003 -0.0092909131 1.0487585e-38 312 247
-0.0092909131 0.75700003 -0.0092909131 1.0487585e-38 313 247
-0.0079636406 0.75700003 -0.0092909131 1.030392e-38 314 247
-0.0066363667 0.75700003 -0.0092909131 1.030392e-38 315 247
-0.0053231199 0.759 -0.00931546 1.0669826e-38 316 247
-0.0039923396 0.759 -0.00931546 1.0669826e-38 317 247
-0.00266156 0.759 -0.00931546 1.0395034e-38 318 247
-0.00133078 0.759 -0.00931546 1.0487588e-38 319 247
0 0.759 -0.00931546 1.0946045e-38 320 247
0.0013342865 0.76099998 -0.0093400059 1.1222634e-38 321 247
0.0026685731 0.76099998 -0.0093400059 1.1222984e-38 322 247
0.0040028598 0.76099998 -0.0093400059 1.1407734e-38 323 247
0.0053371461 0.76099998 -0.0093400059 1.1406649e-38 324 247
0.0066714329 0.76099998 -0.0093400059 1.1498845e-38 325 247
0.0080057196 0.76099998 -0.0093400059 1.1407003e-38 326 247
0.0093522798 0.76200002 -0.0093522798 1.1499198e-38 327 247
0.01068832 0.76200002 -0.0093522798 1.1132211e-38 328 247
0.01202436 0.76200002 -0.0093522798 1.1132211e-38 329 247
0.013395466 0.764 -0.0093768267 1.113186e-38 330 247
0.014735013 0.764 -0.0093768267 1.113186e-38 331 247
0.016074561 0.764 -0.0093768267 1.1040759e-38 332 247
0.017459691 0.76599997 -0.0094013726 1.122515e-38 333 247
0.018827293 0.76700002 -0.0094136465 1.1044369e-38 334 247
0.020172099 0.76700002 -0.0094136465 1.1321316e-38 335 247
0.021573013 0.76899999 -0.0094381925 1.1047621e-38 336 247
0.02298094 0.77100003 -0.0094627403 1.4089718e-38 337 247
-0.050211959 0.77399999 -0.01085664 1.4844222e-38 283 248
-0.048791755 0.773 -0.010842613 1.2528507e-38 284 248
-0.047313701 0.77100003 -0.01081456 1.0777148e-38 285 248
-0.045961879 0.77100003 -0.01081456 1.2608805e-38 286 248
-0.044610061 0.77100003 -0.01081456 1.2240381e-38 287 248
-0.043146025 0.76899999 -0.010786506 1.1870151e-38 288 248
-0.041797712 0.76899999 -0.010786506 1.168576e-38 289 248
-0.040344197 0.76700002 -0.010758453 1.1225857e-38 290 248
-0.038999394 0.76700002 -0.010758453 1.1133661e-38 291 248
-0.037605491 0.76599997 -0.010744425 1.1132589e-38 292 248
-0.036262438 0.76599997 -0.010744425 1.0947839e-38 293 248
-0.034919381 0.76599997 -0.010744425 1.0855646e-38 294 248
-0.033488665 0.764 -0.010716373 1.0763449e-38 295 248
-0.032149121 0.764 -0.010716373 1.0763449e-38 296 248
-0.030688593 0.76099998 -0.010674292 1.0855646e-38 297 248
-0.029354304 0.76099998 -0.010674292 1.0396469e-38 298 248
-0.028020019 0.76099998 -0.010674292 1.0304273e-38 299 248
-0.026685731 0.76099998 -0.010674292 1.0211722e-38 300 248
-0.025351444 0.76099998 -0.010674292 1.0119526e-38 301 248
-0.023954039 0.759 -0.01064624 9.9365668e-39 302 248
-0.02262326 0.759 -0.01064624 1.0028762e-38 303 248
-0.02129248 0.759 -0.01064624 9.9372828e-39 304 248
-0.020014299 0.76099998 -0.010674292 1.0029478e-38 305 248
-0.01863092 0.759 -0.01064624 1.0212791e-38 306 248
-0.017300138 0.759 -0.01064624 1.0305345e-38 307 248
-0.015927281 0.75700003 -0.010618187 1.0487938e-38 308 248
-0.014600007 0.75700003 -0.010618187 1.0487938e-38 309 248
-0.013272733 0.75700003 -0.010618187 1.0212075e-38 310 248
-0.01194546 0.75700003 -0.010618187 1.0212075e-38 311 248
-0.010618187 0.75700003 -0.010618187 1.011916e-38 312 248
-0.0092909131 0.75700003 -0.010618187 1.0303191e-38 313 248
-0.0079636406 0.75700003 -0.010618187 1.0301756e-38 314 248
-0.0066363667 0.75700003 -0.010618187 1.0209559e-38 315 248
-0.0053231199 0.759 -0.01064624 1.0300323e-38 316 248
-0.0039923396 0.759 -0.01064624 1.0300323e-38 317 248
-0.0026685731 0.76099998 -0.010674292 1.0117729e-38 318 248
-0.00133078 0.759 -0.01064624 1.0209926e-38 319 248
0 0.759 -0.01064624 1.0760214e-38 320 248
0.0013342865 0.76099998 -0.010674292 1.1128636e-38 321 248
0.0026685731 0.76099998 -0.010674292 1.0946746e-38 322 248
0.0040028598 0.76099998 -0.010674292 1.1038942e-38 323 248
0.0053371461 0.76099998 -0.010674292 1.1221888e-38 324 248
0.0066714329 0.76099998 -0.010674292 1.1314084e-38 325 248
0.0080057196 0.76099998 -0.010674292 1.1131493e-38 326 248
0.0093522798 0.76200002 -0.01068832 1.1131493e-38 327 248
0.01068832 0.76200002 -0.01068832 1.0947825e-38 328 248
0.01202436 0.76200002 -0.01068832 1.1131858e-38 329 248
0.013395466 0.764 -0.010716373 1.1131504e-38 330 248
0.014735013 0.764 -0.010716373 1.1131504e-38 331 248
0.016116638 0.76599997 -0.010744425 1.0948564e-38 332 248
0.017482487 0.76700002 -0.010758453 1.1317347e-38 333 248
0.018876385 0.76899999 -0.010786506 1.1044006e-38 334 248
0.0202247 0.76899999 -0.010786506 1.1504984e-38 335 248
0.021573013 0.76899999 -0.010786506 1.1048704e-38 336 248
-0.050341707 0.77600002 -0.01224528 1.5213001e-38 283 249
-0.04885488 0.77399999 -0.01221372 1.2897286e-38 284 249
-0.047436431 0.773 -0.012197939 1.0315809e-38 285 249
-0.045961879 0.77100003 -0.01216638 1.1964518e-38 286 249
-0.044610061 0.77100003 -0.01216638 1.1780126e-38 287 249
-0.043258239 0.77100003 -0.01216638 1.1318066e-38 288 249
-0.041797712 0.76899999 -0.012134819 1.0949643e-38 289 249
-0.040344197 0.76700002 -0.01210326 1.0765248e-38 290 249
-0.038999394 0.76700002 -0.01210326 1.0765248e-38 291 249
-0.037654586 0.76700002 -0.01210326 1.0581933e-38 292 249
-0.036262438 0.76599997 -0.012087479 1.0397542e-38 293 249
-0.034919381 0.76599997 -0.012087479 1.0396819e-38 294 249
-0.033576332 0.76599997 -0.012087479 1.0304623e-38 295 249
-0.032149121 0.764 -0.01205592 1.0212794e-38 296 249
-0.030688593 0.76099998 -0.012008579 1.0028762e-38 297 249
-0.029354304 0.76099998 -0.012008579 9.9362136e-39 298 249
-0.028020019 0.76099998 -0.012008579 9.9362136e-39 299 249
-0.026685731 0.76099998 -0.012008579 9.8447341e-39 300 249
-0.025351444 0.76099998 -0.012008579 9.8447341e-39 301 249
-0.023954039 0.759 -0.01197702 9.8443711e-39 302 249
-0.02262326 0.759 -0.01197702 9.9365668e-39 303 249
-0.02129248 0.759 -0.01197702 9.6614246e-39 304 249
-0.020014299 0.76099998 -0.012008579 9.6614246e-39 305 249
-0.01863092 0.759 -0.01197702 9.9362136e-39 306 249
-0.017300138 0.759 -0.01197702 9.9362136e-39 307 249
-0.015927281 0.75700003 -0.01194546 9.9362108e-39 308 249
-0.014600007 0.75700003 -0.01194546 9.9362108e-39 309 249
-0.013272733 0.75700003 -0.01194546 9.8447341e-39 310 249
-0.01194546 0.75700003 -0.01194546 9.8447341e-39 311 249
-0.010618187 0.75700003 -0.01194546 9.8440152e-39 312 249
-0.0092909131 0.75700003 -0.01194546 9.7518196e-39 313 249
-0.0079636406 0.75700003 -0.01194546 9.9340584e-39 314 249
-0.0066363667 0.75700003 -0.01194546 9.6574716e-39 315 249
-0.0053231199 0.759 -0.01197702 9.4738062e-39 316 249
-0.0039923396 0.759 -0.01197702 9.4738062e-39 317 249
-0.0026685731 0.76099998 -0.012008579 9.4738062e-39 318 249
-0.00133078 0.759 -0.01197702 9.4738062e-39 319 249
0 0.759 -0.01197702 9.7489511e-39 320 249
0.00133078 0.759 -0.01197702 9.9333424e-39 321 249
0.0026685731 0.76099998 -0.012008579 1.0210277e-38 322 249
0.0040028598 0.76099998 -0.012008579 1.0302472e-38 323 249
0.0053371461 0.76099998 -0.012008579 1.0670163e-38 324 249
0.0066714329 0.76099998 -0.012008579 1.0762359e-38 325 249
0.0080057196 0.76099998 -0.012008579 1.1038939e-38 326 249
0.0093522798 0.76200002 -0.01202436 1.0946743e-38 327 249
0.01068832 0.76200002 -0.01202436 1.0763797e-38 328 249
0.01205592 0.764 -0.01205592 1.0855992e-38 329 249
0.013395466 0.764 -0.01205592 1.0763802e-38 330 249
0.014773586 0.76599997 -0.012087479 1.0948195e-38 331 249
0.016116638 0.76599997 -0.012087479 1.0581227e-38 332 249
0.017482487 0.76700002 -0.01210326 1.0950008e-38 333 249
0.018876385 0.76899999 -0.012134819 1.0769583e-38 334 249
0.0202247 0.76899999 -0.012134819 1.1138367e-38 335 249
-0.050211959 0.77399999 -0.013570799 1.5489589e-38 283 250
-0.04885488 0.77399999 -0.013570799 1.3267146e-38 284 250
-0.047436431 0.773 -0.013553266 1.0040299e-38 285 250
-0.046081103 0.773 -0.013553266 1.1136199e-38 286 250
-0.044725779 0.773 -0.013553266 1.1044003e-38 287 250
-0.043370452 0.773 -0.013553266 1.0856738e-38 288 250
-0.041797712 0.76899999 -0.013483133 1.0580151e-38 289 250
-0.040344197 0.76700002 -0.013448066 1.0304992e-38 290 250
-0.038999394 0.76700002 -0.013448066 1.0397189e-38 291 250
-0.037654586 0.76700002 -0.013448066 1.012203e-38 292 250
-0.036262438 0.76599997 -0.013430533 1.0029834e-38 293 250
-0.034919381 0.76599997 -0.013430533 1.002911e-38 294 250
-0.033576332 0.76599997 -0.013430533 1.002911e-38 295 250
-0.032149121 0.764 -0.013395466 9.8450844e-39 296 250
-0.030728921 0.76200002 -0.0133604 9.8450844e-39 297 250
-0.029354304 0.76099998 -0.013342866 9.8447313e-39 298 250
-0.028020019 0.76099998 -0.013342866 9.8447313e-39 299 250
-0.026685731 0.76099998 -0.013342866 9.8443683e-39 300 250
-0.025351444 0.76099998 -0.013342866 9.8443683e-39 301 250
-0.023954039 0.759 -0.0133078 9.7528916e-39 302 250
-0.02262326 0.759 -0.0133078 9.8450872e-39 303 250
-0.021348584 0.76099998 -0.013342866 9.8447313e-39 304 250
-0.020014299 0.76099998 -0.013342866 9.8447313e-39 305 250
-0.01863092 0.759 -0.0133078 9.8450872e-39 306 250
-0.017300138 0.759 -0.0133078 9.8450872e-39 307 250
-0.015927281 0.75700003 -0.013272733 9.7528916e-39 308 250
-0.014600007 0.75700003 -0.013272733 9.7528916e-39 309 250
-0.013272733 0.75700003 -0.013272733 9.5692262e-39 310 250
-0.01194546 0.75700003 -0.013272733 9.5692262e-39 311 250
-0.010618187 0.75700003 -0.013272733 9.8443711e-39 312 250
-0.0092909131 0.75700003 -0.013272733 9.6596197e-39 313 250
-0.0079636406 0.75700003 -0.013272733 9.8414943e-39 314 250
-0.0066363667 0.75700003 -0.013272733 9.7492986e-39 315 250
-0.0053231199 0.759 -0.0133078 9.3819637e-39 316 250
-0.0039923396 0.759 -0.0133078 9.2894093e-39 317 250
-0.0026685731 0.76099998 -0.013342866 9.1053768e-39 318 250
-0.00133078 0.759 -0.0133078 9.1053768e-39 319 250
0 0.759 -0.0133078 9.288689e-39 320 250
0.00133078 0.759 -0.0133078 9.4734404e-39 321 250
0.0026685731 0.76099998 -0.013342866 9.6578247e-39 322 250
0.0040028598 0.76099998 -0.013342866 9.8422159e-39 323 250
0.0053371461 0.76099998 -0.013342866 1.0027315e-38 324 250
0.0066714329 0.76099998 -0.013342866 1.011951e-38 325 250
0.0080057196 0.76099998 -0.013342866 1.0120227e-38 326 250
0.0093522798 0.76200002 -0.0133604 1.0120227e-38 327 250
0.01068832 0.76200002 -0.0133604 1.0212425e-38 328 250
0.01205592 0.764 -0.013395466 1.0304621e-38 329 250
0.013430533 0.76599997 -0.013430533 1.0396819e-38 330 250
0.014773586 0.76599997 -0.013430533 1.0673047e-38 331 250
0.01613768 0.76700002 -0.013448066 1.048975e-38 332 250
0.017528072 0.76899999 -0.013483133 1.0858893e-38 333 250
0.018876385 0.76899999 -0.013483133 1.0861778e-38 334 250
0.0202247 0.76899999 -0.013483133 1.1230921e-38 335 250
-0.050211959 0.77399999 -0.014927879 1.595057e-38 283 251
-0.04885488 0.77399999 -0.014927879 1.4467489e-38 284 251
-0.047436431 0.773 -0.014908593 1.022649e-38 285 251
-0.046081103 0.773 -0.014908593 1.0402953e-38 286 251
-0.044725779 0.773 -0.014908593 1.0402953e-38 287 251
-0.043370452 0.773 -0.014908593 1.0489756e-38 288 251
-0.04190642 0.77100003 -0.01487002 1.0120973e-38 289 251
-0.040344197 0.76700002 -0.014792874 9.7543391e-39 290 251
-0.038999394 0.76700002 -0.014792874 9.7543391e-39 291 251
-0.037654586 0.76700002 -0.014792874 9.9372828e-39 292 251
-0.036262438 0.76599997 -0.014773586 9.8450872e-39 293 251
-0.034919381 0.76599997 -0.014773586 9.9369143e-39 294 251
-0.033576332 0.76599997 -0.014773586 9.9369143e-39 295 251
-0.032149121 0.764 -0.014735013 9.752886e-39 296 251
-0.030728921 0.76200002 -0.01469644 9.752886e-39 297 251
-0.029354304 0.76099998 -0.014677152 9.7528916e-39 298 251
-0.028020019 0.76099998 -0.014677152 9.7528916e-39 299 251
-0.026685731 0.76099998 -0.014677152 9.8450844e-39 300 251
-0.025351444 0.76099998 -0.014677152 9.7528888e-39 301 251
-0.023954039 0.759 -0.014638579 9.6617721e-39 302 251
-0.02262326 0.759 -0.014638579 9.7539678e-39 303 251
-0.021348584 0.76099998 -0.014677152 9.7539706e-39 304 251
-0.020014299 0.76099998 -0.014677152 9.7539706e-39 305 251
-0.018680012 0.76099998 -0.014677152 9.7539706e-39 306 251
-0.017300138 0.759 -0.014638579 9.6617749e-39 307 251
-0.015927281 0.75700003 -0.014600007 9.4770278e-39 308 251
-0.014600007 0.75700003 -0.014600007 9.3848307e-39 309 251
-0.013272733 0.75700003 -0.014600007 9.2011625e-39 310 251
-0.01194546 0.75700003 -0.014600007 9.2933596e-39 311 251
-0.010618187 0.75700003 -0.014600007 9.6596197e-39 312 251
-0.00931546 0.759 -0.014638579 9.6596197e-39 313 251
-0.0079846792 0.759 -0.014638579 9.6578247e-39 314 251
-0.0066538998 0.759 -0.014638579 9.4737936e-39 315 251
-0.0053231199 0.759 -0.014638579 8.9227848e-39 316 251
-0.0039923396 0.759 -0.014638579 8.9227848e-39 317 251
-0.0026685731 0.76099998 -0.014677152 8.739111e-39 318 251
-0.0013342865 0.76099998 -0.014677152 8.5547211e-39 319 251
0 0.76099998 -0.014677152 8.9209855e-39 320 251
0.0013342865 0.76099998 -0.014677152 9.1053768e-39 321 251
0.0026685731 0.76099998 -0.014677152 8.9231379e-39 322 251
0.0040028598 0.76099998 -0.014677152 9.1993647e-39 323 251
0.0053371461 0.76099998 -0.014677152 9.4752257e-39 324 251
0.0066714329 0.76099998 -0.014677152 9.4752257e-39 325 251
0.0080057196 0.76099998 -0.014677152 9.7503734e-39 326 251
0.0093522798 0.76200002 -0.01469644 9.8425691e-39 327 251
0.01068832 0.76200002 -0.01469644 9.8443683e-39 328 251
0.01205592 0.764 -0.014735013 1.002876e-38 329 251
0.013430533 0.76599997 -0.014773586 1.0396822e-38 330 251
0.014792874 0.76700002 -0.014792874 1.067305e-38 331 251
0.01613768 0.76700002 -0.014792874 1.0307157e-38 332 251
0.017528072 0.76899999 -0.014831445 1.06763e-38 333 251
0.018876385 0.76899999 -0.014831445 1.0586633e-38 334 251
0.0202247 0.76899999 -0.014831445 1.150895e-38 335 251
-0.04885488 0.77399999 -0.016284959 1.5299414e-38 284 252
-0.047436431 0.773 -0.016263919 1.0597436e-38 285 252
-0.046081103 0.773 -0.016263919 1.058734e-38 286 252
-0.044725779 0.773 -0.016263919 1.0126363e-38 287 252
-0.043370452 0.773 -0.016263919 1.0582302e-38 288 252
-0.04190642 0.77100003 -0.016221842 1.0121324e-38 289 252
-0.040554602 0.77100003 -0.016221842 9.4788284e-39 290 252
-0.038999394 0.76700002 -0.01613768 9.2940784e-39 291 252
-0.037654586 0.76700002 -0.01613768 9.0178531e-39 292 252
-0.036309779 0.76700002 -0.01613768 9.0178531e-39 293 252
-0.034919381 0.76599997 -0.016116638 9.2011625e-39 294 252
-0.033576332 0.76599997 -0.016116638 9.2933596e-39 295 252
-0.032149121 0.764 -0.016074561 9.4770278e-39 296 252
-0.030728921 0.76200002 -0.01603248 9.4770278e-39 297 252
-0.029392879 0.76200002 -0.01603248 9.7518168e-39 298 252
-0.028020019 0.76099998 -0.016011439 9.8443711e-39 299 252
-0.026685731 0.76099998 -0.016011439 9.7528888e-39 300 252
-0.025351444 0.76099998 -0.016011439 9.8450844e-39 301 252
-0.024017159 0.76099998 -0.016011439 9.6617749e-39 302 252
-0.022682872 0.76099998 -0.016011439 9.7539706e-39 303 252
-0.021348584 0.76099998 -0.016011439 9.6624938e-39 304 252
-0.020014299 0.76099998 -0.016011439 9.6624938e-39 305 252
-0.01863092 0.759 -0.015969358 9.4788256e-39 306 252
-0.017300138 0.759 -0.015969358 9.2944344e-39 307 252
-0.015969358 0.759 -0.015969358 9.2018828e-39 308 252
-0.014600007 0.75700003 -0.015927281 9.0178503e-39 309 252
-0.013272733 0.75700003 -0.015927281 9.2011653e-39 310 252
-0.01194546 0.75700003 -0.015927281 9.1089697e-39 311 252
-0.010618187 0.75700003 -0.015927281 9.2915631e-39 312 252
-0.00931546 0.759 -0.015969358 9.2915631e-39 313 252
-0.0079846792 0.759 -0.015969358 9.2908414e-39 314 252
-0.0066538998 0.759 -0.015969358 9.1064502e-39 315 252
-0.0053231199 0.759 -0.015969358 9.1986458e-39 316 252
-0.0039923396 0.759 -0.015969358 9.1064502e-39 317 252
-0.0026685731 0.76099998 -0.016011439 8.7383893e-39 318 252
-0.0013342865 0.76099998 -0.016011439 8.6461937e-39 319 252
0 0.76099998 -0.016011439 8.7383921e-39 320 252
0.0013342865 0.76099998 -0.016011439 8.8305878e-39 321 252
0.0026685731 0.76099998 -0.016011439 8.8316612e-39 322 252
0.0040028598 0.76099998 -0.016011439 8.9238568e-39 323 252
0.0053371461 0.76099998 -0.016011439 9.2894093e-39 324 252
0.0066801999 0.76200002 -0.01603248 9.1053768e-39 325 252
0.0080162399 0.76200002 -0.01603248 8.9224345e-39 326 252
0.0093522798 0.76200002 -0.01603248 9.1986612e-39 327 252
0.01068832 0.76200002 -0.01603248 9.2008094e-39 328 252
0.012087479 0.76599997 -0.016116638 9.5695919e-39 329 252
0.013448066 0.76700002 -0.01613768 1.0121324e-38 330 252
0.014792874 0.76700002 -0.01613768 1.0397911e-38 331 252
0.01613768 0.76700002 -0.01613768 1.0307883e-38 332 252
0.017528072 0.76899999 -0.016179759 1.058447e-38 333 252
0.018876385 0.76899999 -0.016179759 1.0220379e-38 334 252
0.0202247 0.76899999 -0.016179759 1.1142335e-38 335 252
-0.04885488 0.77399999 -0.01764204 1.6038783e-38 284 253
-0.047436431 0.773 -0.017619247 1.1244251e-38 285 253
-0.046081103 0.773 -0.017619247 1.0773177e-38 286 253
-0.044725779 0.773 -0.017619247 8.7448731e-39 287 253
-0.043370452 0.773 -0.017619247 9.0207398e-39 288 253
-0.04190642 0.77100003 -0.01757366 9.2051324e-39 289 253
-0.040554602 0.77100003 -0.01757366 9.1122137e-39 290 253
-0.038999394 0.76700002 -0.017482487 8.8356268e-39 291 253
-0.037654586 0.76700002 -0.017482487 9.0175e-39 292 253
-0.036309779 0.76700002 -0.017482487 8.7405543e-39 293 253
-0.034964975 0.76700002 -0.017482487 9.2915631e-39 294 253
-0.033576332 0.76599997 -0.017459691 9.2915631e-39 295 253
-0.032233275 0.76599997 -0.017459691 9.4748726e-39 296 253
-0.030809574 0.764 -0.017414106 9.6596226e-39 297 253
-0.029392879 0.76200002 -0.01736852 9.7521727e-39 298 253
-0.028020019 0.76099998 -0.017345725 9.7521727e-39 299 253
-0.026685731 0.76099998 -0.017345725 9.8447215e-39 300 253
-0.025351444 0.76099998 -0.017345725 9.8447215e-39 301 253
-0.024017159 0.76099998 -0.017345725 9.7521699e-39 302 253
-0.022682872 0.76099998 -0.017345725 9.8443655e-39 303 253
-0.021348584 0.76099998 -0.017345725 9.8443683e-39 304 253
-0.020014299 0.76099998 -0.017345725 9.8443683e-39 305 253
-0.01863092 0.759 -0.017300138 9.5692262e-39 306 253
-0.017300138 0.759 -0.017300138 9.5692262e-39 307 253
-0.015969358 0.759 -0.017300138 9.2933652e-39 308 253
-0.014600007 0.75700003 -0.017254554 9.2008094e-39 309 253
-0.013272733 0.75700003 -0.017254554 9.1086166e-39 310 253
-0.01194546 0.75700003 -0.017254554 9.1086166e-39 311 253
-0.010618187 0.75700003 -0.017254554 9.3819637e-39 312 253
-0.00931546 0.759 -0.017300138 9.1053768e-39 313 253
-0.0079846792 0.759 -0.017300138 8.9231351e-39 314 253
-0.0066538998 0.759 -0.017300138 8.9231351e-39 315 253
-0.0053231199 0.759 -0.017300138 8.923491e-39 316 253
-0.0039923396 0.759 -0.017300138 8.7387396e-39 317 253
-0.0026685731 0.76099998 -0.017345725 8.6461937e-39 318 253
-0.0013342865 0.76099998 -0.017345725 8.4618024e-39 319 253
0 0.76099998 -0.017345725 8.6454776e-39 320 253
0.0013342865 0.76099998 -0.017345725 8.9217044e-39 321 253
0.0026685731 0.76099998 -0.017345725 8.7391082e-39 322 253
0.0040028598 0.76099998 -0.017345725 8.8313052e-39 323 253
0.0053371461 0.76099998 -0.017345725 9.0131783e-39 324 253
0.0066801999 0.76200002 -0.01736852 8.9209827e-39 325 253
0.0080162399 0.76200002 -0.01736852 8.6454776e-39 326 253
0.0093522798 0.76200002 -0.01736852 9.0139e-39 327 253
0.010716373 0.764 -0.017414106 9.2011625e-39 328 253
0.01210326 0.76700002 -0.017482487 9.5699451e-39 329 253
0.013448066 0.76700002 -0.017482487 1.0029844e-38 330 253
0.014792874 0.76700002 -0.017482487 1.0306791e-38 331 253
0.01613768 0.76700002 -0.017482487 1.0308239e-38 332 253
0.017528072 0.76899999 -0.017528072 1.0953608e-38 333 253
0.018925481 0.77100003 -0.01757366 1.0037429e-38 334 253
-0.04885488 0.77399999 -0.018999118 1.6040948e-38 284 254
-0.047436431 0.773 -0.018974574 1.2721905e-38 285 254
-0.046081103 0.773 -0.018974574 1.1604736e-38 286 254
-0.044725779 0.773 -0.018974574 9.0232579e-39 287 254
-0.043370452 0.773 -0.018974574 9.2976784e-39 288 254
-0.042015124 0.773 -0.018974574 9.2976784e-39 289 254
-0.040554602 0.77100003 -0.018925481 9.1125668e-39 290 254
-0.03920278 0.77100003 -0.018925481 8.7434256e-39 291 254
-0.03775277 0.76899999 -0.018876385 8.6505125e-39 292 254
-0.036309779 0.76700002 -0.018827293 8.4657625e-39 293 254
-0.034964975 0.76700002 -0.018827293 8.6483587e-39 294 254
-0.033576332 0.76599997 -0.018802745 8.7405543e-39 295 254
-0.032233275 0.76599997 -0.018802745 9.0164181e-39 296 254
-0.030809574 0.764 -0.018753653 9.2008094e-39 297 254
-0.029392879 0.76200002 -0.01870456 9.2937155e-39 298 254
-0.028020019 0.76099998 -0.018680012 9.2937155e-39 299 254
-0.026685731 0.76099998 -0.018680012 9.2022331e-39 300 254
-0.025351444 0.76099998 -0.018680012 9.2022331e-39 301 254
-0.024017159 0.76099998 -0.018680012 9.2015185e-39 302 254
-0.022682872 0.76099998 -0.018680012 9.1089641e-39 303 254
-0.021348584 0.76099998 -0.018680012 9.1078977e-39 304 254
-0.020014299 0.76099998 -0.018680012 9.2000933e-39 305 254
-0.01863092 0.759 -0.01863092 8.9249512e-39 306 254
-0.017300138 0.759 -0.01863092 9.0171468e-39 307 254
-0.015969358 0.759 -0.01863092 8.9249484e-39 308 254
-0.014638579 0.759 -0.01863092 8.9249484e-39 309 254
-0.0133078 0.759 -0.01863092 9.1079005e-39 310 254
-0.01197702 0.759 -0.01863092 8.9231505e-39 311 254
-0.01064624 0.759 -0.01863092 8.8302318e-39 312 254
-0.00931546 0.759 -0.01863092 8.7380362e-39 313 254
-0.0079846792 0.759 -0.01863092 8.4635975e-39 314 254
-0.0066538998 0.759 -0.01863092 8.4635975e-39 315 254
-0.0053371461 0.76099998 -0.018680012 8.1877337e-39 316 254
-0.0040028598 0.76099998 -0.018680012 8.0033424e-39 317 254
-0.0026685731 0.76099998 -0.018680012 7.7267653e-39 318 254
-0.0013342865 0.76099998 -0.018680012 7.7267653e-39 319 254
0 0.76099998 -0.018680012 7.4512673e-39 320 254
0.0013342865 0.76099998 -0.018680012 7.5434629e-39 321 254
0.0026685731 0.76099998 -0.018680012 8.0955535e-39 322 254
0.0040028598 0.76099998 -0.018680012 8.1877491e-39 323 254
0.0053441599 0.76200002 -0.01870456 8.7380418e-39 324 254
0.0066801999 0.76200002 -0.01870456 8.4610962e-39 325 254
0.0080162399 0.76200002 -0.01870456 8.1873834e-39 326 254
0.0093522798 0.76200002 -0.01870456 8.6483615e-39 327 254
0.010744425 0.76599997 -0.018802745 8.4672002e-39 328 254
0.01210326 0.76700002 -0.018827293 8.9278197e-39 329 254
0.013448066 0.76700002 -0.018827293 9.4802746e-39 330 254
0.014831445 0.76899999 -0.018876385 9.8490557e-39 331 254
0.016179759 0.76899999 -0.018876385 1.0126729e-38 332 254
0.017528072 0.76899999 -0.018876385 1.0495871e-38 333 254
0.018925481 0.77100003 -0.018925481 1.013179e-38 334 254
-0.048791755 0.773 -0.0203299 1.6223913e-38 284 255
-0.047436431 0.773 -0.0203299 1.4103055e-38 285 255
-0.046081103 0.773 -0.0203299 1.3082031e-38 286 255
-0.044610061 0.77100003 -0.020277301 9.2098142e-39 287 255
-0.043258239 0.77100003 -0.020277301 9.6661064e-39 288 255
-0.042015124 0.773 -0.0203299 9.758302e-39 289 255
-0.0406598 0.773 -0.0203299 9.2047765e-39 290 255
-0.03920278 0.77100003 -0.020277301 8.9281882e-39 291 255
-0.037850961 0.77100003 -0.020277301 8.4686366e-39 292 255
-0.036404461 0.76899999 -0.0202247 8.1924084e-39 293 255
-0.034964975 0.76700002 -0.020172099 8.4661184e-39 294 255
-0.033620168 0.76700002 -0.020172099 8.3739228e-39 295 255
-0.032233275 0.76599997 -0.020145798 8.833459e-39 296 255
-0.030809574 0.764 -0.020093199 9.0178503e-39 297 255
-0.029470026 0.764 -0.020093199 9.0182034e-39 298 255
-0.028056841 0.76200002 -0.0200406 8.9260078e-39 299 255
-0.0267208 0.76200002 -0.0200406 8.9260078e-39 300 255
-0.025351444 0.76099998 -0.020014299 8.9260078e-39 301 255
-0.024017159 0.76099998 -0.020014299 9.108248e-39 302 255
-0.022682872 0.76099998 -0.020014299 8.9238568e-39 303 255
-0.021348584 0.76099998 -0.020014299 8.9227876e-39 304 255
-0.020014299 0.76099998 -0.020014299 8.9227876e-39 305 255
-0.018680012 0.76099998 -0.020014299 8.6472867e-39 306 255
-0.017345725 0.76099998 -0.020014299 8.9238722e-39 307 255
-0.016011439 0.76099998 -0.020014299 8.9238694e-39 308 255
-0.014638579 0.759 -0.0199617 8.9238694e-39 309 255
-0.0133078 0.759 -0.0199617 8.9235065e-39 310 255
-0.01197702 0.759 -0.0199617 8.8309521e-39 311 255
-0.01064624 0.759 -0.0199617 8.4628814e-39 312 255
-0.0093400059 0.76099998 -0.020014299 8.4628814e-39 313 255
-0.0079846792 0.759 -0.0199617 8.2792062e-39 314 255
-0.0066538998 0.759 -0.0199617 8.0026207e-39 315 255
-0.0053371461 0.76099998 -0.020014299 7.9100706e-39 316 255
-0.0040028598 0.76099998 -0.020014299 7.7256793e-39 317 255
-0.0026685731 0.76099998 -0.020014299 7.3572696e-39 318 255
-0.0013342865 0.76099998 -0.020014299 7.2650739e-39 319 255
0 0.76099998 -0.020014299 7.1736042e-39 320 255
0.0013342865 0.76099998 -0.020014299 7.4498309e-39 321 255
0.0026685731 0.76099998 -0.020014299 7.6338592e-39 322 255
0.0040081199 0.76200002 -0.0200406 8.0026418e-39 323 255
0.0053441599 0.76200002 -0.0200406 8.0941157e-39 324 255
0.0066801999 0.76200002 -0.0200406 8.2781469e-39 325 255
0.0080162399 0.76200002 -0.0200406 8.0959038e-39 326 255
0.0093768267 0.764 -0.020093199 8.4650464e-39 327 255
0.010758453 0.76700002 -0.020172099 8.7430613e-39 328 255
0.012134819 0.76899999 -0.0202247 9.2036807e-39 329 255
0.013483133 0.76899999 -0.0202247 9.6646616e-39 330 255
0.014831445 0.76899999 -0.0202247 1.0033444e-38 331 255
0.016179759 0.76899999 -0.0202247 1.0035612e-38 332 255
0.01757366 0.77100003 -0.020277301 1.0680981e-38 333 255
0.018925481 0.77100003 -0.020277301 1.0132146e-38 334 255
-0.047436431 0.773 -0.021685226 1.4472563e-38 285 256
-0.046081103 0.773 -0.021685226 1.4189104e-38 286 256
-0.044610061 0.77100003 -0.021629119 1.0409083e-38 287 256
-0.043258239 0.77100003 -0.021629119 1.0403669e-38 288 256
-0.042015124 0.773 -0.021685226 9.9430506e-39 289 256
-0.0406598 0.773 -0.021685226 9.2072834e-39 290 256
-0.03920278 0.77100003 -0.021629119 8.9303378e-39 291 256
-0.037850961 0.77100003 -0.021629119 8.9288916e-39 292 256
-0.036404461 0.76899999 -0.021573013 8.4679135e-39 293 256
-0.034964975 0.76700002 -0.021516906 8.10021e-39 294 256
-0.033620168 0.76700002 -0.021516906 8.10021e-39 295 256
-0.032233275 0.76599997 -0.021488851 8.4671974e-39 296 256
-0.030890226 0.76599997 -0.021488851 8.4671974e-39 297 256
-0.029470026 0.764 -0.021432746 8.7419823e-39 298 256
-0.028056841 0.76200002 -0.02137664 8.7419823e-39 299 256
-0.0267208 0.76200002 -0.02137664 8.5575924e-39 300 256
-0.025351444 0.76099998 -0.021348584 8.5575924e-39 301 256
-0.024017159 0.76099998 -0.021348584 8.7401914e-39 302 256
-0.022682872 0.76099998 -0.021348584 8.55544e-39 303 256
-0.021348584 0.76099998 -0.021348584 8.2795846e-39 304 256
-0.020014299 0.76099998 -0.021348584 8.1870302e-39 305 256
-0.018680012 0.76099998 -0.021348584 8.0952031e-39 306 256
-0.017345725 0.76099998 -0.021348584 8.1873988e-39 307 256
-0.016011439 0.76099998 -0.021348584 8.3717816e-39 308 256
-0.014638579 0.759 -0.02129248 8.5558127e-39 309 256
-0.0133078 0.759 -0.02129248 8.55544e-39 310 256
-0.01197702 0.759 -0.02129248 8.4632444e-39 311 256
-0.01064624 0.759 -0.02129248 8.5550743e-39 312 256
-0.0093400059 0.76099998 -0.021348584 8.370683e-39 313 256
-0.0080057196 0.76099998 -0.021348584 8.0033424e-39 314 256
-0.0066714329 0.76099998 -0.021348584 7.6349186e-39 315 256
-0.0053371461 0.76099998 -0.021348584 7.2679438e-39 316 256
-0.0040028598 0.76099998 -0.021348584 6.8991627e-39 317 256
-0.0026685731 0.76099998 -0.021348584 6.6229485e-39 318 256
-0.0013342865 0.76099998 -0.021348584 6.5307529e-39 319 256
0 0.76099998 -0.021348584 6.2548905e-39 320 256
0.0013342865 0.76099998 -0.021348584 6.5311186e-39 321 256
0.00267208 0.76200002 -0.02137664 6.9917296e-39 322 256
0.0040081199 0.76200002 -0.02137664 7.2683179e-39 323 256
0.0053441599 0.76200002 -0.02137664 7.4519833e-39 324 256
0.006697733 0.764 -0.021432746 7.6367333e-39 325 256
0.0080372803 0.764 -0.021432746 7.9133104e-39 326 256
0.0094013726 0.76599997 -0.021488851 8.282453e-39 327 256
0.010758453 0.76700002 -0.021516906 8.7437815e-39 328 256
0.012134819 0.76899999 -0.021573013 9.112564e-39 329 256
0.013483133 0.76899999 -0.021573013 9.5739079e-39 330 256
0.014831445 0.76899999 -0.021573013 9.9430506e-39 331 256
0.016179759 0.76899999 -0.021573013 1.0037414e-38 332 256
0.01757366 0.77100003 -0.021629119 1.0498391e-38 333 256
-0.046081103 0.773 -0.023040552 1.4652249e-38 286 257
-0.044610061 0.77100003 -0.02298094 1.1978575e-38 287 257
-0.043258239 0.77100003 -0.02298094 1.1971354e-38 288 257
-0.042015124 0.773 -0.023040552 1.0956842e-38 289 257
-0.0406598 0.773 -0.023040552 1.0128517e-38 290 257
