# .PCD v.7 - Point Cloud Data file format
FIELDS x y z rgb imX imY
SIZE 4 4 4 4 4 4
TYPE F F F F F F
COUNT 1 1 1 1 1 1
WIDTH 829
HEIGHT 1
VIEWPOINT 0 0 0 1 0 0 0
POINTS 829
DATA ascii
0.02155548 0.68300003 -0.061073858 1.0855997e-38 338 291
0.022786319 0.68400002 -0.061163284 1.0763799e-38 339 291
0.0239856 0.68400002 -0.061163284 1.048722e-38 340 291
0.025258519 0.68599999 -0.061342116 1.048722e-38 341 291
0.026461305 0.68599999 -0.061342116 1.1407731e-38 342 291
0.027704418 0.68699998 -0.061431535 1.1776154e-38 343 291
0.028908957 0.68699998 -0.061431535 1.2053454e-38 344 291
0.030157333 0.68800002 -0.06152096 1.232968e-38 345 291
0.031454802 0.69 -0.061699796 1.242116e-38 346 291
0.032664597 0.69 -0.061699796 1.2605191e-38 347 291
0.0338744 0.69 -0.061699796 1.2514073e-38 348 291
0.035135046 0.69099998 -0.061789215 1.2606627e-38 349 291
0.036346599 0.69099998 -0.061789215 1.2516227e-38 350 291
0.037666857 0.69300002 -0.061968062 1.2792454e-38 351 291
0.03888192 0.69300002 -0.061968062 1.2611309e-38 352 291
0.040154841 0.69400001 -0.06205748 1.2887898e-38 353 291
0.041371655 0.69400001 -0.06205748 1.2707473e-38 354 291
0.042772565 0.69700003 -0.062325738 1.2707473e-38 355 291
0.043994639 0.69700003 -0.062325738 1.3818882e-38 356 291
0.045281585 0.69800001 -0.062415157 1.6676587e-38 357 291
0.046505414 0.69800001 -0.062415157 1.7882711e-38 358 291
0.047865998 0.69999999 -0.062593997 1.8435526e-38 359 291
-0.027117053 0.70300001 -0.064094849 1.0585549e-38 298 292
-0.025810819 0.70099998 -0.063912503 1.1230918e-38 299 292
-0.024546666 0.69999999 -0.063821331 1.177977e-38 300 292
-0.023252707 0.69800001 -0.063638985 1.1319151e-38 301 292
-0.02199732 0.69700003 -0.06354782 1.1042558e-38 302 292
-0.020775247 0.69700003 -0.06354782 1.0858166e-38 303 292
-0.019525118 0.69599998 -0.063456632 1.0307154e-38 304 292
-0.0182522 0.69400001 -0.063274294 1.0307154e-38 305 292
-0.01701084 0.69300002 -0.063183114 1.0674851e-38 306 292
-0.015795778 0.69300002 -0.063183114 1.0767046e-38 307 292
-0.014538639 0.69099998 -0.063000768 1.1226576e-38 308 292
-0.0133078 0.69 -0.062909603 1.1226576e-38 309 292
-0.012097999 0.69 -0.062909603 1.1317701e-38 310 292
-0.010856641 0.68800002 -0.06272725 1.1225504e-38 311 292
-0.0096503468 0.68800002 -0.06272725 1.1132952e-38 312 292
-0.0084440531 0.68800002 -0.06272725 1.1132952e-38 313 292
-0.0072272392 0.68699998 -0.062636077 1.0857447e-38 314 292
-0.0060226996 0.68699998 -0.062636077 1.0580501e-38 315 292
-0.0048181596 0.68699998 -0.062636077 1.0396483e-38 316 292
-0.0036136196 0.68699998 -0.062636077 1.0396483e-38 317 292
-0.0024055731 0.68599999 -0.062544905 1.0396483e-38 318 292
-0.0012027866 0.68599999 -0.062544905 1.0396483e-38 319 292
0 0.68400002 -0.062362559 1.0489034e-38 320 292
0.00119928 0.68400002 -0.062362559 1.0489034e-38 321 292
0.0023985601 0.68400002 -0.062362559 1.0397189e-38 322 292
0.0035925799 0.68300003 -0.06227139 1.0397189e-38 323 292
0.0047901068 0.68300003 -0.06227139 1.0397186e-38 324 292
0.0059876335 0.68300003 -0.06227139 1.0212794e-38 325 292
0.0071851597 0.68300003 -0.06227139 1.0303917e-38 326 292
0.0083704125 0.68199998 -0.062180214 1.0303917e-38 327 292
0.009566186 0.68199998 -0.062180214 9.84546e-39 328 292
0.010761959 0.68199998 -0.062180214 9.6610687e-39 329 292
0.011957732 0.68199998 -0.062180214 9.2937309e-39 330 292
0.013153506 0.68199998 -0.062180214 9.2015353e-39 331 292
0.01434928 0.68199998 -0.062180214 9.1079131e-39 332 292
0.015545053 0.68199998 -0.062180214 9.1079131e-39 333 292
0.016740825 0.68199998 -0.062180214 9.7518378e-39 334 292
0.017962901 0.68300003 -0.06227139 1.0028425e-38 335 292
0.019160427 0.68300003 -0.06227139 1.0212796e-38 336 292
0.020357953 0.68300003 -0.06227139 1.0304992e-38 337 292
0.02155548 0.68300003 -0.06227139 1.0305345e-38 338 292
0.022786319 0.68400002 -0.062362559 9.936564e-39 339 292
0.0239856 0.68400002 -0.062362559 9.9365668e-39 340 292
0.025258519 0.68599999 -0.062544905 1.0212794e-38 341 292
0.026499879 0.68699998 -0.062636077 1.0674485e-38 342 292
0.027704418 0.68699998 -0.062636077 1.1135104e-38 343 292
0.028908957 0.68699998 -0.062636077 1.150352e-38 344 292
0.030157333 0.68800002 -0.06272725 1.1595715e-38 345 292
0.031454802 0.69 -0.062909603 1.2053819e-38 346 292
0.032664597 0.69 -0.062909603 1.2146015e-38 347 292
0.0338744 0.69 -0.062909603 1.2238567e-38 348 292
0.035135046 0.69099998 -0.063000768 1.2514795e-38 349 292
0.036346599 0.69099998 -0.063000768 1.2241804e-38 350 292
0.037666857 0.69300002 -0.063183114 1.2426196e-38 351 292
0.03888192 0.69300002 -0.063183114 1.2335814e-38 352 292
0.040154841 0.69400001 -0.063274294 1.2704957e-38 353 292
0.041371655 0.69400001 -0.063274294 1.2432333e-38 354 292
0.042772565 0.69700003 -0.06354782 1.2524528e-38 355 292
0.043994639 0.69700003 -0.06354782 1.4370617e-38 356 292
0.045281585 0.69800001 -0.063638985 1.7413433e-38 357 292
0.046505414 0.69800001 -0.063638985 1.7973835e-38 358 292
0.047865998 0.69999999 -0.063821331 1.8434813e-38 359 292
-0.027117053 0.70300001 -0.065327443 1.1045818e-38 298 293
-0.025810819 0.70099998 -0.065141588 1.1875937e-38 299 293
-0.024546666 0.69999999 -0.065048665 1.1321319e-38 300 293
-0.023252707 0.69800001 -0.06486281 1.1136567e-38 301 293
-0.02199732 0.69700003 -0.064769886 1.0860328e-38 302 293
-0.020775247 0.69700003 -0.064769886 1.0584101e-38 303 293
-0.019525118 0.69599998 -0.064676955 9.9405268e-39 304 293
-0.0182522 0.69400001 -0.064491108 9.8483312e-39 305 293
-0.017035386 0.69400001 -0.064491108 1.0582655e-38 306 293
-0.015795778 0.69300002 -0.064398177 1.0674851e-38 307 293
-0.014538639 0.69099998 -0.06421233 1.1225854e-38 308 293
-0.0133078 0.69 -0.064119399 1.1133658e-38 309 293
-0.012097999 0.69 -0.064119399 1.1041109e-38 310 293
-0.010856641 0.68800002 -0.063933544 1.0764883e-38 311 293
-0.0096503468 0.68800002 -0.063933544 1.0581936e-38 312 293
-0.0084440531 0.68800002 -0.063933544 1.0489382e-38 313 293
-0.0072272392 0.68699998 -0.06384062 1.0397186e-38 314 293
-0.0060226996 0.68699998 -0.06384062 1.0212794e-38 315 293
-0.0048181596 0.68699998 -0.06384062 1.0118807e-38 316 293
-0.00360836 0.68599999 -0.063747689 1.0302838e-38 317 293
-0.0024055731 0.68599999 -0.063747689 1.0303194e-38 318 293
-0.0012027866 0.68599999 -0.063747689 1.0487585e-38 319 293
0 0.68400002 -0.063561834 1.0487583e-38 320 293
0.00119928 0.68400002 -0.063561834 1.0672334e-38 321 293
0.0023950534 0.68300003 -0.063468911 1.0397189e-38 322 293
0.0035925799 0.68300003 -0.063468911 1.0397189e-38 323 293
0.0047901068 0.68300003 -0.063468911 1.0304992e-38 324 293
0.0059876335 0.68300003 -0.063468911 1.0304992e-38 325 293
0.00717464 0.68199998 -0.063375987 1.0029481e-38 326 293
0.0083704125 0.68199998 -0.063375987 1.0029481e-38 327 293
0.009566186 0.68199998 -0.063375987 9.5688731e-39 328 293
0.010761959 0.68199998 -0.063375987 9.3844804e-39 329 293
0.011957732 0.68199998 -0.063375987 9.1075446e-39 330 293
0.013153506 0.68199998 -0.063375987 8.9231533e-39 331 293
0.01434928 0.68199998 -0.063375987 8.8306046e-39 332 293
0.015545053 0.68199998 -0.063375987 8.5543764e-39 333 293
0.016740825 0.68199998 -0.063375987 9.4730901e-39 334 293
0.017962901 0.68300003 -0.063468911 1.0025905e-38 335 293
0.019160427 0.68300003 -0.063468911 1.0119523e-38 336 293
0.020357953 0.68300003 -0.063468911 1.0212077e-38 337 293
0.02158704 0.68400002 -0.063561834 1.002876e-38 338 293
0.022786319 0.68400002 -0.063561834 9.936564e-39 339 293
0.0239856 0.68400002 -0.063561834 9.9369143e-39 340 293
0.025258519 0.68599999 -0.063747689 1.02135e-38 341 293
0.026499879 0.68699998 -0.06384062 1.058299e-38 342 293
0.027704418 0.68699998 -0.06384062 1.0951412e-38 343 293
0.028908957 0.68699998 -0.06384062 1.1686461e-38 344 293
0.030157333 0.68800002 -0.063933544 1.1778656e-38 345 293
0.031363625 0.68800002 -0.063933544 1.2328959e-38 346 293
0.032664597 0.69 -0.064119399 1.2328959e-38 347 293
0.0338744 0.69 -0.064119399 1.2329678e-38 348 293
0.035135046 0.69099998 -0.06421233 1.2514429e-38 349 293
0.036451802 0.69300002 -0.064398177 1.2241079e-38 350 293
0.037666857 0.69300002 -0.064398177 1.2517665e-38 351 293
0.038938027 0.69400001 -0.064491108 1.2612028e-38 352 293
0.040154841 0.69400001 -0.064491108 1.2796421e-38 353 293
0.041371655 0.69400001 -0.064491108 1.2893304e-38 354 293
0.042772565 0.69700003 -0.064769886 1.2893304e-38 355 293
0.043994639 0.69700003 -0.064769886 1.4923075e-38 356 293
0.045216713 0.69700003 -0.064769886 1.8426509e-38 357 293
0.046438783 0.69700003 -0.064769886 1.8157147e-38 358 293
-0.027117053 0.70300001 -0.066560037 1.1232003e-38 298 294
-0.025810819 0.70099998 -0.066370681 1.1232003e-38 299 294
-0.024546666 0.69999999 -0.066275999 1.1965234e-38 300 294
-0.023252707 0.69800001 -0.066086642 1.1688647e-38 301 294
-0.02199732 0.69700003 -0.06599196 1.1228375e-38 302 294
-0.020775247 0.69700003 -0.06599196 1.1043625e-38 303 294
-0.019525118 0.69599998 -0.065897278 1.0400056e-38 304 294
-0.0182522 0.69400001 -0.065707922 1.030786e-38 305 294
-0.017035386 0.69400001 -0.065707922 1.039934e-38 306 294
-0.015795778 0.69300002 -0.06561324 1.039934e-38 307 294
-0.014580719 0.69300002 -0.06561324 1.0674132e-38 308 294
-0.013327086 0.69099998 -0.065423876 1.0581936e-38 309 294
-0.012062933 0.68800002 -0.065139838 1.0213521e-38 310 294
-0.010856641 0.68800002 -0.065139838 1.0121324e-38 311 294
-0.0096503468 0.68800002 -0.065139838 9.6635868e-39 312 294
-0.0084440531 0.68800002 -0.065139838 9.5713898e-39 313 294
-0.0072272392 0.68699998 -0.065045156 9.7532643e-39 314 294
-0.0060226996 0.68699998 -0.065045156 9.5688731e-39 315 294
-0.0048111463 0.68599999 -0.064950474 9.4763271e-39 316 294
-0.00360836 0.68599999 -0.064950474 9.4763271e-39 317 294
-0.0024055731 0.68599999 -0.064950474 9.3852077e-39 318 294
-0.0012027866 0.68599999 -0.064950474 9.5692388e-39 319 294
0 0.68400002 -0.064761117 9.84546e-39 320 294
0.00119928 0.68400002 -0.064761117 9.84546e-39 321 294
0.0023950534 0.68300003 -0.064666435 9.8454628e-39 322 294
0.0035925799 0.68300003 -0.064666435 1.0029494e-38 323 294
0.0047901068 0.68300003 -0.064666435 9.8461788e-39 324 294
0.0059876335 0.68300003 -0.064666435 9.8461788e-39 325 294
0.00717464 0.68199998 -0.064571753 9.8458131e-39 326 294
0.0083704125 0.68199998 -0.064571753 9.7536174e-39 327 294
0.009566186 0.68199998 -0.064571753 9.5688759e-39 328 294
0.010761959 0.68199998 -0.064571753 9.2000933e-39 329 294
0.011957732 0.68199998 -0.064571753 8.5568917e-39 330 294
0.013153506 0.68199998 -0.064571753 8.3725005e-39 331 294
0.01434928 0.68199998 -0.064571753 8.0040865e-39 332 294
0.015545053 0.68199998 -0.064571753 8.0040865e-39 333 294
0.016765373 0.68300003 -0.064666435 8.189198e-39 334 294
0.0179892 0.68400002 -0.064761117 8.4661437e-39 335 294
0.01918848 0.68400002 -0.064761117 9.293012e-39 336 294
0.020387759 0.68400002 -0.064761117 9.3852077e-39 337 294
0.02158704 0.68400002 -0.064761117 9.5688703e-39 338 294
0.022852944 0.68599999 -0.064950474 9.5688703e-39 339 294
0.024055731 0.68599999 -0.064950474 9.3866272e-39 340 294
0.025258519 0.68599999 -0.064950474 9.6635728e-39 341 294
0.026461305 0.68599999 -0.064950474 1.0307495e-38 342 294
0.027664091 0.68599999 -0.064950474 1.0675917e-38 343 294
0.028908957 0.68699998 -0.065045156 1.1410249e-38 344 294
0.030113498 0.68699998 -0.065045156 1.1502445e-38 345 294
0.031363625 0.68800002 -0.065139838 1.1778312e-38 346 294
0.032664597 0.69 -0.065329194 1.1870507e-38 347 294
0.0338744 0.69 -0.065329194 1.1963419e-38 348 294
0.035135046 0.69099998 -0.065423876 1.2055616e-38 349 294
0.036451802 0.69300002 -0.06561324 1.1873388e-38 350 294
0.037666857 0.69300002 -0.06561324 1.2334366e-38 351 294
0.038938027 0.69400001 -0.065707922 1.1877357e-38 352 294
0.040270556 0.69599998 -0.065897278 1.2614922e-38 353 294
0.041490879 0.69599998 -0.065897278 1.2342654e-38 354 294
0.042711195 0.69599998 -0.065897278 1.2895469e-38 355 294
0.043931518 0.69599998 -0.065897278 1.5478046e-38 356 294
0.045151837 0.69599998 -0.065897278 1.8889286e-38 357 294
0.046438783 0.69700003 -0.06599196 1.8157514e-38 358 294
-0.025810819 0.70099998 -0.067599766 1.0957198e-38 299 295
-0.024546666 0.69999999 -0.067503333 1.1875193e-38 300 295
-0.023252707 0.69800001 -0.06731046 1.1690442e-38 301 295
-0.02202888 0.69800001 -0.06731046 1.1505329e-38 302 295
-0.020805053 0.69800001 -0.06731046 1.1044709e-38 303 295
-0.019553173 0.69700003 -0.067214034 1.0492975e-38 304 295
-0.018304799 0.69599998 -0.067117594 1.0216747e-38 305 295
-0.017035386 0.69400001 -0.066924736 1.0307863e-38 306 295
-0.015795778 0.69300002 -0.066828303 1.0215309e-38 307 295
-0.014580719 0.69300002 -0.066828303 1.0397905e-38 308 295
-0.013327086 0.69099998 -0.06663543 1.0213874e-38 309 295
-0.012062933 0.68800002 -0.066346131 9.8458131e-39 310 295
-0.010856641 0.68800002 -0.066346131 9.7536174e-39 311 295
-0.0096503468 0.68800002 -0.066346131 9.3873517e-39 312 295
-0.0084440531 0.68800002 -0.066346131 9.3873517e-39 313 295
-0.0072272392 0.68699998 -0.066249698 9.385558e-39 314 295
-0.0060226996 0.68699998 -0.066249698 9.2011653e-39 315 295
-0.0048111463 0.68599999 -0.066153266 9.1086166e-39 316 295
-0.00360836 0.68599999 -0.066153266 9.1086166e-39 317 295
-0.0024055731 0.68599999 -0.066153266 9.3844776e-39 318 295
-0.0012027866 0.68599999 -0.066153266 9.6614246e-39 319 295
0 0.68400002 -0.0659604 9.9362108e-39 320 295
0.00119928 0.68400002 -0.0659604 1.0028406e-38 321 295
0.0023950534 0.68300003 -0.065863967 9.844381e-39 322 295
0.0035925799 0.68300003 -0.065863967 9.9365766e-39 323 295
0.0047901068 0.68300003 -0.065863967 9.5706709e-39 324 295
0.0059876335 0.68300003 -0.065863967 9.6628666e-39 325 295
0.00717464 0.68199998 -0.065767527 9.5706681e-39 326 295
0.0083704125 0.68199998 -0.065767527 9.4784725e-39 327 295
0.009566186 0.68199998 -0.065767527 9.110413e-39 328 295
0.010761959 0.68199998 -0.065767527 9.0182174e-39 329 295
0.011957732 0.68199998 -0.065767527 8.4668443e-39 330 295
0.013172794 0.68300003 -0.065863967 8.1902574e-39 331 295
0.014370319 0.68300003 -0.065863967 7.9129573e-39 332 295
0.015567848 0.68300003 -0.065863967 7.9129573e-39 333 295
0.016765373 0.68300003 -0.065863967 8.1891826e-39 334 295
0.0179892 0.68400002 -0.0659604 8.5579637e-39 335 295
0.01918848 0.68400002 -0.0659604 9.2015185e-39 336 295
0.020387759 0.68400002 -0.0659604 9.3859111e-39 337 295
0.02158704 0.68400002 -0.0659604 9.4766746e-39 338 295
0.022786319 0.68400002 -0.0659604 9.3844776e-39 339 295
0.0239856 0.68400002 -0.0659604 9.3859111e-39 340 295
0.025258519 0.68599999 -0.066153266 9.6621379e-39 341 295
0.026461305 0.68599999 -0.066153266 1.0490085e-38 342 295
0.027664091 0.68599999 -0.066153266 1.0674835e-38 343 295
0.02886688 0.68599999 -0.066153266 1.1500999e-38 344 295
0.030113498 0.68699998 -0.066249698 1.1777227e-38 345 295
0.031318039 0.68699998 -0.066249698 1.1686113e-38 346 295
0.032569919 0.68800002 -0.066346131 1.1870504e-38 347 295
0.033923492 0.69099998 -0.06663543 1.1871942e-38 348 295
0.035236739 0.69300002 -0.066828303 1.1964139e-38 349 295
0.036451802 0.69300002 -0.066828303 1.1782272e-38 350 295
0.037666857 0.69300002 -0.066828303 1.1966661e-38 351 295
0.038938027 0.69400001 -0.066924736 1.1969905e-38 352 295
0.040270556 0.69599998 -0.067117594 1.2430884e-38 353 295
0.041490879 0.69599998 -0.067117594 1.3168093e-38 354 295
0.042711195 0.69599998 -0.067117594 1.4551386e-38 355 295
0.043931518 0.69599998 -0.067117594 1.6217776e-38 356 295
0.045151837 0.69599998 -0.067117594 1.8799254e-38 357 295
-0.027039904 0.70099998 -0.068828844 1.2618515e-38 298 296
-0.025810819 0.70099998 -0.068828844 1.105119e-38 299 296
-0.024546666 0.69999999 -0.068730667 1.1877344e-38 300 296
-0.023252707 0.69800001 -0.068534292 1.1877344e-38 301 296
-0.02202888 0.69800001 -0.068534292 1.1966659e-38 302 296
-0.020805053 0.69800001 -0.068534292 1.1413485e-38 303 296
-0.019553173 0.69700003 -0.068436109 1.0861031e-38 304 296
-0.018304799 0.69599998 -0.068337917 1.0492608e-38 305 296
-0.017035386 0.69400001 -0.068141542 1.0216391e-38 306 296
-0.015795778 0.69300002 -0.068043359 9.8476081e-39 307 296
-0.014580719 0.69300002 -0.068043359 9.9387318e-39 308 296
-0.013327086 0.69099998 -0.067846984 9.8465347e-39 309 296
-0.012097999 0.69 -0.0677488 9.6632197e-39 310 296
-0.010856641 0.68800002 -0.067552425 9.5710241e-39 311 296
-0.0096503468 0.68800002 -0.067552425 9.3862769e-39 312 296
-0.0084440531 0.68800002 -0.067552425 9.2940812e-39 313 296
-0.0072272392 0.68699998 -0.067454241 9.2015325e-39 314 296
-0.0060226996 0.68699998 -0.067454241 8.9253043e-39 315 296
-0.0048111463 0.68599999 -0.06735605 8.9249484e-39 316 296
-0.00360836 0.68599999 -0.06735605 9.017144e-39 317 296
-0.0024055731 0.68599999 -0.06735605 9.2015297e-39 318 296
-0.0012027866 0.68599999 -0.06735605 9.294084e-39 319 296
0 0.68400002 -0.067159683 9.7525413e-39 320 296
0.00119928 0.68400002 -0.067159683 9.8447369e-39 321 296
0.0023950534 0.68300003 -0.067061491 9.2015325e-39 322 296
0.0035925799 0.68300003 -0.067061491 9.4784781e-39 323 296
0.0047901068 0.68300003 -0.067061491 9.479197e-39 324 296
0.0059876335 0.68300003 -0.067061491 9.479197e-39 325 296
0.0071851597 0.68300003 -0.067061491 9.4784753e-39 326 296
0.0083826864 0.68300003 -0.067061491 9.4784753e-39 327 296
0.009566186 0.68199998 -0.0669633 9.4784753e-39 328 296
0.010761959 0.68199998 -0.0669633 9.3862797e-39 329 296
0.011975267 0.68300003 -0.067061491 8.8349024e-39 330 296
0.013172794 0.68300003 -0.067061491 8.6505097e-39 331 296
0.014370319 0.68300003 -0.067061491 8.0977031e-39 332 296
0.015567848 0.68300003 -0.067061491 8.005506e-39 333 296
0.016765373 0.68300003 -0.067061491 7.9143936e-39 334 296
0.017962901 0.68300003 -0.067061491 8.282816e-39 335 296
0.01918848 0.68400002 -0.067159683 9.0174971e-39 336 296
0.020387759 0.68400002 -0.067159683 9.294084e-39 337 296
0.02158704 0.68400002 -0.067159683 9.5688731e-39 338 296
0.022786319 0.68400002 -0.067159683 9.3844804e-39 339 296
0.0239856 0.68400002 -0.067159683 9.3859111e-39 340 296
0.025258519 0.68599999 -0.06735605 9.7543335e-39 341 296
0.026461305 0.68599999 -0.06735605 1.0397891e-38 342 296
0.027664091 0.68599999 -0.06735605 1.0674479e-38 343 296
0.02886688 0.68599999 -0.06735605 1.1042542e-38 344 296
0.030113498 0.68699998 -0.067454241 1.1410965e-38 345 296
0.031318039 0.68699998 -0.067454241 1.1503164e-38 346 296
0.032569919 0.68800002 -0.067552425 1.1595359e-38 347 296
0.033923492 0.69099998 -0.067846984 1.1688274e-38 348 296
0.035236739 0.69300002 -0.068043359 1.1965221e-38 349 296
0.036451802 0.69300002 -0.068043359 1.1782996e-38 350 296
0.037721213 0.69400001 -0.068141542 1.1782996e-38 351 296
0.038938027 0.69400001 -0.068141542 1.1785158e-38 352 296
0.040270556 0.69599998 -0.068337917 1.2430528e-38 353 296
0.041550495 0.69700003 -0.068436109 1.3169898e-38 354 296
0.042711195 0.69599998 -0.068337917 1.5751375e-38 355 296
0.043931518 0.69599998 -0.068337917 1.6771676e-38 356 296
0.045151837 0.69599998 -0.068337917 1.8431197e-38 357 296
-0.027039904 0.70099998 -0.070057929 1.4370952e-38 298 297
-0.025810819 0.70099998 -0.070057929 1.1697279e-38 299 297
-0.024546666 0.69999999 -0.069957994 1.2888616e-38 300 297
-0.023252707 0.69800001 -0.069758117 1.2888616e-38 301 297
-0.02202888 0.69800001 -0.069758117 1.2335448e-38 302 297
-0.020805053 0.69800001 -0.069758117 1.1782274e-38 303 297
-0.019581227 0.69800001 -0.069758117 1.0954309e-38 304 297
-0.018331099 0.69700003 -0.069658175 1.0585526e-38 305 297
-0.017084479 0.69599998 -0.069558233 1.0216747e-38 306 297
-0.015818574 0.69400001 -0.069358356 1.0031997e-38 307 297
-0.014580719 0.69300002 -0.069258414 9.9390849e-39 308 297
-0.013327086 0.69099998 -0.069058537 9.9390849e-39 309 297
-0.012097999 0.69 -0.068958595 9.7543363e-39 310 297
-0.010856641 0.68800002 -0.068758719 9.6621407e-39 311 297
-0.0096503468 0.68800002 -0.068758719 9.3862797e-39 312 297
-0.0084440531 0.68800002 -0.068758719 9.2015297e-39 313 297
-0.0072272392 0.68699998 -0.068658777 9.017144e-39 314 297
-0.0060226996 0.68699998 -0.068658777 9.017144e-39 315 297
-0.0048181596 0.68699998 -0.068658777 9.0175e-39 316 297
-0.00360836 0.68599999 -0.068558842 9.2015325e-39 317 297
-0.0024055731 0.68599999 -0.068558842 9.110769e-39 318 297
-0.0012027866 0.68599999 -0.068558842 9.110769e-39 319 297
0 0.68400002 -0.068358958 9.385558e-39 320 297
0.00119928 0.68400002 -0.068358958 9.385558e-39 321 297
0.0023950534 0.68300003 -0.068259016 9.0189391e-39 322 297
0.0035925799 0.68300003 -0.068259016 9.2033303e-39 323 297
0.0047901068 0.68300003 -0.068259016 9.2033303e-39 324 297
0.0059876335 0.68300003 -0.068259016 9.295526e-39 325 297
0.0071851597 0.68300003 -0.068259016 9.3866454e-39 326 297
0.0083826864 0.68300003 -0.068259016 9.3866454e-39 327 297
0.0095802136 0.68300003 -0.068259016 9.4784781e-39 328 297
0.01077774 0.68300003 -0.068259016 9.4784781e-39 329 297
0.011975267 0.68300003 -0.068259016 9.0182174e-39 330 297
0.013172794 0.68300003 -0.068259016 8.8338248e-39 331 297
0.014370319 0.68300003 -0.068259016 8.3735697e-39 332 297
0.015567848 0.68300003 -0.068259016 8.0047872e-39 333 297
0.016765373 0.68300003 -0.068259016 8.0969898e-39 334 297
0.017962901 0.68300003 -0.068259016 8.5576078e-39 335 297
0.01918848 0.68400002 -0.068358958 9.0182202e-39 336 297
0.020387759 0.68400002 -0.068358958 9.2026115e-39 337 297
0.02158704 0.68400002 -0.068358958 9.8447341e-39 338 297
0.022786319 0.68400002 -0.068358958 9.8447341e-39 339 297
0.0239856 0.68400002 -0.068358958 1.0029832e-38 340 297
0.025258519 0.68599999 -0.068558842 1.0214224e-38 341 297
0.026461305 0.68599999 -0.068558842 1.0765949e-38 342 297
0.027664091 0.68599999 -0.068558842 1.0950699e-38 343 297
0.02886688 0.68599999 -0.068558842 1.1226573e-38 344 297
0.030113498 0.68699998 -0.068658777 1.1410965e-38 345 297
0.031318039 0.68699998 -0.068658777 1.1686476e-38 346 297
0.032664597 0.69 -0.068958595 1.1871226e-38 347 297
0.033923492 0.69099998 -0.069058537 1.1688274e-38 348 297
0.035236739 0.69300002 -0.069258414 1.1965221e-38 349 297
0.036504399 0.69400001 -0.069358356 1.1690445e-38 350 297
0.037721213 0.69400001 -0.069358356 1.178264e-38 351 297
0.038938027 0.69400001 -0.069358356 1.169261e-38 352 297
0.040270556 0.69599998 -0.069558233 1.2614925e-38 353 297
0.041550495 0.69700003 -0.069658175 1.3631965e-38 354 297
0.042711195 0.69599998 -0.069558233 1.6674419e-38 355 297
0.043931518 0.69599998 -0.069558233 1.6957156e-38 356 297
-0.025773998 0.69999999 -0.071185328 1.3172414e-38 299 298
-0.024546666 0.69999999 -0.071185328 1.4084276e-38 300 298
-0.023252707 0.69800001 -0.07098195 1.3899883e-38 301 298
-0.02202888 0.69800001 -0.07098195 1.2703505e-38 302 298
-0.020805053 0.69800001 -0.07098195 1.2058135e-38 303 298
-0.019581227 0.69800001 -0.07098195 1.1139423e-38 304 298
-0.018331099 0.69700003 -0.070880257 1.0586249e-38 305 298
-0.017084479 0.69599998 -0.070778556 1.0310028e-38 306 298
-0.015818574 0.69400001 -0.07057517 9.8490501e-39 307 298
-0.014580719 0.69300002 -0.070473477 9.9398038e-39 308 298
-0.01336566 0.69300002 -0.070473477 9.6632169e-39 309 298
-0.012115533 0.69099998 -0.070270091 9.7543363e-39 310 298
-0.010856641 0.68800002 -0.06996502 9.6621407e-39 311 298
-0.0096503468 0.68800002 -0.06996502 9.2029674e-39 312 298
-0.0084440531 0.68800002 -0.06996502 9.0182174e-39 313 298
-0.0072272392 0.68699998 -0.069863312 9.2015325e-39 314 298
-0.0060226996 0.68699998 -0.069863312 9.2015325e-39 315 298
-0.0048111463 0.68599999 -0.069761619 9.2015297e-39 316 298
-0.00360836 0.68599999 -0.069761619 9.294084e-39 317 298
-0.0024055731 0.68599999 -0.069761619 9.110769e-39 318 298
-0.0012027866 0.68599999 -0.069761619 9.0185733e-39 319 298
0 0.68599999 -0.069761619 9.2940812e-39 320 298
0.00119928 0.68400002 -0.06955824 9.2940812e-39 321 298
0.0023985601 0.68400002 -0.06955824 8.834908e-39 322 298
0.0035925799 0.68300003 -0.069456547 9.1111347e-39 323 298
0.0047901068 0.68300003 -0.069456547 9.2029772e-39 324 298
0.0059876335 0.68300003 -0.069456547 9.2029772e-39 325 298
0.0071851597 0.68300003 -0.069456547 9.2955316e-39 326 298
0.0083826864 0.68300003 -0.069456547 9.2029772e-39 327 298
0.0095802136 0.68300003 -0.069456547 9.3866454e-39 328 298
0.01077774 0.68300003 -0.069456547 9.2026143e-39 329 298
0.011975267 0.68300003 -0.069456547 9.200815e-39 330 298
0.013172794 0.68300003 -0.069456547 9.016065e-39 331 298
0.014370319 0.68300003 -0.069456547 8.3724977e-39 332 298
0.015567848 0.68300003 -0.069456547 8.188105e-39 333 298
0.016789921 0.68400002 -0.06955824 8.3724977e-39 334 298
0.0179892 0.68400002 -0.06955824 8.5568889e-39 335 298
0.01918848 0.68400002 -0.06955824 9.2011653e-39 336 298
0.020387759 0.68400002 -0.06955824 9.5695891e-39 337 298
0.02158704 0.68400002 -0.06955824 1.0029116e-38 338 298
0.022786319 0.68400002 -0.06955824 1.0305342e-38 339 298
0.0239856 0.68400002 -0.06955824 1.0398244e-38 340 298
0.025258519 0.68599999 -0.069761619 1.0490441e-38 341 298
0.026461305 0.68599999 -0.069761619 1.0949261e-38 342 298
0.027664091 0.68599999 -0.069761619 1.1134011e-38 343 298
0.02886688 0.68599999 -0.069761619 1.1318049e-38 344 298
0.030113498 0.68699998 -0.069863312 1.1686832e-38 345 298
0.031318039 0.68699998 -0.069863312 1.1686476e-38 346 298
0.032664597 0.69 -0.070168398 1.1963422e-38 347 298
0.033923492 0.69099998 -0.070270091 1.178083e-38 348 298
0.035236739 0.69300002 -0.070473477 1.2149252e-38 349 298
0.036504399 0.69400001 -0.07057517 1.1782274e-38 350 298
0.037721213 0.69400001 -0.07057517 1.1690079e-38 351 298
0.039106347 0.69700003 -0.070880257 1.1324539e-38 352 298
0.040328421 0.69700003 -0.070880257 1.3260647e-38 353 298
0.041610107 0.69800001 -0.07098195 1.4185504e-38 354 298
0.042833932 0.69800001 -0.07098195 1.6951732e-38 355 298
-0.024546666 0.69999999 -0.072412662 1.4270461e-38 300 299
-0.023319334 0.69999999 -0.072412662 1.4085711e-38 301 299
-0.022091998 0.69999999 -0.072412662 1.3256307e-38 302 299
-0.020864666 0.69999999 -0.072412662 1.2611297e-38 303 299
-0.019581227 0.69800001 -0.072205767 1.2149956e-38 304 299
-0.0183574 0.69800001 -0.072205767 1.1688977e-38 305 299
-0.017084479 0.69599998 -0.071998879 1.0952864e-38 306 299
-0.015864158 0.69599998 -0.071998879 1.0675917e-38 307 299
-0.01460176 0.69400001 -0.071791984 1.0215665e-38 308 299
-0.01336566 0.69300002 -0.07168854 9.939438e-39 309 299
-0.012150601 0.69300002 -0.07168854 9.8468823e-39 310 299
-0.010856641 0.68800002 -0.071171306 9.7546866e-39 311 299
-0.0096503468 0.68800002 -0.071171306 9.7536146e-39 312 299
-0.0084440531 0.68800002 -0.071171306 9.5692234e-39 313 299
-0.0072272392 0.68699998 -0.071067855 9.385558e-39 314 299
-0.0060226996 0.68699998 -0.071067855 9.2933624e-39 315 299
-0.0048111463 0.68599999 -0.070964411 9.3855608e-39 316 299
-0.00360836 0.68599999 -0.070964411 9.2933652e-39 317 299
-0.0024055731 0.68599999 -0.070964411 9.2930092e-39 318 299
-0.0012027866 0.68599999 -0.070964411 9.2930092e-39 319 299
0 0.68599999 -0.070964411 9.0178643e-39 320 299
0.00119928 0.68400002 -0.070757523 9.0178643e-39 321 299
0.0023985601 0.68400002 -0.070757523 9.1100627e-39 322 299
0.0035925799 0.68300003 -0.070654072 9.2022584e-39 323 299
0.0047901068 0.68300003 -0.070654072 8.9274721e-39 324 299
0.0059876335 0.68300003 -0.070654072 9.0196678e-39 325 299
0.0071851597 0.68300003 -0.070654072 9.2029772e-39 326 299
0.0083826864 0.68300003 -0.070654072 9.2029772e-39 327 299
0.0095802136 0.68300003 -0.070654072 9.3866482e-39 328 299
0.01077774 0.68300003 -0.070654072 9.1100627e-39 329 299
0.011975267 0.68300003 -0.070654072 9.1086194e-39 330 299
0.013172794 0.68300003 -0.070654072 8.9238694e-39 331 299
0.014370319 0.68300003 -0.070654072 8.6476398e-39 332 299
0.015567848 0.68300003 -0.070654072 8.6476398e-39 333 299
0.016789921 0.68400002 -0.070757523 8.3724949e-39 334 299
0.0179892 0.68400002 -0.070757523 8.741276e-39 335 299
0.01918848 0.68400002 -0.070757523 8.8338248e-39 336 299
0.020387759 0.68400002 -0.070757523 9.110413e-39 337 299
0.02158704 0.68400002 -0.070757523 1.0029832e-38 338 299
0.022786319 0.68400002 -0.070757523 1.0398255e-38 339 299
0.0239856 0.68400002 -0.070757523 1.0673756e-38 340 299
0.025258519 0.68599999 -0.070964411 1.0765952e-38 341 299
0.026461305 0.68599999 -0.070964411 1.1041463e-38 342 299
0.027664091 0.68599999 -0.070964411 1.1225854e-38 343 299
0.028908957 0.68699998 -0.071067855 1.1319126e-38 344 299
0.030113498 0.68699998 -0.071067855 1.1503517e-38 345 299
0.031363625 0.68800002 -0.071171306 1.2054891e-38 346 299
0.032569919 0.68800002 -0.071171306 1.2147087e-38 347 299
0.033923492 0.69099998 -0.071481638 1.1965574e-38 348 299
0.035236739 0.69300002 -0.07168854 1.2149605e-38 349 299
0.036504399 0.69400001 -0.071791984 1.1782993e-38 350 299
0.037721213 0.69400001 -0.071791984 1.1782993e-38 351 299
0.039162453 0.69800001 -0.072205767 1.1419253e-38 352 299
0.040386278 0.69800001 -0.072205767 1.3170611e-38 353 299
0.041610107 0.69800001 -0.072205767 1.4371697e-38 354 299
0.042833932 0.69800001 -0.072205767 1.6768782e-38 355 299
-0.023319334 0.69999999 -0.073639996 1.3721269e-38 301 300
-0.022091998 0.69999999 -0.073639996 1.3717301e-38 302 300
-0.020864666 0.69999999 -0.073639996 1.3164127e-38 303 300
-0.019637333 0.69999999 -0.073639996 1.224325e-38 304 300
-0.0183574 0.69800001 -0.073429599 1.1690076e-38 305 300
-0.017109027 0.69700003 -0.073324397 1.0955751e-38 306 300
-0.015864158 0.69599998 -0.073219195 1.0310381e-38 307 300
-0.01460176 0.69400001 -0.073008798 1.0033794e-38 308 300
-0.01336566 0.69300002 -0.072903603 9.7572076e-39 309 300
-0.012115533 0.69099998 -0.072693199 9.7564915e-39 310 300
-0.010888199 0.69 -0.072587997 9.6639372e-39 311 300
-0.0096783992 0.69 -0.072587997 9.5710241e-39 312 300
-0.0084440531 0.68800002 -0.0723776 9.5710241e-39 313 300
-0.0072272392 0.68699998 -0.07227239 9.5695891e-39 314 300
-0.0060226996 0.68699998 -0.07227239 9.5695891e-39 315 300
-0.0048181596 0.68699998 -0.07227239 9.3855608e-39 316 300
-0.0036136196 0.68699998 -0.07227239 9.2008094e-39 317 300
-0.0024090798 0.68699998 -0.07227239 9.3841245e-39 318 300
-0.0012027866 0.68599999 -0.072167195 9.2000933e-39 319 300
0 0.68599999 -0.072167195 9.1086194e-39 320 300
0.0012027866 0.68599999 -0.072167195 9.1086194e-39 321 300
0.0023985601 0.68400002 -0.071956798 9.2004633e-39 322 300
0.00359784 0.68400002 -0.071956798 9.3848545e-39 323 300
0.0047971201 0.68400002 -0.071956798 9.2022584e-39 324 300
0.0059876335 0.68300003 -0.071851604 9.2022584e-39 325 300
0.0071851597 0.68300003 -0.071851604 9.295526e-39 326 300
0.0083826864 0.68300003 -0.071851604 9.295526e-39 327 300
0.0095802136 0.68300003 -0.071851604 9.2026115e-39 328 300
0.01077774 0.68300003 -0.071851604 9.0182202e-39 329 300
0.011975267 0.68300003 -0.071851604 9.016421e-39 330 300
0.013172794 0.68300003 -0.071851604 9.1086166e-39 331 300
0.01439136 0.68400002 -0.071956798 8.6505097e-39 332 300
0.01559064 0.68400002 -0.071956798 8.4661184e-39 333 300
0.016789921 0.68400002 -0.071956798 8.2824502e-39 334 300
0.0179892 0.68400002 -0.071956798 8.1902546e-39 335 300
0.01918848 0.68400002 -0.071956798 9.1089669e-39 336 300
0.020387759 0.68400002 -0.071956798 9.3859139e-39 337 300
0.02158704 0.68400002 -0.071956798 1.0213144e-38 338 300
0.022786319 0.68400002 -0.071956798 1.0490091e-38 339 300
0.0239856 0.68400002 -0.071956798 1.0582634e-38 340 300
0.025258519 0.68599999 -0.072167195 1.0582634e-38 341 300
0.026461305 0.68599999 -0.072167195 1.1134006e-38 342 300
0.027664091 0.68599999 -0.072167195 1.1318756e-38 343 300
0.028908957 0.68699998 -0.07227239 1.1502798e-38 344 300
0.030113498 0.68699998 -0.07227239 1.187122e-38 345 300
0.031363625 0.68800002 -0.0723776 1.1780827e-38 346 300
0.032569919 0.68800002 -0.0723776 1.2149608e-38 347 300
0.0338744 0.69 -0.072587997 1.1875539e-38 348 300
0.035236739 0.69300002 -0.072903603 1.1967736e-38 349 300
0.036504399 0.69400001 -0.073008798 1.1875906e-38 350 300
0.037938625 0.69800001 -0.073429599 1.2060656e-38 351 300
0.039162453 0.69800001 -0.073429599 1.2155386e-38 352 300
0.040386278 0.69800001 -0.073429599 1.4091494e-38 353 300
0.041729331 0.69999999 -0.073639996 1.4464264e-38 354 300
0.042956665 0.69999999 -0.073639996 1.6031592e-38 355 300
-0.023419274 0.70300001 -0.07518819 1.3537972e-38 301 301
-0.02218668 0.70300001 -0.07518819 1.3443957e-38 302 301
-0.020894472 0.70099998 -0.074974284 1.298298e-38 303 301
-0.019665385 0.70099998 -0.074974284 1.2705654e-38 304 301
-0.018409999 0.69999999 -0.07486733 1.2060285e-38 305 301
-0.017109027 0.69700003 -0.074546471 1.1599653e-38 306 301
-0.015886955 0.69700003 -0.074546471 1.1138675e-38 307 301
-0.014643839 0.69599998 -0.074439511 1.0677704e-38 308 301
-0.01336566 0.69300002 -0.074118659 1.0493311e-38 309 301
-0.012115533 0.69099998 -0.073904753 1.0217094e-38 310 301
-0.01090398 0.69099998 -0.073904753 1.0124898e-38 311 301
-0.0096783992 0.69 -0.0737978 1.0214943e-38 312 301
-0.0084440531 0.68800002 -0.073583893 1.003055e-38 313 301
-0.0072272392 0.68699998 -0.073476933 9.7546894e-39 314 301
-0.0060226996 0.68699998 -0.073476933 9.6624938e-39 315 301
-0.0048181596 0.68699998 -0.073476933 9.6617749e-39 316 301
-0.0036136196 0.68699998 -0.073476933 9.5695793e-39 317 301
-0.0024090798 0.68699998 -0.073476933 9.3844748e-39 318 301
-0.0012027866 0.68599999 -0.073369987 9.2004437e-39 319 301
0 0.68599999 -0.073369987 8.7412788e-39 320 301
0.0012027866 0.68599999 -0.073369987 8.8334744e-39 321 301
0.0023985601 0.68400002 -0.073156074 8.6494531e-39 322 301
0.00359784 0.68400002 -0.073156074 8.7420089e-39 323 301
0.0047971201 0.68400002 -0.073156074 9.0185888e-39 324 301
0.0059876335 0.68300003 -0.073049128 9.20298e-39 325 301
0.0071851597 0.68300003 -0.073049128 9.4784753e-39 326 301
0.0083826864 0.68300003 -0.073049128 9.4784753e-39 327 301
0.0095802136 0.68300003 -0.073049128 9.5695891e-39 328 301
0.01079352 0.68400002 -0.073156074 9.2933624e-39 329 301
0.0119928 0.68400002 -0.073156074 9.2937155e-39 330 301
0.01319208 0.68400002 -0.073156074 9.2937155e-39 331 301
0.01439136 0.68400002 -0.073156074 9.2015129e-39 332 301
0.01559064 0.68400002 -0.073156074 9.1093172e-39 333 301
0.016789921 0.68400002 -0.073156074 8.7412634e-39 334 301
0.0179892 0.68400002 -0.073156074 8.833459e-39 335 301
0.01918848 0.68400002 -0.073156074 8.8341779e-39 336 301
0.020387759 0.68400002 -0.073156074 9.1107662e-39 337 301
0.02158704 0.68400002 -0.073156074 9.8465165e-39 338 301
0.022852944 0.68599999 -0.073369987 1.0215299e-38 339 301
0.024055731 0.68599999 -0.073369987 1.058299e-38 340 301
0.025258519 0.68599999 -0.073369987 1.0675186e-38 341 301
0.026461305 0.68599999 -0.073369987 1.122656e-38 342 301
0.027704418 0.68699998 -0.073476933 1.1410953e-38 343 301
0.028908957 0.68699998 -0.073476933 1.1596068e-38 344 301
0.030113498 0.68699998 -0.073476933 1.2056688e-38 345 301
0.031363625 0.68800002 -0.073583893 1.196629e-38 346 301
0.032569919 0.68800002 -0.073583893 1.2150681e-38 347 301
0.0338744 0.69 -0.0737978 1.1967736e-38 348 301
0.035236739 0.69300002 -0.074118659 1.2060291e-38 349 301
0.036609598 0.69599998 -0.074439511 1.2152852e-38 350 301
0.037938625 0.69800001 -0.074653424 1.261383e-38 351 301
0.039162453 0.69800001 -0.074653424 1.2983354e-38 352 301
0.040502001 0.69999999 -0.07486733 1.4642877e-38 353 301
0.041729331 0.69999999 -0.07486733 1.400581e-38 354 301
0.042956665 0.69999999 -0.07486733 1.5203994e-38 355 301
-0.02218668 0.70300001 -0.076420791 1.3261366e-38 302 302
-0.020954086 0.70300001 -0.076420791 1.2800389e-38 303 302
-0.019665385 0.70099998 -0.076203369 1.2707098e-38 304 302
-0.018409999 0.69999999 -0.076094657 1.2153924e-38 305 302
-0.017133573 0.69800001 -0.075877249 1.1601821e-38 306 302
-0.015886955 0.69700003 -0.075768545 1.1048647e-38 307 302
-0.014643839 0.69599998 -0.075659841 1.0588393e-38 308 302
-0.01336566 0.69300002 -0.075333714 1.0311808e-38 309 302
-0.012115533 0.69099998 -0.075116299 1.0127066e-38 310 302
-0.01090398 0.69099998 -0.075116299 1.0034871e-38 311 302
-0.0096924258 0.69099998 -0.075116299 1.0124914e-38 312 302
-0.0084686 0.69 -0.075007595 9.8486871e-39 313 302
-0.0072377604 0.68800002 -0.074790187 9.939801e-39 314 302
-0.0060314666 0.68800002 -0.074790187 9.8476053e-39 315 302
-0.0048181596 0.68699998 -0.074681476 9.7550426e-39 316 302
-0.0036136196 0.68699998 -0.074681476 9.5702926e-39 317 302
-0.0024090798 0.68699998 -0.074681476 9.2944316e-39 318 302
-0.0012045399 0.68699998 -0.074681476 9.2022359e-39 319 302
0 0.68699998 -0.074681476 8.7427081e-39 320 302
0.0012027866 0.68599999 -0.074572764 8.6505125e-39 321 302
0.0024055731 0.68599999 -0.074572764 8.8323996e-39 322 302
0.00360836 0.68599999 -0.074572764 8.924954e-39 323 302
0.0048111463 0.68599999 -0.074572764 9.1100627e-39 324 302
0.0059964 0.68400002 -0.074355356 9.3866482e-39 325 302
0.0071956799 0.68400002 -0.074355356 9.4791942e-39 326 302
0.0083949603 0.68400002 -0.074355356 9.4791942e-39 327 302
0.0095942402 0.68400002 -0.074355356 9.5710241e-39 328 302
0.01079352 0.68400002 -0.074355356 9.4788284e-39 329 302
0.0119928 0.68400002 -0.074355356 9.6624938e-39 330 302
0.01319208 0.68400002 -0.074355356 9.5702982e-39 331 302
0.01439136 0.68400002 -0.074355356 9.5702982e-39 332 302
0.01559064 0.68400002 -0.074355356 9.2937127e-39 333 302
0.016789921 0.68400002 -0.074355356 9.0178531e-39 334 302
0.0179892 0.68400002 -0.074355356 8.9252987e-39 335 302
0.01918848 0.68400002 -0.074355356 9.3859111e-39 336 302
0.020387759 0.68400002 -0.074355356 9.7543335e-39 337 302
0.021650158 0.68599999 -0.074572764 1.0123099e-38 338 302
0.022852944 0.68599999 -0.074572764 1.0399688e-38 339 302
0.024055731 0.68599999 -0.074572764 1.0858498e-38 340 302
0.025258519 0.68599999 -0.074572764 1.0950693e-38 341 302
0.026499879 0.68699998 -0.074681476 1.13184e-38 342 302
0.027704418 0.68699998 -0.074681476 1.1687182e-38 343 302
0.028908957 0.68699998 -0.074681476 1.1688983e-38 344 302
0.030157333 0.68800002 -0.074790187 1.2149602e-38 345 302
0.031363625 0.68800002 -0.074790187 1.2059207e-38 346 302
0.032664597 0.69 -0.075007595 1.22436e-38 347 302
0.034021679 0.69300002 -0.075333714 1.2060654e-38 348 302
0.035287585 0.69400001 -0.075442426 1.2245404e-38 349 302
0.036609598 0.69599998 -0.075659841 1.2154298e-38 350 302
0.037938625 0.69800001 -0.075877249 1.2523079e-38 351 302
0.039162453 0.69800001 -0.075877249 1.2983724e-38 352 302
0.040502001 0.69999999 -0.076094657 1.4458853e-38 353 302
0.041729331 0.69999999 -0.076094657 1.2995265e-38 354 302
-0.020983893 0.704 -0.077763841 1.2985499e-38 303 303
-0.019721493 0.70300001 -0.077653378 1.32599e-38 304 303
-0.018409999 0.69999999 -0.077321991 1.2706726e-38 305 303
-0.017133573 0.69800001 -0.077101074 1.1970956e-38 306 303
-0.015909746 0.69800001 -0.077101074 1.1325946e-38 307 303
-0.014643839 0.69599998 -0.076880157 1.0864984e-38 308 303
-0.013423519 0.69599998 -0.076880157 1.0404006e-38 309 303
-0.012150601 0.69300002 -0.076548778 1.0218912e-38 310 303
-0.01090398 0.69099998 -0.076327853 1.003452e-38 311 303
-0.0096924258 0.69099998 -0.076327853 1.0124917e-38 312 303
-0.0084686 0.69 -0.076217398 1.0124917e-38 313 303
-0.0072377604 0.68800002 -0.075996481 9.9412359e-39 314 303
-0.0060314666 0.68800002 -0.075996481 9.7564859e-39 315 303
-0.0048251734 0.68800002 -0.075996481 9.8479585e-39 316 303
-0.0036136196 0.68699998 -0.075886011 9.5713716e-39 317 303
-0.0024090798 0.68699998 -0.075886011 9.3873461e-39 318 303
-0.0012045399 0.68699998 -0.075886011 9.2033149e-39 319 303
0 0.68699998 -0.075886011 8.8349024e-39 320 303
0.0012045399 0.68699998 -0.075886011 8.7427053e-39 321 303
0.0024090798 0.68699998 -0.075886011 8.6501622e-39 322 303
0.0036136196 0.68699998 -0.075886011 8.7423578e-39 323 303
0.0048181596 0.68699998 -0.075886011 8.6519614e-39 324 303
0.0060139326 0.68599999 -0.075775556 8.9281882e-39 325 303
0.0072167199 0.68599999 -0.075775556 9.6632225e-39 326 303
0.0083949603 0.68400002 -0.075554639 9.6632225e-39 327 303
0.0095942402 0.68400002 -0.075554639 9.6632169e-39 328 303
0.01079352 0.68400002 -0.075554639 9.6632169e-39 329 303
0.0119928 0.68400002 -0.075554639 9.8461662e-39 330 303
0.013230653 0.68599999 -0.075775556 9.8461662e-39 331 303
0.01439136 0.68400002 -0.075554639 9.8461662e-39 332 303
0.01559064 0.68400002 -0.075554639 9.7539706e-39 333 303
0.016839013 0.68599999 -0.075775556 9.3866272e-39 334 303
0.018041799 0.68599999 -0.075775556 9.4788228e-39 335 303
0.019244585 0.68599999 -0.075775556 9.7546866e-39 336 303
0.020447372 0.68599999 -0.075775556 9.939438e-39 337 303
0.021650158 0.68599999 -0.075775556 1.0307492e-38 338 303
0.022852944 0.68599999 -0.075775556 1.0492242e-38 339 303
0.024055731 0.68599999 -0.075775556 1.1042895e-38 340 303
0.025295338 0.68699998 -0.075886011 1.1226926e-38 341 303
0.026499879 0.68699998 -0.075886011 1.1411319e-38 342 303
0.027704418 0.68699998 -0.075886011 1.1688264e-38 343 303
0.028908957 0.68699998 -0.075886011 1.1781899e-38 344 303
0.030157333 0.68800002 -0.075996481 1.196629e-38 345 303
0.031454802 0.69 -0.076217398 1.1967736e-38 346 303
0.03280662 0.69300002 -0.076548778 1.2060291e-38 347 303
0.034021679 0.69300002 -0.076548778 1.2152852e-38 348 303
0.035287585 0.69400001 -0.07665924 1.2245048e-38 349 303
0.036662199 0.69700003 -0.076990619 1.2155023e-38 350 303
0.037938625 0.69800001 -0.077101074 1.2523445e-38 351 303
0.039162453 0.69800001 -0.077101074 1.2249046e-38 352 303
-0.019749546 0.704 -0.078998186 1.3628686e-38 304 304
-0.018436298 0.70099998 -0.078661539 1.3167349e-38 305 304
-0.017182667 0.69999999 -0.078549333 1.2431587e-38 306 304
-0.015909746 0.69800001 -0.078324907 1.1693663e-38 307 304
-0.01468592 0.69800001 -0.078324907 1.1416003e-38 308 304
-0.013442807 0.69700003 -0.078212693 1.0955384e-38 309 304
-0.012150601 0.69300002 -0.077763841 1.031111e-38 310 304
-0.010935539 0.69300002 -0.077763841 1.012636e-38 311 304
-0.0096924258 0.69099998 -0.077539407 1.0034164e-38 312 304
-0.0084686 0.69 -0.077427194 9.9419674e-39 313 304
-0.0072587994 0.69 -0.077427194 9.7582866e-39 314 304
-0.0060489997 0.69 -0.077427194 9.6660909e-39 315 304
-0.0048251734 0.68800002 -0.077202775 9.9401569e-39 316 304
-0.0036188802 0.68800002 -0.077202775 9.8476025e-39 317 304
-0.0024125867 0.68800002 -0.077202775 9.4795445e-39 318 304
-0.0012062934 0.68800002 -0.077202775 9.3873489e-39 319 304
0 0.68800002 -0.077202775 9.1114878e-39 320 304
0.0012045399 0.68699998 -0.077090554 8.8349024e-39 321 304
0.0024090798 0.68699998 -0.077090554 9.0182202e-39 322 304
0.0036136196 0.68699998 -0.077090554 9.1104158e-39 323 304
0.0048181596 0.68699998 -0.077090554 9.2036863e-39 324 304
0.0060139326 0.68599999 -0.076978341 9.3880775e-39 325 304
0.0072167199 0.68599999 -0.076978341 9.6632197e-39 326 304
0.0083949603 0.68400002 -0.076753922 9.9394478e-39 327 304
0.0095942402 0.68400002 -0.076753922 1.0214949e-38 328 304
0.01079352 0.68400002 -0.076753922 1.0214949e-38 329 304
0.0119928 0.68400002 -0.076753922 1.0398258e-38 330 304
0.013230653 0.68599999 -0.076978341 1.0398258e-38 331 304
0.01443344 0.68599999 -0.076978341 1.0122747e-38 332 304
0.015659019 0.68699998 -0.077090554 1.0214943e-38 333 304
0.01686356 0.68699998 -0.077090554 1.0215296e-38 334 304
0.018068098 0.68699998 -0.077090554 1.0215296e-38 335 304
0.019272638 0.68699998 -0.077090554 1.049116e-38 336 304
0.020447372 0.68599999 -0.076978341 1.0675551e-38 337 304
0.021650158 0.68599999 -0.076978341 1.0767747e-38 338 304
0.022886258 0.68699998 -0.077090554 1.0859943e-38 339 304
0.024090799 0.68699998 -0.077090554 1.1319123e-38 340 304
0.025295338 0.68699998 -0.077090554 1.1411319e-38 341 304
0.026538454 0.68800002 -0.077202775 1.1504589e-38 342 304
0.027744746 0.68800002 -0.077202775 1.1781177e-38 343 304
0.028951041 0.68800002 -0.077202775 1.196629e-38 344 304
0.030288832 0.69099998 -0.077539407 1.2150681e-38 345 304
0.031591557 0.69300002 -0.077763841 1.2243247e-38 346 304
0.03280662 0.69300002 -0.077763841 1.2335801e-38 347 304
0.034021679 0.69300002 -0.077763841 1.2152499e-38 348 304
0.035389278 0.69599998 -0.078100473 1.2244695e-38 349 304
0.036662199 0.69700003 -0.078212693 1.2062118e-38 350 304
0.037938625 0.69800001 -0.078324907 1.2246509e-38 351 304
0.039162453 0.69800001 -0.078324907 1.1238489e-38 352 304
-0.017182667 0.69999999 -0.079776667 1.2889338e-38 306 305
-0.015955333 0.69999999 -0.079776667 1.242836e-38 307 305
-0.014727999 0.69999999 -0.079776667 1.1325256e-38 308 305
-0.013462093 0.69800001 -0.079548739 1.0864278e-38 309 305
-0.012220734 0.69700003 -0.079434767 1.0402953e-38 310 305
-0.01095132 0.69400001 -0.079092868 1.0033811e-38 311 305
-0.0097204801 0.69300002 -0.078978904 9.9416142e-39 312 305
-0.0085054198 0.69300002 -0.078978904 9.7575831e-39 313 305
-0.0072693196 0.69099998 -0.078750968 9.9412457e-39 314 305
-0.0060489997 0.69 -0.078636996 9.8490501e-39 315 305
-0.0048391996 0.69 -0.078636996 9.9394478e-39 316 305
-0.0036188802 0.68800002 -0.078409068 9.6632197e-39 317 305
-0.0024125867 0.68800002 -0.078409068 9.1125696e-39 318 305
-0.0012062934 0.68800002 -0.078409068 9.0200153e-39 319 305
0 0.68800002 -0.078409068 9.2029674e-39 320 305
0.0012045399 0.68699998 -0.078295097 9.2029674e-39 321 305
0.0024090798 0.68699998 -0.078295097 9.2036807e-39 322 305
0.0036136196 0.68699998 -0.078295097 9.3884307e-39 323 305
0.0048181596 0.68699998 -0.078295097 9.4806277e-39 324 305
0.0060226996 0.68699998 -0.078295097 9.3884307e-39 325 305
0.0072272392 0.68699998 -0.078295097 9.938729e-39 326 305
0.0084195063 0.68599999 -0.078181133 1.0215314e-38 327 305
0.0096222926 0.68599999 -0.078181133 1.039934e-38 328 305
0.010825079 0.68599999 -0.078181133 1.0491536e-38 329 305
0.012027865 0.68599999 -0.078181133 1.0675204e-38 330 305
0.013230653 0.68599999 -0.078181133 1.0675204e-38 331 305
0.01443344 0.68599999 -0.078181133 1.0399337e-38 332 305
0.015659019 0.68699998 -0.078295097 1.0491533e-38 333 305
0.01686356 0.68699998 -0.078295097 1.0676273e-38 334 305
0.018068098 0.68699998 -0.078295097 1.0676273e-38 335 305
0.019272638 0.68699998 -0.078295097 1.0768103e-38 336 305
0.020477179 0.68699998 -0.078295097 1.1044331e-38 337 305
0.021681719 0.68699998 -0.078295097 1.1136529e-38 338 305
0.022886258 0.68699998 -0.078295097 1.1136529e-38 339 305
0.024125867 0.68800002 -0.078409068 1.1320205e-38 340 305
0.02533216 0.68800002 -0.078409068 1.1596431e-38 341 305
0.026538454 0.68800002 -0.078409068 1.168898e-38 342 305
0.027744746 0.68800002 -0.078409068 1.1873373e-38 343 305
0.028951041 0.68800002 -0.078409068 1.2149958e-38 344 305
0.0303765 0.69300002 -0.078978904 1.2426547e-38 345 305
0.031591557 0.69300002 -0.078978904 1.2243247e-38 346 305
0.03280662 0.69300002 -0.078978904 1.2427997e-38 347 305
0.034021679 0.69300002 -0.078978904 1.2060669e-38 348 305
0.035389278 0.69599998 -0.079320796 1.2152865e-38 349 305
0.036662199 0.69700003 -0.079434767 1.1786257e-38 350 305
0.037938625 0.69800001 -0.079548739 1.1878453e-38 351 305
-0.017256306 0.70300001 -0.081351154 1.289042e-38 306 306
-0.016023712 0.70300001 -0.081351154 1.2521279e-38 307 306
-0.014727999 0.69999999 -0.081004001 1.1875909e-38 308 306
-0.013462093 0.69800001 -0.080772556 1.1414931e-38 309 306
-0.012220734 0.69700003 -0.080656841 1.1044722e-38 310 306
-0.010982879 0.69599998 -0.080541112 1.0584104e-38 311 306
-0.0097345067 0.69400001 -0.080309682 9.9408954e-39 312 306
-0.0085176928 0.69400001 -0.080309682 9.8486998e-39 313 306
-0.0072903596 0.69300002 -0.080193959 9.5731919e-39 314 306
-0.0060577663 0.69099998 -0.079962514 9.4809962e-39 315 306
-0.0048391996 0.69 -0.079846799 9.4799214e-39 316 306
-0.0036293997 0.69 -0.079846799 9.2955288e-39 317 306
-0.0024195998 0.69 -0.079846799 9.2033303e-39 318 306
-0.0012097999 0.69 -0.079846799 9.2033303e-39 319 306
0 0.69 -0.079846799 8.9281756e-39 320 306
0.0012062934 0.68800002 -0.079615362 9.1125668e-39 321 306
0.0024125867 0.68800002 -0.079615362 9.8476053e-39 322 306
0.0036188802 0.68800002 -0.079615362 9.939801e-39 323 306
0.0048251734 0.68800002 -0.079615362 1.0307142e-38 324 306
0.0060314666 0.68800002 -0.079615362 1.0307142e-38 325 306
0.0072272392 0.68699998 -0.079499632 1.0215665e-38 326 306
0.0084317802 0.68699998 -0.079499632 1.0400056e-38 327 306
0.0096222926 0.68599999 -0.079383917 1.0675201e-38 328 306
0.010825079 0.68599999 -0.079383917 1.0767397e-38 329 306
